31.141 -122.485 3.646 0.00
31.141 -121.435 3.646 0.00
31.141 -120.384 3.645 0.00
31.141 -119.333 3.643 0.00
31.141 -118.282 3.641 0.00
31.141 -117.232 3.644 0.00
31.141 -116.181 3.649 19.15
31.141 -115.130 3.652 3670.07
31.141 -114.079 3.766 5930.00
31.141 -113.028 3.936 9902.43
31.141 -111.978 3.921 14587.11
31.141 -110.927 3.770 19850.19
31.141 -109.876 3.737 20270.56
31.141 -108.825 3.601 24140.90
31.141 -107.774 3.597 25123.96
31.141 -106.724 3.572 30477.95
31.141 -105.673 3.512 35640.84
31.141 -104.622 3.437 34888.78
31.141 -103.571 3.543 29467.62
31.141 -102.521 3.642 31385.85
31.141 -101.470 3.743 33645.21
31.141 -100.419 3.688 39430.91
31.141 -99.368 3.666 40110.85
31.141 -98.317 3.724 32144.45
31.141 -97.267 3.774 24926.66
31.141 -96.216 3.703 15703.53
31.141 -95.165 3.654 15250.64
31.141 -94.114 3.646 14001.12
31.141 -93.063 3.692 14723.62
31.141 -92.013 3.739 14757.46
31.141 -90.962 3.782 14061.10
31.141 -89.911 3.794 15241.65
31.141 -88.860 3.787 17059.58
31.141 -87.810 3.813 16614.84
31.141 -86.759 3.837 14580.44
31.141 -85.708 3.794 16059.21
31.141 -84.657 3.698 10363.76
31.141 -83.606 3.659 11965.71
31.141 -82.556 3.669 7241.88
31.141 -81.505 3.667 2117.37
31.141 -80.454 3.675 829.78
31.141 -79.403 3.711 720.31
31.141 -78.353 3.695 135.88
31.141 -77.302 3.686 107.55
31.141 -76.251 3.734 14.82
31.141 -75.200 3.817 207.41
31.141 -74.149 3.800 100.92
31.141 -73.099 3.725 0.00
31.141 -72.048 3.709 91.91
31.141 -70.997 3.720 110.90
31.141 -69.946 3.718 111.90
32.041 -129.076 3.700 66.94
32.041 -128.015 3.697 0.00
32.041 -126.954 3.688 0.00
32.041 -125.893 3.675 0.00
32.041 -124.832 3.655 0.00
32.041 -123.771 3.645 0.00
32.041 -122.710 3.645 0.00
32.041 -121.649 3.644 0.00
32.041 -120.588 3.643 0.00
32.041 -119.527 3.647 0.00
32.041 -118.466 3.657 0.00
32.041 -117.405 3.674 50.55
32.041 -116.344 3.673 1840.58
32.041 -115.283 3.600 32061.25
32.041 -114.222 3.655 28921.67
32.041 -113.161 3.857 30540.91
32.041 -112.100 3.876 33938.33
32.041 -111.039 3.712 40119.11
32.041 -109.978 3.678 38548.78
32.041 -108.917 3.571 37818.58
32.041 -107.856 3.612 37299.56
32.041 -106.795 3.596 38483.39
32.041 -105.734 3.564 36261.44
32.041 -104.673 3.451 36650.41
32.041 -103.612 3.499 36391.45
32.041 -102.551 3.738 29215.12
32.041 -101.490 3.813 34662.76
32.041 -100.429 3.762 42751.99
32.041 -99.368 3.700 34084.95
32.041 -98.307 3.756 36472.27
32.041 -97.246 3.812 31954.55
32.041 -96.185 3.731 25956.06
32.041 -95.124 3.703 24730.34
32.041 -94.063 3.612 44450.95
32.041 -93.002 3.698 25277.93
32.041 -91.941 3.746 24568.82
32.041 -90.880 3.782 24654.91
32.041 -89.819 3.791 21691.91
32.041 -88.758 3.776 19373.57
32.041 -87.697 3.791 16008.79
32.041 -86.636 3.797 14946.04
32.041 -85.575 3.707 16439.67
32.041 -84.515 3.648 13847.12
32.041 -83.454 3.721 11820.11
32.041 -82.393 3.787 5418.79
32.041 -81.332 3.782 3555.42
32.041 -80.271 3.730 839.82
32.041 -79.210 3.716 613.39
32.041 -78.149 3.694 128.88
32.041 -77.088 3.685 59.94
32.041 -76.027 3.732 98.88
32.041 -74.966 3.771 108.06
32.041 -73.905 3.748 114.74
32.041 -72.844 3.680 7.03
32.041 -71.783 3.665 0.00
32.041 -70.722 3.679 0.00
32.041 -69.661 3.690 0.00
32.940 -129.374 3.712 43.96
32.940 -128.302 3.727 110.90
32.940 -127.231 3.729 109.90
32.940 -126.159 3.711 110.90
32.940 -125.087 3.671 5.78
32.940 -124.016 3.650 0.00
32.940 -122.944 3.644 0.00
32.940 -121.873 3.643 0.00
32.940 -120.801 3.648 0.00
32.940 -119.729 3.666 289.35
32.940 -118.658 3.683 568.23
32.940 -117.586 3.711 1125.86
32.940 -116.514 3.802 8776.76
32.940 -115.443 3.811 121020.97
32.940 -114.371 3.642 124963.78
32.940 -113.299 3.789 83916.10
32.940 -112.228 3.855 69099.66
32.940 -111.156 3.732 63674.01
32.940 -110.085 3.680 53706.79
32.940 -109.013 3.573 49898.09
32.940 -107.941 3.576 50319.17
32.940 -106.870 3.555 47835.67
32.940 -105.798 3.556 44834.58
32.940 -104.726 3.467 39451.04
32.940 -103.655 3.545 43122.70
32.940 -102.583 3.690 44102.09
32.940 -101.511 3.749 47245.77
32.940 -100.440 3.771 43809.35
32.940 -99.368 3.693 46910.21
32.940 -98.297 3.696 48847.86
32.940 -97.225 3.771 44821.66
32.940 -96.153 3.704 36671.50
32.940 -95.082 3.659 31038.81
32.940 -94.010 3.590 44394.68
32.940 -92.938 3.722 30965.56
32.940 -91.867 3.815 26700.15
32.940 -90.795 3.797 25806.54
32.940 -89.723 3.720 23924.17
32.940 -88.652 3.696 24736.52
32.940 -87.580 3.706 20223.49
32.940 -86.509 3.672 16589.73
32.940 -85.437 3.609 19936.41
32.940 -84.365 3.645 16324.20
32.940 -83.294 3.778 10718.63
32.940 -82.222 3.871 9026.17
32.940 -81.150 3.863 5412.87
32.940 -80.079 3.784 2577.14
32.940 -79.007 3.736 710.39
32.940 -77.935 3.709 322.69
32.940 -76.864 3.697 0.00
32.940 -75.792 3.741 99.88
32.940 -74.721 3.758 99.88
32.940 -73.649 3.730 100.92
32.940 -72.577 3.667 7.79
32.940 -71.506 3.644 14.82
32.940 -70.434 3.647 7.03
32.940 -69.362 3.656 0.00
33.839 -129.686 3.671 0.00
33.839 -128.603 3.674 0.00
33.839 -127.521 3.680 0.00
33.839 -126.438 3.674 0.00
33.839 -125.355 3.656 0.00
33.839 -124.272 3.645 0.00
33.839 -123.189 3.642 0.00
33.839 -122.107 3.645 0.00
33.839 -121.024 3.656 0.00
33.839 -119.941 3.674 317.97
33.839 -118.858 3.664 1413.53
33.839 -117.775 3.616 21352.37
33.839 -116.693 3.788 29558.47
33.839 -115.610 3.882 61731.39
33.839 -114.527 3.738 82412.18
33.839 -113.444 3.770 87995.09
33.839 -112.362 3.796 83199.98
33.839 -111.279 3.700 78561.41
33.839 -110.196 3.658 67980.45
33.839 -109.113 3.568 62901.41
33.839 -108.030 3.550 60852.89
33.839 -106.948 3.498 54038.07
33.839 -105.865 3.506 47190.75
33.839 -104.782 3.475 40067.36
33.839 -103.699 3.618 43453.61
33.839 -102.617 3.714 49867.95
33.839 -101.534 3.733 51589.38
33.839 -100.451 3.679 47137.40
33.839 -99.368 3.572 47065.34
33.839 -98.285 3.607 50567.50
33.839 -97.203 3.674 49526.07
33.839 -96.120 3.661 44167.45
33.839 -95.037 3.703 41492.37
33.839 -93.954 3.636 45896.13
33.839 -92.872 3.660 38390.89
33.839 -91.789 3.771 34235.54
33.839 -90.706 3.767 28722.07
33.839 -89.623 3.724 24973.37
33.839 -88.540 3.714 23965.55
33.839 -87.458 3.688 20821.06
33.839 -86.375 3.672 19377.78
33.839 -85.292 3.669 26133.97
33.839 -84.209 3.680 19231.47
33.839 -83.126 3.732 11453.85
33.839 -82.044 3.832 10268.46
33.839 -80.961 3.837 4901.60
33.839 -79.878 3.824 3688.52
33.839 -78.795 3.765 937.48
33.839 -77.713 3.722 323.69
33.839 -76.630 3.705 0.00
33.839 -75.547 3.747 119.86
33.839 -74.464 3.748 80.91
33.839 -73.381 3.723 100.92
33.839 -72.299 3.669 0.00
33.839 -71.216 3.644 0.00
33.839 -70.133 3.642 7.79
33.839 -69.050 3.645 14.98
34.739 -130.012 3.647 7.95
34.739 -128.918 3.644 0.00
34.739 -127.823 3.648 0.00
34.739 -126.729 3.648 0.00
34.739 -125.635 3.644 0.00
34.739 -124.540 3.640 0.00
34.739 -123.446 3.642 0.00
34.739 -122.351 3.650 0.00
34.739 -121.257 3.660 0.00
34.739 -120.162 3.682 733.68
34.739 -119.068 3.682 4979.03
34.739 -117.974 3.515 22028.67
34.739 -116.879 3.603 33770.21
34.739 -115.785 3.776 57481.16
34.739 -114.690 3.764 64851.71
34.739 -113.596 3.713 59202.24
34.739 -112.501 3.542 57775.54
34.739 -111.407 3.565 65108.24
34.739 -110.313 3.658 67961.73
34.739 -109.218 3.597 64536.59
34.739 -108.124 3.577 61932.83
34.739 -107.029 3.454 58512.08
34.739 -105.935 3.470 52656.99
34.739 -104.840 3.470 49168.14
34.739 -103.746 3.548 51306.34
34.739 -102.651 3.660 58444.95
34.739 -101.557 3.699 57875.21
34.739 -100.463 3.601 56691.19
34.739 -99.368 3.595 58583.29
34.739 -98.274 3.613 54614.19
34.739 -97.179 3.671 54414.35
34.739 -96.085 3.669 53313.61
34.739 -94.990 3.695 56834.00
34.739 -93.896 3.632 52594.25
34.739 -92.802 3.619 43767.64
34.739 -91.707 3.719 36824.51
34.739 -90.613 3.774 34072.97
34.739 -89.518 3.745 33363.57
34.739 -88.424 3.779 34583.74
34.739 -87.329 3.743 24202.83
34.739 -86.235 3.664 20143.52
34.739 -85.141 3.647 20392.40
34.739 -84.046 3.623 17985.89
34.739 -82.952 3.626 12781.91
34.739 -81.857 3.669 11361.69
34.739 -80.763 3.741 7114.56
34.739 -79.668 3.824 3949.55
34.739 -78.574 3.799 1629.27
34.739 -77.480 3.733 620.09
34.739 -76.385 3.712 5.99
34.739 -75.291 3.749 194.77
34.739 -74.196 3.732 0.00
34.739 -73.102 3.709 100.92
34.739 -72.007 3.665 0.00
34.739 -70.913 3.645 0.00
34.739 -69.818 3.644 0.00
34.739 -68.724 3.646 0.00
35.638 -130.353 3.647 21.70
35.638 -129.247 3.646 9.93
35.638 -128.140 3.646 0.00
35.638 -127.034 3.645 0.00
35.638 -125.927 3.641 0.00
35.638 -124.820 3.640 0.00
35.638 -123.714 3.652 0.00
35.638 -122.607 3.666 0.00
35.638 -121.500 3.650 1948.64
35.638 -120.394 3.653 11745.82
35.638 -119.287 3.735 16616.52
35.638 -118.181 3.574 21803.73
35.638 -117.074 3.491 32263.90
35.638 -115.967 3.633 55524.71
35.638 -114.861 3.637 59760.39
35.638 -113.754 3.587 63080.38
35.638 -112.648 3.501 65861.41
35.638 -111.541 3.501 65738.84
35.638 -110.434 3.595 57296.98
35.638 -109.328 3.639 52896.00
35.638 -108.221 3.652 57197.82
35.638 -107.115 3.471 60130.83
35.638 -106.008 3.431 54663.43
35.638 -104.901 3.451 54122.53
35.638 -103.795 3.498 56238.07
35.638 -102.688 3.642 58770.04
35.638 -101.581 3.686 65752.14
35.638 -100.475 3.619 72872.45
35.638 -99.368 3.678 66463.22
35.638 -98.262 3.706 66596.59
35.638 -97.155 3.617 111209.10
35.638 -96.048 3.595 80590.79
35.638 -94.942 3.687 58042.00
35.638 -93.835 3.642 54748.58
35.638 -92.729 3.672 69874.08
35.638 -91.622 3.742 50692.17
35.638 -90.515 3.768 47240.85
35.638 -89.409 3.746 41428.29
35.638 -88.302 3.772 39210.07
35.638 -87.195 3.710 27925.48
35.638 -86.089 3.663 24086.47
35.638 -84.982 3.651 21923.12
35.638 -83.876 3.656 19705.58
35.638 -82.769 3.614 13845.36
35.638 -81.662 3.594 9888.28
35.638 -80.556 3.672 12103.70
35.638 -79.449 3.778 5320.90
35.638 -78.343 3.801 4931.43
35.638 -77.236 3.729 712.96
35.638 -76.129 3.715 421.78
35.638 -75.023 3.739 99.88
35.638 -73.916 3.722 27.98
35.638 -72.809 3.691 71.94
35.638 -71.703 3.656 0.00
35.638 -70.596 3.644 0.00
35.638 -69.490 3.645 0.00
35.638 -68.383 3.647 0.00
36.538 -130.710 3.648 0.00
36.538 -129.591 3.649 5.04
36.538 -128.471 3.649 14.98
36.538 -127.352 3.646 13.14
36.538 -126.233 3.641 0.00
36.538 -125.113 3.649 0.00
36.538 -123.994 3.678 0.00
36.538 -122.875 3.712 45.96
36.538 -121.755 3.672 2807.09
36.538 -120.636 3.701 43123.99
36.538 -119.516 3.765 56115.55
36.538 -118.397 3.587 53687.86
36.538 -117.278 3.460 53489.48
36.538 -116.158 3.492 66730.62
36.538 -115.039 3.522 70525.13
36.538 -113.920 3.458 80199.64
36.538 -112.800 3.457 68642.31
36.538 -111.681 3.516 61957.92
36.538 -110.562 3.584 53608.21
36.538 -109.442 3.654 48104.19
36.538 -108.323 3.665 51274.18
36.538 -107.204 3.475 54431.91
36.538 -106.084 3.395 54921.57
36.538 -104.965 3.381 57492.48
36.538 -103.846 3.441 69017.80
36.538 -102.726 3.632 72481.11
36.538 -101.607 3.694 76465.07
36.538 -100.488 3.655 72023.00
36.538 -99.368 3.703 68214.62
36.538 -98.249 3.786 70122.19
36.538 -97.130 3.702 68233.73
36.538 -96.010 3.608 82155.77
36.538 -94.891 3.770 74210.98
36.538 -93.771 3.728 69858.72
36.538 -92.652 3.711 72923.01
36.538 -91.533 3.728 55148.10
36.538 -90.413 3.733 53748.47
36.538 -89.294 3.689 51822.87
36.538 -88.175 3.692 41656.00
36.538 -87.055 3.678 28507.54
36.538 -85.936 3.618 24315.53
36.538 -84.817 3.599 23510.99
36.538 -83.697 3.670 21360.41
36.538 -82.578 3.672 17401.21
36.538 -81.459 3.623 12552.78
36.538 -80.339 3.610 10633.62
36.538 -79.220 3.721 5042.10
36.538 -78.101 3.778 2280.56
36.538 -76.981 3.739 550.83
36.538 -75.862 3.734 99.88
36.538 -74.743 3.741 99.88
36.538 -73.623 3.726 100.92
36.538 -72.504 3.678 0.00
36.538 -71.384 3.648 0.00
36.538 -70.265 3.643 0.00
36.538 -69.146 3.645 0.00
36.538 -68.026 3.646 0.00
37.437 -131.083 3.647 0.00
37.437 -129.950 3.647 0.00
37.437 -128.817 3.645 0.00
37.437 -127.685 3.641 1.68
37.437 -126.552 3.645 14.98
37.437 -125.419 3.666 14.98
37.437 -124.287 3.717 14.89
37.437 -123.154 3.757 133.87
37.437 -122.021 3.634 22068.57
37.437 -120.889 3.600 33670.99
37.437 -119.756 3.652 25663.64
37.437 -118.623 3.526 37973.82
37.437 -117.491 3.530 43345.30
37.437 -116.358 3.474 59586.06
37.437 -115.225 3.523 68863.83
37.437 -114.093 3.465 68001.04
37.437 -112.960 3.420 70785.41
37.437 -111.827 3.489 58237.09
37.437 -110.695 3.557 57771.95
37.437 -109.562 3.604 52293.46
37.437 -108.429 3.575 53806.27
37.437 -107.297 3.431 57002.25
37.437 -106.164 3.403 63093.09
37.437 -105.032 3.418 81307.16
37.437 -103.899 3.465 74556.15
37.437 -102.766 3.655 74618.04
37.437 -101.634 3.707 66189.97
37.437 -100.501 3.663 64859.74
37.437 -99.368 3.659 65932.62
37.437 -98.236 3.743 62417.05
37.437 -97.103 3.713 64307.21
37.437 -95.970 3.680 65481.19
37.437 -94.838 3.786 68982.82
37.437 -93.705 3.767 78085.24
37.437 -92.572 3.685 76846.49
37.437 -91.440 3.656 65886.27
37.437 -90.307 3.658 58575.30
37.437 -89.174 3.637 49672.75
37.437 -88.042 3.695 38095.75
37.437 -86.909 3.649 31640.64
37.437 -85.776 3.615 27207.84
37.437 -84.644 3.590 21323.63
37.437 -83.511 3.644 20866.96
37.437 -82.378 3.664 20202.72
37.437 -81.246 3.610 25763.29
37.437 -80.113 3.599 21726.31
37.437 -78.980 3.750 15123.32
37.437 -77.848 3.828 2714.27
37.437 -76.715 3.796 691.75
37.437 -75.582 3.761 99.88
37.437 -74.450 3.739 99.88
37.437 -73.317 3.722 100.92
37.437 -72.184 3.673 0.00
37.437 -71.052 3.645 0.00
37.437 -69.919 3.642 0.00
37.437 -68.786 3.645 0.00
37.437 -67.654 3.646 0.00
38.336 -131.472 3.647 0.00
38.336 -130.326 3.645 0.00
38.336 -129.179 3.639 0.00
38.336 -128.033 3.642 0.00
38.336 -126.886 3.664 0.00
38.336 -125.740 3.712 0.00
38.336 -124.593 3.790 160.08
38.336 -123.446 3.799 231.73
38.336 -122.300 3.692 13974.21
38.336 -121.153 3.551 30097.95
38.336 -120.007 3.508 26563.64
38.336 -118.860 3.370 43601.16
38.336 -117.713 3.446 50338.77
38.336 -116.567 3.543 53581.91
38.336 -115.420 3.601 51632.73
38.336 -114.274 3.613 61439.78
38.336 -113.127 3.449 71737.34
38.336 -111.981 3.440 64965.56
38.336 -110.834 3.437 58715.29
38.336 -109.687 3.496 56217.12
38.336 -108.541 3.469 55937.51
38.336 -107.394 3.300 59290.46
38.336 -106.248 3.273 58771.79
38.336 -105.101 3.410 44848.79
38.336 -103.955 3.601 42356.52
38.336 -102.808 3.751 51289.43
38.336 -101.661 3.718 51988.91
38.336 -100.515 3.733 52609.36
38.336 -99.368 3.718 52159.64
38.336 -98.222 3.735 55682.52
38.336 -97.075 3.733 58037.78
38.336 -95.928 3.729 59592.78
38.336 -94.782 3.739 59562.36
38.336 -93.635 3.647 63063.54
38.336 -92.489 3.632 72795.84
38.336 -91.342 3.647 83103.88
38.336 -90.196 3.717 80729.20
38.336 -89.049 3.744 80961.98
38.336 -87.902 3.746 67826.00
38.336 -86.756 3.614 36621.70
38.336 -85.609 3.645 29705.07
38.336 -84.463 3.598 27190.72
38.336 -83.316 3.598 23181.83
38.336 -82.170 3.604 26940.25
38.336 -81.023 3.523 27512.31
38.336 -79.876 3.543 30834.54
38.336 -78.730 3.712 38313.84
38.336 -77.583 3.878 16615.58
38.336 -76.437 3.867 543.54
38.336 -75.290 3.793 150.83
38.336 -74.143 3.722 19.98
38.336 -72.997 3.705 100.91
38.336 -71.850 3.668 0.00
38.336 -70.704 3.645 0.00
38.336 -69.557 3.643 0.00
38.336 -68.411 3.646 0.00
38.336 -67.264 3.646 0.00
39.236 -131.880 3.643 0.00
39.236 -130.719 3.642 0.00
39.236 -129.558 3.642 0.00
39.236 -128.397 3.661 0.00
39.236 -127.235 3.702 0.00
39.236 -126.074 3.759 129.88
39.236 -124.913 3.804 20.98
39.236 -123.752 3.808 1167.89
39.236 -122.591 3.777 14232.32
39.236 -121.430 3.626 24787.11
39.236 -120.269 3.499 42369.30
39.236 -119.107 3.530 67441.13
39.236 -117.946 3.519 47508.24
39.236 -116.785 3.625 46351.60
39.236 -115.624 3.631 50474.82
39.236 -114.463 3.630 55569.25
39.236 -113.302 3.536 66006.62
39.236 -112.141 3.525 66225.63
39.236 -110.980 3.479 57006.00
39.236 -109.818 3.548 53229.18
39.236 -108.657 3.559 60232.29
39.236 -107.496 3.360 63163.94
39.236 -106.335 3.336 57995.09
39.236 -105.174 3.522 42594.28
39.236 -104.013 3.757 37105.75
39.236 -102.852 3.808 44188.96
39.236 -101.690 3.737 42160.75
39.236 -100.529 3.675 38063.36
39.236 -99.368 3.627 37953.46
39.236 -98.207 3.698 39391.29
39.236 -97.046 3.787 48368.57
39.236 -95.885 3.802 48583.44
39.236 -94.724 3.785 50354.32
39.236 -93.563 3.694 56883.87
39.236 -92.401 3.735 57479.38
39.236 -91.240 3.739 67593.48
39.236 -90.079 3.750 64431.55
39.236 -88.918 3.664 62835.89
39.236 -87.757 3.577 51039.64
39.236 -86.596 3.589 34605.17
39.236 -85.435 3.685 25897.11
39.236 -84.273 3.690 27999.33
39.236 -83.112 3.630 26218.51
39.236 -81.951 3.576 27004.93
39.236 -80.790 3.519 24252.54
39.236 -79.629 3.543 18346.47
39.236 -78.468 3.749 8205.95
39.236 -77.307 3.950 3841.32
39.236 -76.145 3.936 1356.98
39.236 -74.984 3.848 425.59
39.236 -73.823 3.735 0.00
39.236 -72.662 3.695 100.91
39.236 -71.501 3.660 0.00
39.236 -70.340 3.645 0.00
39.236 -69.179 3.645 0.00
39.236 -68.018 3.646 0.00
39.236 -66.856 3.645 0.00
40.135 -132.306 3.639 0.00
40.135 -131.130 3.640 0.00
40.135 -129.954 3.659 0.00
40.135 -128.777 3.690 0.00
40.135 -127.601 3.732 101.90
40.135 -126.424 3.761 50.95
40.135 -125.248 3.727 0.00
40.135 -124.072 3.612 11629.93
40.135 -122.895 3.495 33988.88
40.135 -121.719 3.378 37511.65
40.135 -120.543 3.526 72199.12
40.135 -119.366 3.527 72695.54
40.135 -118.190 3.618 52979.66
40.135 -117.014 3.684 52946.78
40.135 -115.837 3.623 50962.26
40.135 -114.661 3.579 63378.94
40.135 -113.484 3.556 68307.23
40.135 -112.308 3.478 68078.41
40.135 -111.132 3.420 57335.74
40.135 -109.955 3.419 52380.00
40.135 -108.779 3.386 61546.80
40.135 -107.603 3.342 59925.00
40.135 -106.426 3.266 47835.95
40.135 -105.250 3.424 40265.73
40.135 -104.074 3.647 35125.85
40.135 -102.897 3.753 34104.58
40.135 -101.721 3.750 33825.83
40.135 -100.545 3.703 31843.88
40.135 -99.368 3.692 31535.04
40.135 -98.192 3.701 33205.27
40.135 -97.015 3.724 42969.28
40.135 -95.839 3.638 46839.17
40.135 -94.663 3.587 47739.84
40.135 -93.486 3.635 50656.04
40.135 -92.310 3.752 51162.89
40.135 -91.134 3.793 45461.07
40.135 -89.957 3.772 30937.87
40.135 -88.781 3.633 27780.68
40.135 -87.605 3.613 34065.37
40.135 -86.428 3.667 29072.71
40.135 -85.252 3.734 30929.92
40.135 -84.076 3.747 30294.20
40.135 -82.899 3.673 25142.52
40.135 -81.723 3.628 22921.22
40.135 -80.546 3.626 20290.70
40.135 -79.370 3.667 15110.64
40.135 -78.194 3.708 9543.69
40.135 -77.017 3.813 6831.66
40.135 -75.841 3.926 2803.41
40.135 -74.665 3.904 1055.70
40.135 -73.488 3.784 0.00
40.135 -72.312 3.709 100.91
40.135 -71.136 3.656 0.00
40.135 -69.959 3.642 0.00
40.135 -68.783 3.645 0.00
40.135 -67.607 3.646 0.00
40.135 -66.430 3.644 0.00
41.034 -132.752 3.642 0.00
41.034 -131.560 3.647 0.00
41.034 -130.368 3.682 0.00
41.034 -129.175 3.722 75.93
41.034 -127.983 3.768 79.93
41.034 -126.791 3.773 0.00
41.034 -125.598 3.688 238.29
41.034 -124.406 3.384 58444.24
41.034 -123.214 3.213 46106.62
41.034 -122.022 3.226 43769.21
41.034 -120.829 3.395 37832.07
41.034 -119.637 3.385 55001.41
41.034 -118.445 3.593 54794.36
41.034 -117.252 3.698 47424.63
41.034 -116.060 3.657 45036.16
41.034 -114.868 3.730 72091.96
41.034 -113.676 3.736 61384.73
41.034 -112.483 3.505 61601.05
41.034 -111.291 3.366 57324.11
41.034 -110.099 3.283 67874.25
41.034 -108.906 3.336 52421.70
41.034 -107.714 3.385 46049.24
41.034 -106.522 3.383 39684.74
41.034 -105.330 3.462 35597.46
41.034 -104.137 3.580 32329.21
41.034 -102.945 3.684 27656.49
41.034 -101.753 3.706 29168.20
41.034 -100.560 3.681 28564.95
41.034 -99.368 3.625 28928.54
41.034 -98.176 3.584 32742.86
41.034 -96.984 3.640 40550.84
41.034 -95.791 3.710 43586.73
41.034 -94.599 3.706 47586.89
41.034 -93.407 3.739 46484.25
41.034 -92.215 3.823 39554.24
41.034 -91.022 3.785 29527.13
41.034 -89.830 3.773 22670.15
41.034 -88.638 3.758 22669.12
41.034 -87.445 3.732 22846.40
41.034 -86.253 3.830 21662.54
41.034 -85.061 3.822 26099.94
41.034 -83.869 3.763 24500.80
41.034 -82.676 3.660 23374.71
41.034 -81.484 3.628 19145.07
41.034 -80.292 3.679 16491.99
41.034 -79.099 3.606 14287.93
41.034 -77.907 3.509 13378.18
41.034 -76.715 3.592 10063.46
41.034 -75.523 3.806 8753.85
41.034 -74.330 3.894 6781.59
41.034 -73.138 3.822 1219.31
41.034 -71.946 3.731 401.71
41.034 -70.753 3.658 9.99
41.034 -69.561 3.636 0.00
41.034 -68.369 3.641 0.00
41.034 -67.177 3.643 0.00
41.034 -65.984 3.646 0.00
41.934 -133.219 3.662 0.00
41.934 -132.010 3.668 0.00
41.934 -130.801 3.711 53.95
41.934 -129.592 3.762 104.90
41.934 -128.383 3.793 0.00
41.934 -127.174 3.818 76.92
41.934 -125.965 3.794 1703.62
41.934 -124.756 3.564 13515.13
41.934 -123.547 3.350 26536.92
41.934 -122.338 3.439 31395.79
41.934 -121.129 3.489 31678.37
41.934 -119.920 3.450 39307.41
41.934 -118.711 3.489 40645.45
41.934 -117.502 3.502 42614.12
41.934 -116.293 3.427 50110.27
41.934 -115.085 3.538 61005.88
41.934 -113.876 3.635 52775.85
41.934 -112.667 3.620 58752.73
41.934 -111.458 3.534 71160.90
41.934 -110.249 3.489 64243.69
41.934 -109.040 3.507 52754.16
41.934 -107.831 3.466 45082.58
41.934 -106.622 3.458 37591.77
41.934 -105.413 3.469 35079.51
41.934 -104.204 3.539 29300.35
41.934 -102.995 3.586 27888.49
41.934 -101.786 3.631 27454.94
41.934 -100.577 3.646 30724.98
41.934 -99.368 3.636 33048.00
41.934 -98.159 3.687 35421.04
41.934 -96.950 3.687 40055.30
41.934 -95.741 3.728 43375.70
41.934 -94.532 3.716 42917.29
41.934 -93.323 3.742 39334.26
41.934 -92.115 3.810 31152.15
41.934 -90.906 3.831 29575.88
41.934 -89.697 3.844 20252.46
41.934 -88.488 3.841 20402.70
41.934 -87.279 3.775 16887.05
41.934 -86.070 3.805 16401.69
41.934 -84.861 3.751 21412.41
41.934 -83.652 3.734 19748.27
41.934 -82.443 3.733 16792.23
41.934 -81.234 3.682 19771.74
41.934 -80.025 3.672 19667.71
41.934 -78.816 3.601 18857.18
41.934 -77.607 3.481 14205.98
41.934 -76.398 3.581 11046.23
41.934 -75.189 3.746 7276.20
41.934 -73.980 3.851 5675.81
41.934 -72.771 3.824 3489.81
41.934 -71.562 3.740 930.59
41.934 -70.353 3.672 121.38
41.934 -69.145 3.641 0.00
41.934 -67.936 3.635 0.00
41.934 -66.727 3.636 0.00
41.934 -65.518 3.653 0.00
42.833 -133.707 3.699 0.00
42.833 -132.481 3.710 35.97
42.833 -131.254 3.735 126.88
42.833 -130.028 3.750 0.00
42.833 -128.802 3.764 7.99
42.833 -127.575 3.738 305.70
42.833 -126.349 3.617 10697.35
42.833 -125.122 3.439 15942.96
42.833 -123.896 3.417 11948.50
42.833 -122.670 3.462 23020.16
42.833 -121.443 3.481 26400.58
42.833 -120.217 3.498 28925.77
42.833 -118.990 3.534 33105.40
42.833 -117.764 3.502 37665.34
42.833 -116.538 3.498 46941.79
42.833 -115.311 3.490 44525.27
42.833 -114.085 3.509 48107.75
42.833 -112.858 3.459 49284.78
42.833 -111.632 3.419 54722.02
42.833 -110.406 3.464 52164.30
42.833 -109.179 3.484 50612.72
42.833 -107.953 3.504 42480.84
42.833 -106.727 3.573 39548.17
42.833 -105.500 3.537 36012.96
42.833 -104.274 3.498 35520.22
42.833 -103.047 3.480 31365.92
42.833 -101.821 3.598 30083.41
42.833 -100.595 3.674 30725.21
42.833 -99.368 3.632 31063.50
42.833 -98.142 3.611 35535.73
42.833 -96.915 3.613 38766.28
42.833 -95.689 3.713 34851.08
42.833 -94.463 3.690 34691.05
42.833 -93.236 3.675 30144.42
42.833 -92.010 3.725 25941.45
42.833 -90.783 3.712 31960.00
42.833 -89.557 3.760 19866.53
42.833 -88.331 3.843 18618.15
42.833 -87.104 3.816 16088.10
42.833 -85.878 3.796 14849.63
42.833 -84.652 3.756 14702.07
42.833 -83.425 3.719 14987.86
42.833 -82.199 3.731 17268.54
42.833 -80.972 3.708 16422.92
42.833 -79.746 3.664 16740.73
42.833 -78.520 3.613 17479.64
42.833 -77.293 3.529 14168.60
42.833 -76.067 3.639 10610.05
42.833 -74.840 3.756 9547.62
42.833 -73.614 3.797 8346.64
42.833 -72.388 3.825 7412.82
42.833 -71.161 3.788 1955.92
42.833 -69.935 3.720 83.93
42.833 -68.708 3.672 0.00
42.833 -67.482 3.645 0.00
42.833 -66.256 3.635 0.00
42.833 -65.029 3.665 0.00
43.732 -134.219 3.740 22.98
43.732 -132.974 3.746 143.87
43.732 -131.729 3.729 0.00
43.732 -130.485 3.762 0.00
43.732 -129.240 3.768 283.72
43.732 -127.995 3.541 210.89
43.732 -126.751 3.188 45377.01
43.732 -125.506 3.083 24602.87
43.732 -124.261 3.184 16955.17
43.732 -123.017 3.329 19108.26
43.732 -121.772 3.318 23030.65
43.732 -120.527 3.322 26848.83
43.732 -119.283 3.397 29517.94
43.732 -118.038 3.487 32927.44
43.732 -116.793 3.549 39787.17
43.732 -115.549 3.548 36107.82
43.732 -114.304 3.529 39301.23
43.732 -113.059 3.426 34377.90
43.732 -111.815 3.326 37651.58
43.732 -110.570 3.302 43173.41
43.732 -109.325 3.380 36920.50
43.732 -108.081 3.585 37114.27
43.732 -106.836 3.753 36591.75
43.732 -105.591 3.717 32690.99
43.732 -104.347 3.582 32962.20
43.732 -103.102 3.529 31067.57
43.732 -101.858 3.673 29291.39
43.732 -100.613 3.795 30262.40
43.732 -99.368 3.729 34520.54
43.732 -98.124 3.642 33316.71
43.732 -96.879 3.612 38719.18
43.732 -95.634 3.639 35095.10
43.732 -94.390 3.643 30745.10
43.732 -93.145 3.701 28803.31
43.732 -91.900 3.737 25974.43
43.732 -90.656 3.705 29846.84
43.732 -89.411 3.749 22359.29
43.732 -88.166 3.836 19064.50
43.732 -86.922 3.811 15667.25
43.732 -85.677 3.831 14254.32
43.732 -84.432 3.839 10749.28
43.732 -83.188 3.812 11603.75
43.732 -81.943 3.805 11238.53
43.732 -80.698 3.775 14596.31
43.732 -79.454 3.703 14972.70
43.732 -78.209 3.648 16557.17
43.732 -76.964 3.615 14699.24
43.732 -75.720 3.766 9649.14
43.732 -74.475 3.828 11031.36
43.732 -73.230 3.783 6398.14
43.732 -71.986 3.796 4686.03
43.732 -70.741 3.790 3670.28
43.732 -69.496 3.759 568.02
43.732 -68.252 3.715 161.85
43.732 -67.007 3.679 115.89
43.732 -65.763 3.665 0.00
43.732 -64.518 3.694 0.00
44.632 -134.754 3.772 171.84
44.632 -133.490 3.754 0.00
44.632 -132.227 3.757 0.00
44.632 -130.963 3.831 215.79
44.632 -129.699 3.834 208.36
44.632 -128.435 3.583 315.27
44.632 -127.172 3.162 2931.34
44.632 -125.908 3.052 10342.33
44.632 -124.644 3.154 12566.25
44.632 -123.380 3.341 18089.97
44.632 -122.116 3.376 19746.71
44.632 -120.853 3.391 21082.29
44.632 -119.589 3.485 23776.57
44.632 -118.325 3.559 32612.31
44.632 -117.061 3.599 35370.44
44.632 -115.797 3.665 30628.18
44.632 -114.534 3.623 31770.55
44.632 -113.270 3.505 32005.88
44.632 -112.006 3.392 29549.09
44.632 -110.742 3.265 33964.24
44.632 -109.479 3.389 28925.29
44.632 -108.215 3.625 26735.28
44.632 -106.951 3.716 28494.60
44.632 -105.687 3.700 26947.24
44.632 -104.423 3.612 25011.01
44.632 -103.160 3.525 25454.18
44.632 -101.896 3.626 25920.21
44.632 -100.632 3.770 24467.60
44.632 -99.368 3.843 26442.54
44.632 -98.104 3.790 26501.93
44.632 -96.841 3.678 30835.27
44.632 -95.577 3.639 28225.53
44.632 -94.313 3.637 27444.78
44.632 -93.049 3.653 23862.72
44.632 -91.785 3.712 23773.35
44.632 -90.522 3.776 23248.36
44.632 -89.258 3.774 24431.95
44.632 -87.994 3.822 16687.21
44.632 -86.730 3.779 14736.11
44.632 -85.467 3.789 13409.42
44.632 -84.203 3.820 12044.79
44.632 -82.939 3.850 10125.89
44.632 -81.675 3.848 10777.06
44.632 -80.411 3.786 11107.18
44.632 -79.148 3.673 14203.36
44.632 -77.884 3.594 19680.54
44.632 -76.620 3.612 15190.72
44.632 -75.356 3.842 12901.50
44.632 -74.092 3.850 9563.27
44.632 -72.829 3.748 4616.08
44.632 -71.565 3.728 3186.52
44.632 -70.301 3.737 2335.43
44.632 -69.037 3.733 1501.58
44.632 -67.773 3.730 1208.50
44.632 -66.510 3.725 127.88
44.632 -65.246 3.735 228.79
44.632 -63.982 3.754 197.98
45.531 -135.316 3.791 161.85
45.531 -134.032 3.770 0.00
45.531 -132.748 3.787 150.04
45.531 -131.464 3.881 227.32
45.531 -130.180 3.952 168.92
45.531 -128.897 3.801 338.68
45.531 -127.613 3.506 1304.28
45.531 -126.329 3.469 2297.71
45.531 -125.045 3.447 4187.75
45.531 -123.761 3.424 10568.20
45.531 -122.477 3.405 14892.33
45.531 -121.193 3.462 18649.57
45.531 -119.910 3.549 23526.67
45.531 -118.626 3.697 32956.46
45.531 -117.342 3.698 29429.36
45.531 -116.058 3.639 25108.40
45.531 -114.774 3.657 26682.54
45.531 -113.490 3.645 25551.15
45.531 -112.207 3.593 31673.84
45.531 -110.923 3.497 25897.48
45.531 -109.639 3.564 21694.16
45.531 -108.355 3.780 20647.69
45.531 -107.071 3.800 23380.02
45.531 -105.787 3.691 24347.93
45.531 -104.504 3.645 20370.73
45.531 -103.220 3.611 19366.79
45.531 -101.936 3.674 20805.87
45.531 -100.652 3.793 22420.03
45.531 -99.368 3.946 22896.37
45.531 -98.084 3.931 24057.27
45.531 -96.801 3.792 26963.13
45.531 -95.517 3.721 24091.31
45.531 -94.233 3.677 22918.67
45.531 -92.949 3.613 19677.03
45.531 -91.665 3.642 19609.22
45.531 -90.381 3.778 17347.16
45.531 -89.097 3.831 17182.61
45.531 -87.814 3.842 12734.83
45.531 -86.530 3.755 11842.16
45.531 -85.246 3.760 11238.52
45.531 -83.962 3.871 8636.78
45.531 -82.678 3.902 9507.58
45.531 -81.394 3.880 9650.58
45.531 -80.111 3.814 10108.82
45.531 -78.827 3.700 10893.60
45.531 -77.543 3.534 16631.07
45.531 -76.259 3.534 20000.90
45.531 -74.975 3.803 5266.46
45.531 -73.691 3.852 4923.02
45.531 -72.408 3.755 3018.83
45.531 -71.124 3.694 2628.06
45.531 -69.840 3.695 2763.29
45.531 -68.556 3.714 612.25
45.531 -67.272 3.739 1066.29
45.531 -65.988 3.778 882.73
45.531 -64.705 3.805 359.51
45.531 -63.421 3.817 424.58
46.431 -135.904 3.797 346.90
46.431 -134.600 3.794 109.08
46.431 -133.295 3.811 248.92
46.431 -131.990 3.850 152.86
46.431 -130.685 3.933 196.81
46.431 -129.380 3.945 328.67
46.431 -128.075 3.899 1332.74
46.431 -126.770 3.982 1690.73
46.431 -125.466 3.795 3505.09
46.431 -124.161 3.545 6421.99
46.431 -122.856 3.466 11140.54
46.431 -121.551 3.449 17825.63
46.431 -120.246 3.549 23562.98
46.431 -118.941 3.781 27677.64
46.431 -117.636 3.705 21243.39
46.431 -116.331 3.621 19749.65
46.431 -115.027 3.661 22975.97
46.431 -113.722 3.676 24990.04
46.431 -112.417 3.675 22210.54
46.431 -111.112 3.683 15586.88
46.431 -109.807 3.695 16945.39
46.431 -108.502 3.758 18073.51
46.431 -107.197 3.707 18780.64
46.431 -105.893 3.633 24223.18
46.431 -104.588 3.622 17198.58
46.431 -103.283 3.588 16803.54
46.431 -101.978 3.587 16106.09
46.431 -100.673 3.670 15260.25
46.431 -99.368 3.820 15867.93
46.431 -98.063 3.920 17989.18
46.431 -96.758 3.911 19752.22
46.431 -95.454 3.828 20327.79
46.431 -94.149 3.730 18369.88
46.431 -92.844 3.683 17244.23
46.431 -91.539 3.671 12237.18
46.431 -90.234 3.714 11336.09
46.431 -88.929 3.755 10834.96
46.431 -87.624 3.748 6713.53
46.431 -86.320 3.704 7554.96
46.431 -85.015 3.769 6319.33
46.431 -83.710 3.872 5716.87
46.431 -82.405 3.890 5406.33
46.431 -81.100 3.894 5490.01
46.431 -79.795 3.874 4993.24
46.431 -78.490 3.828 4387.03
46.431 -77.185 3.761 3679.43
46.431 -75.881 3.751 3852.41
46.431 -74.576 3.847 2686.53
46.431 -73.271 3.868 3048.90
46.431 -71.966 3.791 2018.94
46.431 -70.661 3.717 1937.20
46.431 -69.356 3.722 1450.58
46.431 -68.051 3.754 759.43
46.431 -66.747 3.805 403.55
46.431 -65.442 3.845 396.60
46.431 -64.137 3.834 534.44
46.431 -62.832 3.805 223.74
47.330 -136.522 3.814 294.56
47.330 -135.195 3.817 414.39
47.330 -133.868 3.839 144.86
47.330 -132.541 3.869 140.87
47.330 -131.214 3.904 159.85
47.330 -129.887 3.945 419.58
47.330 -128.561 4.019 1583.42
47.330 -127.234 4.173 2265.53
47.330 -125.907 3.966 3206.21
47.330 -124.580 3.667 5403.21
47.330 -123.253 3.516 12597.00
47.330 -121.926 3.469 17446.43
47.330 -120.599 3.564 20554.00
47.330 -119.272 3.722 19332.50
47.330 -117.945 3.753 15853.84
47.330 -116.618 3.685 17005.02
47.330 -115.291 3.602 19223.90
47.330 -113.964 3.580 17381.18
47.330 -112.637 3.636 17192.90
47.330 -111.311 3.656 13650.15
47.330 -109.984 3.669 14048.99
47.330 -108.657 3.674 14658.94
47.330 -107.330 3.604 15188.43
47.330 -106.003 3.568 16373.50
47.330 -104.676 3.542 16567.19
47.330 -103.349 3.508 13698.54
47.330 -102.022 3.558 14526.93
47.330 -100.695 3.626 14390.06
47.330 -99.368 3.700 14737.67
47.330 -98.041 3.877 16067.43
47.330 -96.714 3.934 14597.64
47.330 -95.387 3.853 13497.56
47.330 -94.061 3.794 11353.32
47.330 -92.734 3.749 9044.62
47.330 -91.407 3.674 7000.67
47.330 -90.080 3.681 6855.82
47.330 -88.753 3.714 8369.91
47.330 -87.426 3.694 6472.84
47.330 -86.099 3.683 5443.98
47.330 -84.772 3.744 4113.17
47.330 -83.445 3.867 3688.33
47.330 -82.118 3.898 3400.58
47.330 -80.791 3.900 3807.99
47.330 -79.464 3.943 3844.25
47.330 -78.137 4.001 3127.83
47.330 -76.811 3.985 2702.90
47.330 -75.484 3.949 2010.26
47.330 -74.157 3.934 2282.31
47.330 -72.830 3.886 1941.48
47.330 -71.503 3.806 1966.12
47.330 -70.176 3.742 1370.59
47.330 -68.849 3.740 387.58
47.330 -67.522 3.778 459.64
47.330 -66.195 3.823 565.61
47.330 -64.868 3.820 376.66
47.330 -63.541 3.769 291.71
47.330 -62.214 3.781 361.58
48.229 -137.170 3.893 496.65
48.229 -135.820 3.883 203.82
48.229 -134.470 3.892 333.67
48.229 -133.120 3.908 450.56
48.229 -131.770 3.913 398.60
48.229 -130.420 3.928 1057.92
48.229 -129.070 3.971 1858.81
48.229 -127.720 4.119 2177.47
48.229 -126.370 3.964 3358.24
48.229 -125.020 3.721 6983.39
48.229 -123.670 3.601 16343.26
48.229 -122.320 3.582 16707.28
48.229 -120.969 3.548 17191.94
48.229 -119.619 3.639 13764.89
48.229 -118.269 3.709 13537.22
48.229 -116.919 3.646 15445.07
48.229 -115.569 3.567 12978.00
48.229 -114.219 3.533 12993.09
48.229 -112.869 3.566 12644.54
48.229 -111.519 3.593 8926.09
48.229 -110.169 3.570 10677.32
48.229 -108.819 3.558 11542.24
48.229 -107.469 3.600 13708.06
48.229 -106.119 3.670 11245.30
48.229 -104.769 3.666 17466.96
48.229 -103.418 3.632 13440.28
48.229 -102.068 3.592 13319.15
48.229 -100.718 3.602 13045.43
48.229 -99.368 3.674 12089.47
48.229 -98.018 3.752 10089.78
48.229 -96.668 3.779 11497.03
48.229 -95.318 3.815 8824.73
48.229 -93.968 3.833 6065.25
48.229 -92.618 3.815 4752.73
48.229 -91.268 3.746 4216.08
48.229 -89.918 3.760 3250.78
48.229 -88.568 3.787 4557.06
48.229 -87.217 3.802 3043.84
48.229 -85.867 3.778 2575.55
48.229 -84.517 3.797 2382.55
48.229 -83.167 3.914 2085.60
48.229 -81.817 3.973 2439.20
48.229 -80.467 3.954 2401.68
48.229 -79.117 3.955 2450.55
48.229 -77.767 3.985 2728.80
48.229 -76.417 3.955 1981.42
48.229 -75.067 3.885 1176.81
48.229 -73.717 3.847 1324.58
48.229 -72.367 3.788 979.00
48.229 -71.017 3.763 734.25
48.229 -69.666 3.758 222.77
48.229 -68.316 3.783 82.90
48.229 -66.966 3.803 424.57
48.229 -65.616 3.782 324.68
48.229 -64.266 3.737 333.66
48.229 -62.916 3.723 238.73
48.229 -61.566 3.817 240.53
49.129 -137.851 4.045 576.42
49.129 -136.477 4.040 167.83
49.129 -135.103 3.972 302.70
49.129 -133.728 3.916 405.59
49.129 -132.354 3.924 672.32
49.129 -130.979 3.972 1154.77
49.129 -129.605 3.927 926.14
49.129 -128.231 3.957 2838.21
49.129 -126.856 3.875 4961.75
49.129 -125.482 3.710 14877.87
49.129 -124.107 3.687 18643.18
49.129 -122.733 3.590 14457.25
49.129 -121.359 3.514 12809.02
49.129 -119.984 3.521 13060.70
49.129 -118.610 3.559 10754.33
49.129 -117.235 3.581 9846.14
49.129 -115.861 3.536 7558.30
49.129 -114.487 3.572 8850.99
49.129 -113.112 3.534 9787.85
49.129 -111.738 3.567 7949.57
49.129 -110.363 3.561 7839.42
49.129 -108.989 3.533 8753.78
49.129 -107.615 3.621 9278.54
49.129 -106.240 3.744 10029.23
49.129 -104.866 3.798 12336.84
49.129 -103.491 3.694 14123.07
49.129 -102.117 3.627 11399.65
49.129 -100.743 3.652 11130.53
49.129 -99.368 3.750 9013.94
49.129 -97.994 3.797 7786.75
49.129 -96.619 3.798 6490.90
49.129 -95.245 3.783 5086.60
49.129 -93.871 3.809 2726.15
49.129 -92.496 3.783 2304.63
49.129 -91.122 3.731 2766.62
49.129 -89.747 3.766 3698.53
49.129 -88.373 3.843 3852.08
49.129 -86.999 3.895 3125.78
49.129 -85.624 3.888 3019.05
49.129 -84.250 3.876 2572.40
49.129 -82.875 3.928 2248.93
49.129 -81.501 3.942 1617.32
49.129 -80.127 3.906 2475.44
49.129 -78.752 3.877 2218.73
49.129 -77.378 3.866 1140.41
49.129 -76.003 3.824 1009.01
49.129 -74.629 3.774 526.47
49.129 -73.255 3.744 794.13
49.129 -71.880 3.721 623.39
49.129 -70.506 3.753 334.63
49.129 -69.131 3.800 364.65
49.129 -67.757 3.825 575.68
49.129 -66.383 3.781 234.78
49.129 -65.008 3.733 54.55
49.129 -63.634 3.718 94.17
49.129 -62.259 3.768 143.31
49.129 -60.885 3.920 466.54
50.028 -138.567 4.156 625.39
50.028 -137.167 4.140 750.02
50.028 -135.767 3.947 574.42
50.028 -134.367 3.870 526.44
50.028 -132.967 3.937 311.70
50.028 -131.567 3.962 937.98
50.028 -130.167 3.813 982.11
50.028 -128.767 3.761 4250.86
50.028 -127.368 3.740 16036.42
50.028 -125.968 3.667 19616.17
50.028 -124.568 3.541 17356.03
50.028 -123.168 3.516 13920.56
50.028 -121.768 3.485 13034.08
50.028 -120.368 3.459 10466.39
50.028 -118.968 3.465 9103.05
50.028 -117.568 3.514 9500.40
50.028 -116.168 3.548 7611.66
50.028 -114.768 3.690 8349.09
50.028 -113.368 3.683 7983.09
50.028 -111.968 3.696 7670.70
50.028 -110.568 3.668 6557.22
50.028 -109.168 3.581 8589.17
50.028 -107.768 3.567 8389.30
50.028 -106.368 3.674 9070.84
50.028 -104.968 3.700 9851.85
50.028 -103.568 3.654 14466.04
50.028 -102.168 3.639 10301.24
50.028 -100.768 3.692 9009.77
50.028 -99.368 3.829 6581.27
50.028 -97.968 3.924 5430.55
50.028 -96.568 3.934 7267.53
50.028 -95.168 3.875 3098.23
50.028 -93.768 3.841 2163.51
50.028 -92.368 3.778 1842.06
50.028 -90.968 3.705 2988.87
50.028 -89.568 3.778 3014.94
50.028 -88.168 3.887 2928.99
50.028 -86.769 3.924 1820.04
50.028 -85.369 3.905 1710.31
50.028 -83.969 3.895 1794.14
50.028 -82.569 3.885 1875.06
50.028 -81.169 3.838 2140.54
50.028 -79.769 3.807 1608.61
50.028 -78.369 3.792 984.23
50.028 -76.969 3.798 907.86
50.028 -75.569 3.774 799.21
50.028 -74.169 3.764 1181.05
50.028 -72.769 3.758 382.58
50.028 -71.369 3.761 437.57
50.028 -69.969 3.811 498.44
50.028 -68.569 3.843 389.63
50.028 -67.169 3.809 405.69
50.028 -65.769 3.770 13.75
50.028 -64.369 3.763 104.26
50.028 -62.969 3.806 163.84
50.028 -61.569 3.885 525.50
50.028 -60.169 3.991 151.86
50.927 -139.320 4.126 983.07
50.927 -137.893 4.089 757.27
50.927 -136.466 3.894 350.64
50.927 -135.040 3.864 2.00
50.927 -133.613 3.939 734.24
50.927 -132.186 3.858 587.37
50.927 -130.759 3.661 1766.91
50.927 -129.332 3.672 20417.96
50.927 -127.905 3.709 27069.08
50.927 -126.478 3.594 18349.71
50.927 -125.052 3.489 17461.19
50.927 -123.625 3.541 13506.30
50.927 -122.198 3.527 11646.03
50.927 -120.771 3.509 9810.82
50.927 -119.344 3.508 9816.44
50.927 -117.917 3.535 9315.94
50.927 -116.490 3.615 7357.38
50.927 -115.064 3.796 7245.01
50.927 -113.637 3.824 6593.08
50.927 -112.210 3.795 7325.73
50.927 -110.783 3.739 6072.38
50.927 -109.356 3.612 6561.42
50.927 -107.929 3.561 8297.52
50.927 -106.502 3.577 9527.32
50.927 -105.076 3.587 11044.51
50.927 -103.649 3.659 13184.19
50.927 -102.222 3.736 11793.96
50.927 -100.795 3.777 7784.99
50.927 -99.368 3.892 5420.35
50.927 -97.941 4.014 4012.04
50.927 -96.514 4.007 3287.58
50.927 -95.088 3.922 2349.61
50.927 -93.661 3.866 2262.58
50.927 -92.234 3.785 2699.17
50.927 -90.807 3.745 3441.49
50.927 -89.380 3.857 2369.83
50.927 -87.953 3.944 1777.24
50.927 -86.526 3.926 1944.96
50.927 -85.100 3.847 2173.80
50.927 -83.673 3.808 1367.61
50.927 -82.246 3.795 1828.08
50.927 -80.819 3.768 1828.08
50.927 -79.392 3.789 817.85
50.927 -77.965 3.823 884.83
50.927 -76.538 3.834 699.43
50.927 -75.112 3.829 767.22
50.927 -73.685 3.850 1032.86
50.927 -72.258 3.849 349.65
50.927 -70.831 3.828 544.85
50.927 -69.404 3.820 338.56
50.927 -67.977 3.821 364.82
50.927 -66.550 3.811 200.19
50.927 -65.124 3.828 159.85
50.927 -63.697 3.874 306.71
50.927 -62.270 3.914 479.53
50.927 -60.843 3.923 320.70
50.927 -59.416 3.971 749.30
51.827 -140.113 4.043 974.09
51.827 -138.658 4.003 218.79
51.827 -137.203 3.858 21.97
51.827 -135.747 3.876 155.82
51.827 -134.292 3.926 959.02
51.827 -132.837 3.775 489.50
51.827 -131.382 3.587 29683.34
51.827 -129.927 3.733 42938.54
51.827 -128.472 3.751 22014.41
51.827 -127.016 3.635 16631.92
51.827 -125.561 3.610 13657.68
51.827 -124.106 3.707 12119.35
51.827 -122.651 3.742 10041.10
51.827 -121.196 3.720 7676.57
51.827 -119.741 3.663 6875.70
51.827 -118.285 3.620 6309.37
51.827 -116.830 3.639 5499.59
51.827 -115.375 3.747 5302.86
51.827 -113.920 3.832 4909.40
51.827 -112.465 3.845 6140.63
51.827 -111.010 3.784 6964.05
51.827 -109.554 3.718 7130.61
51.827 -108.099 3.641 8043.84
51.827 -106.644 3.603 11442.16
51.827 -105.189 3.666 11716.79
51.827 -103.734 3.777 11451.19
51.827 -102.279 3.840 12593.11
51.827 -100.823 3.826 7457.32
51.827 -99.368 3.929 4528.26
51.827 -97.913 3.980 3793.09
51.827 -96.458 3.937 2109.89
51.827 -95.003 3.877 2782.15
51.827 -93.548 3.844 2557.37
51.827 -92.092 3.808 2104.86
51.827 -90.637 3.805 2786.67
51.827 -89.182 3.923 2269.55
51.827 -87.727 3.969 2142.74
51.827 -86.272 3.923 2049.87
51.827 -84.817 3.812 1798.25
51.827 -83.361 3.773 1637.39
51.827 -81.906 3.745 1557.18
51.827 -80.451 3.759 1133.80
51.827 -78.996 3.871 1201.67
51.827 -77.541 3.942 1098.64
51.827 -76.085 3.941 906.57
51.827 -74.630 3.963 872.91
51.827 -73.175 3.972 1065.84
51.827 -71.720 3.924 619.79
51.827 -70.265 3.864 548.61
51.827 -68.810 3.832 289.75
51.827 -67.354 3.836 200.79
51.827 -65.899 3.859 109.90
51.827 -64.444 3.896 622.42
51.827 -62.989 3.917 673.35
51.827 -61.534 3.914 546.49
51.827 -60.079 3.913 703.35
51.827 -58.623 3.939 290.73
52.726 -140.948 3.997 402.63
52.726 -139.463 3.952 91.89
52.726 -137.978 3.870 135.84
52.726 -136.493 3.924 702.30
52.726 -135.008 3.902 733.29
52.726 -133.523 3.760 466.53
52.726 -132.038 3.651 4398.01
52.726 -130.553 3.723 10528.40
52.726 -129.068 3.694 8842.98
52.726 -127.583 3.614 8362.14
52.726 -126.098 3.632 7784.13
52.726 -124.613 3.728 8386.47
52.726 -123.128 3.755 6261.07
52.726 -121.643 3.711 6108.10
52.726 -120.158 3.670 5440.79
52.726 -118.673 3.642 5879.16
52.726 -117.188 3.671 5571.40
52.726 -115.703 3.744 5047.97
52.726 -114.218 3.886 4081.97
52.726 -112.733 3.950 7020.15
52.726 -111.248 3.971 7734.23
52.726 -109.763 3.911 7146.61
52.726 -108.278 3.789 8994.68
52.726 -106.793 3.668 11953.55
52.726 -105.308 3.710 11496.98
52.726 -103.823 3.779 11554.09
52.726 -102.338 3.814 11267.36
52.726 -100.853 3.847 8673.11
52.726 -99.368 3.895 4454.39
52.726 -97.883 3.888 2233.75
52.726 -96.398 3.838 1960.94
52.726 -94.913 3.810 2680.25
52.726 -93.428 3.808 2057.04
52.726 -91.943 3.835 2051.87
52.726 -90.458 3.817 2421.26
52.726 -88.973 3.894 1999.25
52.726 -87.488 3.907 1921.67
52.726 -86.003 3.882 1948.69
52.726 -84.518 3.778 1770.35
52.726 -83.033 3.749 1004.20
52.726 -81.548 3.737 886.54
52.726 -80.063 3.794 1379.44
52.726 -78.578 3.909 1780.97
52.726 -77.093 3.955 1179.20
52.726 -75.608 3.957 1038.97
52.726 -74.123 3.958 1177.74
52.726 -72.638 3.955 808.23
52.726 -71.153 3.941 1037.98
52.726 -69.668 3.923 507.51
52.726 -68.183 3.895 563.48
52.726 -66.698 3.901 533.49
52.726 -65.213 3.921 726.32
52.726 -63.728 3.925 533.50
52.726 -62.243 3.920 530.48
52.726 -60.758 3.908 456.57
52.726 -59.273 3.908 5.00
52.726 -57.788 3.936 263.76
53.625 -141.829 3.949 586.42
53.625 -140.313 3.927 174.83
53.625 -138.796 3.896 382.65
53.625 -137.280 3.906 780.21
53.625 -135.763 3.843 184.80
53.625 -134.247 3.808 357.63
53.625 -132.730 3.903 1251.72
53.625 -131.214 3.948 2702.88
53.625 -129.697 3.820 3261.66
53.625 -128.181 3.716 3805.07
53.625 -126.665 3.741 4118.91
53.625 -125.148 3.800 5248.57
53.625 -123.632 3.759 3607.42
53.625 -122.115 3.669 3799.72
53.625 -120.599 3.625 4304.12
53.625 -119.082 3.638 4316.80
53.625 -117.566 3.708 5310.66
53.625 -116.049 3.806 4315.24
53.625 -114.533 3.933 4952.66
53.625 -113.016 3.997 6305.87
53.625 -111.500 4.019 7668.29
53.625 -109.983 4.004 9154.65
53.625 -108.467 3.874 10710.78
53.625 -106.951 3.685 12033.44
53.625 -105.434 3.679 11425.24
53.625 -103.918 3.726 8789.97
53.625 -102.401 3.757 8807.95
53.625 -100.885 3.786 9614.11
53.625 -99.368 3.790 3868.91
53.625 -97.852 3.794 2467.36
53.625 -96.335 3.804 2227.62
53.625 -94.819 3.819 1911.04
53.625 -93.302 3.838 1622.33
53.625 -91.786 3.830 1885.07
53.625 -90.269 3.750 1945.02
53.625 -88.753 3.798 1977.11
53.625 -87.237 3.798 1984.06
53.625 -85.720 3.800 1844.09
53.625 -84.204 3.722 1022.98
53.625 -82.687 3.729 597.40
53.625 -81.171 3.749 1037.87
53.625 -79.654 3.812 1395.22
53.625 -78.138 3.832 1143.82
53.625 -76.621 3.828 1150.74
53.625 -75.105 3.827 1276.76
53.625 -73.588 3.870 1658.76
53.625 -72.072 3.920 963.05
53.625 -70.555 3.984 832.17
53.625 -69.039 4.029 720.28
53.625 -67.523 4.018 942.10
53.625 -66.006 3.973 581.46
53.625 -64.490 3.925 441.59
53.625 -62.973 3.904 423.57
53.625 -61.457 3.892 267.75
53.625 -59.940 3.885 110.90
53.625 -58.424 3.895 333.68
53.625 -56.907 3.888 265.72
54.525 -142.759 3.897 258.74
54.525 -141.209 3.891 317.70
54.525 -139.660 3.875 452.53
54.525 -138.110 3.811 317.70
54.525 -136.560 3.762 217.74
54.525 -135.011 3.833 382.66
54.525 -133.461 4.093 1103.66
54.525 -131.911 4.051 2614.62
54.525 -130.362 3.936 2989.61
54.525 -128.812 3.795 3456.48
54.525 -127.262 3.783 3640.01
54.525 -125.713 3.824 4042.94
54.525 -124.163 3.763 3335.97
54.525 -122.613 3.681 3029.08
54.525 -121.064 3.680 3085.98
54.525 -119.514 3.738 3490.64
54.525 -117.964 3.819 4248.10
54.525 -116.415 3.864 4041.39
54.525 -114.865 3.944 5289.60
54.525 -113.315 3.913 6059.90
54.525 -111.766 3.912 8276.66
54.525 -110.216 3.903 10408.22
54.525 -108.666 3.811 11720.62
54.525 -107.117 3.680 12248.33
54.525 -105.567 3.675 9034.64
54.525 -104.017 3.757 6224.53
54.525 -102.468 3.767 7580.89
54.525 -100.918 3.759 7554.17
54.525 -99.368 3.748 5064.82
54.525 -97.819 3.764 3173.57
54.525 -96.269 3.813 1744.13
54.525 -94.719 3.853 1925.09
54.525 -93.170 3.815 1709.25
54.525 -91.620 3.780 1321.62
54.525 -90.070 3.699 2683.23
54.525 -88.520 3.743 1782.20
54.525 -86.971 3.735 2053.94
54.525 -85.421 3.748 941.79
54.525 -83.871 3.712 695.30
54.525 -82.322 3.726 504.47
54.525 -80.772 3.737 1120.93
54.525 -79.222 3.762 1321.39
54.525 -77.673 3.747 706.25
54.525 -76.123 3.753 937.07
54.525 -74.573 3.776 1093.89
54.525 -73.024 3.808 1180.77
54.525 -71.474 3.837 875.11
54.525 -69.924 3.907 812.00
54.525 -68.375 3.978 1479.39
54.525 -66.825 3.952 881.67
54.525 -65.275 3.895 202.81
54.525 -63.726 3.844 327.67
54.525 -62.176 3.813 121.87
54.525 -60.626 3.833 124.86
54.525 -59.077 3.874 319.67
54.525 -57.527 3.867 182.80
54.525 -55.977 3.845 112.89
55.424 -143.742 3.846 495.54
55.424 -142.157 3.832 39.96
55.424 -140.572 3.813 564.41
55.424 -138.988 3.755 226.78
55.424 -137.403 3.763 147.83
55.424 -135.818 3.882 661.40
55.424 -134.233 4.089 964.05
55.424 -132.648 3.988 3036.66
55.424 -131.064 3.859 2653.92
55.424 -129.479 3.739 3132.66
55.424 -127.894 3.717 2878.97
55.424 -126.309 3.742 3760.34
55.424 -124.725 3.683 3739.46
55.424 -123.140 3.633 2829.64
55.424 -121.555 3.705 3557.50
55.424 -119.970 3.817 4155.74
55.424 -118.385 3.884 4896.86
55.424 -116.801 3.847 4819.13
55.424 -115.216 3.869 5687.14
55.424 -113.631 3.844 6250.67
55.424 -112.046 3.847 9128.78
55.424 -110.462 3.824 11893.58
55.424 -108.877 3.781 12421.99
55.424 -107.292 3.714 9865.79
55.424 -105.707 3.754 8025.67
55.424 -104.123 3.842 5262.66
55.424 -102.538 3.823 4694.16
55.424 -100.953 3.755 5827.00
55.424 -99.368 3.700 8847.88
55.424 -97.783 3.717 2560.19
55.424 -96.199 3.799 2113.88
55.424 -94.614 3.813 1421.58
55.424 -93.029 3.769 1607.35
55.424 -91.444 3.742 1447.55
55.424 -89.860 3.700 2981.93
55.424 -88.275 3.730 1080.86
55.424 -86.690 3.739 1631.39
55.424 -85.105 3.761 947.01
55.424 -83.520 3.738 1026.93
55.424 -81.936 3.728 568.51
55.424 -80.351 3.714 1582.01
55.424 -78.766 3.712 886.29
55.424 -77.181 3.702 838.70
55.424 -75.597 3.711 613.39
55.424 -74.012 3.755 1027.88
55.424 -72.427 3.764 522.47
55.424 -70.842 3.762 797.13
55.424 -69.257 3.798 862.12
55.424 -67.673 3.838 1118.89
55.424 -66.088 3.800 464.55
55.424 -64.503 3.751 470.32
55.424 -62.918 3.717 224.74
55.424 -61.334 3.728 142.44
55.424 -59.749 3.796 187.82
55.424 -58.164 3.845 77.93
55.424 -56.579 3.834 348.67
55.424 -54.995 3.800 293.73
56.324 -144.782 3.804 49.95
56.324 -143.160 3.799 453.52
56.324 -141.538 3.761 169.82
56.324 -139.916 3.755 255.75
56.324 -138.294 3.838 287.70
56.324 -136.672 3.948 997.04
56.324 -135.050 3.987 1038.97
56.324 -133.428 3.882 2427.59
56.324 -131.806 3.761 2795.61
56.324 -130.184 3.687 2952.21
56.324 -128.563 3.699 2403.40
56.324 -126.941 3.705 2800.30
56.324 -125.319 3.643 4311.50
56.324 -123.697 3.624 3548.53
56.324 -122.075 3.701 3572.00
56.324 -120.453 3.817 3726.05
56.324 -118.831 3.782 4661.26
56.324 -117.209 3.741 4191.77
56.324 -115.587 3.776 6114.69
56.324 -113.965 3.827 8418.33
56.324 -112.343 3.860 11995.63
56.324 -110.722 3.813 13776.55
56.324 -109.100 3.812 10705.97
56.324 -107.478 3.814 8568.09
56.324 -105.856 3.864 5225.73
56.324 -104.234 3.893 5776.02
56.324 -102.612 3.876 4111.74
56.324 -100.990 3.759 5853.90
56.324 -99.368 3.670 7140.64
56.324 -97.746 3.656 5194.75
56.324 -96.124 3.723 1626.33
56.324 -94.502 3.759 1467.46
56.324 -92.881 3.754 2427.56
56.324 -91.259 3.752 1554.42
56.324 -89.637 3.712 1939.97
56.324 -88.015 3.745 1045.96
56.324 -86.393 3.774 1396.59
56.324 -84.771 3.801 639.29
56.324 -83.149 3.765 475.53
