42.833 -117.764 2.480 3818.58
42.833 -116.538 2.484 3388.27
42.833 -115.311 2.700 5962.31
42.833 -114.085 2.740 6171.25
42.833 -112.858 2.657 4885.71
42.833 -111.632 2.467 7537.68
42.833 -110.406 2.234 2511.88
42.833 -109.179 2.221 1156.09
42.833 -107.953 2.316 1201.10
42.833 -106.727 2.436 588.27
42.833 -105.500 2.535 386.89
42.833 -104.274 2.584 573.03
42.833 -103.047 2.609 1102.51
42.833 -101.821 2.620 1451.22
42.833 -100.595 2.728 3772.83
42.833 -99.368 2.931 12845.61
42.833 -98.142 3.075 23620.67
42.833 -96.915 3.155 29541.10
42.833 -95.689 3.096 30965.70
42.833 -94.463 2.931 24792.41
42.833 -93.236 2.780 20433.99
42.833 -92.010 2.956 17355.25
42.833 -90.783 3.103 39262.03
42.833 -89.557 3.143 33949.75
42.833 -88.331 3.089 28575.40
42.833 -87.104 3.046 44565.80
42.833 -85.878 2.926 38820.68
42.833 -84.652 2.834 40813.13
42.833 -83.425 2.985 46203.35
42.833 -82.199 3.177 40349.04
42.833 -80.972 3.186 42931.71
42.833 -79.746 3.235 34811.23
42.833 -78.520 3.171 39558.44
42.833 -77.293 3.113 50971.88
42.833 -76.067 3.063 42942.73
42.833 -74.840 3.153 32018.75
42.833 -73.614 3.181 31383.25
42.833 -72.388 3.161 25809.43
42.833 -71.161 3.148 17376.54
42.833 -69.935 3.132 6134.14
42.833 -68.708 3.088 609.69
42.833 -67.482 3.005 0.00
42.833 -66.256 2.959 0.00
42.833 -65.029 2.960 0.00
43.732 -134.219 2.969 0.00
43.732 -132.974 2.969 0.00
43.732 -131.729 2.968 0.00
43.732 -130.485 2.968 0.00
43.732 -129.240 2.968 0.00
43.732 -127.995 2.968 0.00
43.732 -126.751 2.968 0.00
43.732 -125.506 2.970 0.00
43.732 -124.261 2.979 0.00
43.732 -123.017 2.987 4.62
43.732 -121.772 2.951 0.00
43.732 -120.527 2.852 248.61
43.732 -119.283 2.731 661.30
43.732 -118.038 2.617 1414.85
43.732 -116.793 2.569 1815.01
43.732 -115.549 2.667 4965.50
43.732 -114.304 2.647 4806.97
43.732 -113.059 2.572 3460.38
43.732 -111.815 2.518 3271.20
43.732 -110.570 2.441 2670.55
43.732 -109.325 2.442 1495.20
43.732 -108.081 2.493 680.49
43.732 -106.836 2.546 717.42
43.732 -105.591 2.618 687.17
43.732 -104.347 2.664 883.75
43.732 -103.102 2.693 1758.82
43.732 -101.858 2.704 2563.37
43.732 -100.613 2.814 5069.87
43.732 -99.368 3.038 12687.47
43.732 -98.124 3.139 19888.53
43.732 -96.879 3.161 31070.99
43.732 -95.634 3.139 30511.96
43.732 -94.390 2.971 36725.34
43.732 -93.145 2.737 23354.99
43.732 -91.900 2.962 16527.09
43.732 -90.656 3.232 39158.63
43.732 -89.411 3.255 35347.09
43.732 -88.166 3.164 33495.87
43.732 -86.922 3.024 34748.75
43.732 -85.677 2.760 68620.52
43.732 -84.432 2.584 45449.30
43.732 -83.188 2.787 40137.63
43.732 -81.943 3.093 37548.68
43.732 -80.698 3.136 58386.12
43.732 -79.454 3.153 56717.40
43.732 -78.209 3.211 49981.83
43.732 -76.964 3.209 49410.94
43.732 -75.720 3.207 52239.46
43.732 -74.475 3.245 56914.13
43.732 -73.230 3.234 49287.11
43.732 -71.986 3.148 34566.55
43.732 -70.741 3.130 31801.05
43.732 -69.496 3.153 15111.11
43.732 -68.252 3.125 2362.52
43.732 -67.007 3.014 0.00
43.732 -65.763 2.965 0.00
43.732 -64.518 2.961 0.00
44.632 -134.754 2.968 0.00
44.632 -133.490 2.968 0.00
44.632 -132.227 2.968 0.00
44.632 -130.963 2.968 0.00
44.632 -129.699 2.968 0.00
44.632 -128.435 2.968 0.00
44.632 -127.172 2.968 0.00
44.632 -125.908 2.967 0.00
44.632 -124.644 2.969 0.00
44.632 -123.380 2.978 2.72
44.632 -122.116 2.978 82.98
44.632 -120.853 2.945 143.40
44.632 -119.589 2.871 129.15
44.632 -118.325 2.768 464.17
44.632 -117.061 2.707 1028.48
44.632 -115.797 2.732 3300.32
44.632 -114.534 2.632 4144.02
44.632 -113.270 2.550 5432.27
44.632 -112.006 2.572 3306.07
44.632 -110.742 2.602 1546.86
44.632 -109.479 2.642 905.39
44.632 -108.215 2.654 625.45
44.632 -106.951 2.671 361.67
44.632 -105.687 2.736 159.25
44.632 -104.423 2.768 390.33
44.632 -103.160 2.738 1502.81
44.632 -101.896 2.704 4260.82
44.632 -100.632 2.775 4205.08
44.632 -99.368 2.990 7770.08
44.632 -98.104 3.149 16943.39
44.632 -96.841 3.158 29408.14
44.632 -95.577 3.181 30676.10
44.632 -94.313 3.002 25546.27
44.632 -93.049 2.800 20674.54
44.632 -91.785 2.998 16810.10
44.632 -90.522 3.285 28540.37
44.632 -89.258 3.275 34540.17
44.632 -87.994 3.176 27489.63
44.632 -86.730 3.092 30383.41
44.632 -85.467 2.888 41390.69
44.632 -84.203 2.785 48800.61
44.632 -82.939 2.908 28464.46
44.632 -81.675 3.096 25309.41
44.632 -80.411 3.167 31218.69
44.632 -79.148 3.177 45800.15
44.632 -77.884 3.227 54673.94
44.632 -76.620 3.242 47270.96
44.632 -75.356 3.253 48672.24
44.632 -74.092 3.197 51276.15
44.632 -72.829 3.182 41796.88
44.632 -71.565 3.126 25867.42
44.632 -70.301 3.153 26873.09
44.632 -69.037 3.169 18899.75
44.632 -67.773 3.123 17673.76
44.632 -66.510 3.004 185.91
44.632 -65.246 2.955 187.90
44.632 -63.982 2.957 150.27
45.531 -135.316 2.968 0.00
45.531 -134.032 2.969 0.00
45.531 -132.748 2.969 0.00
45.531 -131.464 2.968 0.00
45.531 -130.180 2.968 0.00
45.531 -128.897 2.968 0.00
45.531 -127.613 2.968 0.00
45.531 -126.329 2.969 0.00
45.531 -125.045 2.969 0.00
45.531 -123.761 2.969 1.05
45.531 -122.477 2.959 37.23
45.531 -121.193 2.919 93.37
45.531 -119.910 2.850 185.81
45.531 -118.626 2.778 426.39
45.531 -117.342 2.750 1357.69
45.531 -116.058 2.801 2961.45
45.531 -114.774 2.763 3369.90
45.531 -113.490 2.701 4155.88
45.531 -112.207 2.698 5480.54
45.531 -110.923 2.746 555.90
45.531 -109.639 2.779 653.10
45.531 -108.355 2.770 576.29
45.531 -107.071 2.763 473.22
45.531 -105.787 2.800 286.47
45.531 -104.504 2.845 0.00
45.531 -103.220 2.777 703.58
45.531 -101.936 2.669 4538.72
45.531 -100.652 2.686 4917.94
45.531 -99.368 2.898 10358.31
45.531 -98.084 3.140 20422.38
45.531 -96.801 3.224 26027.66
45.531 -95.517 3.232 30091.76
45.531 -94.233 3.135 22550.54
45.531 -92.949 2.963 18817.89
45.531 -91.665 3.022 23911.25
45.531 -90.381 3.228 18122.66
45.531 -89.097 3.275 27123.04
45.531 -87.814 3.191 22202.93
45.531 -86.530 3.076 21701.76
45.531 -85.246 2.997 22515.50
45.531 -83.962 3.069 31509.82
45.531 -82.678 3.172 42481.82
45.531 -81.394 3.220 24136.70
45.531 -80.111 3.233 29420.43
45.531 -78.827 3.227 38167.55
45.531 -77.543 3.233 54255.62
45.531 -76.259 3.247 54485.57
45.531 -74.975 3.247 36440.68
45.531 -73.691 3.153 37849.73
45.531 -72.408 3.048 29981.14
45.531 -71.124 3.093 22176.33
45.531 -69.840 3.185 22774.27
45.531 -68.556 3.195 12377.28
45.531 -67.272 3.083 2078.91
45.531 -65.988 2.987 549.42
45.531 -64.705 2.956 337.62
45.531 -63.421 2.960 191.83
46.431 -135.904 2.969 189.82
46.431 -134.600 2.969 8.70
46.431 -133.295 2.969 0.00
46.431 -131.990 2.968 0.00
46.431 -130.685 2.968 0.00
46.431 -129.380 2.968 0.00
46.431 -128.075 2.968 0.00
46.431 -126.770 2.969 0.00
46.431 -125.466 2.970 0.00
46.431 -124.161 2.966 0.42
46.431 -122.856 2.942 2.27
46.431 -121.551 2.879 328.66
46.431 -120.246 2.800 677.82
46.431 -118.941 2.765 1524.22
46.431 -117.636 2.831 888.70
46.431 -116.331 2.965 1951.22
46.431 -115.027 2.960 2824.02
46.431 -113.722 2.861 3700.65
46.431 -112.417 2.817 1924.76
46.431 -111.112 2.854 724.89
46.431 -109.807 2.869 386.61
46.431 -108.502 2.854 309.48
46.431 -107.197 2.827 496.66
46.431 -105.893 2.831 374.77
46.431 -104.588 2.885 0.00
46.431 -103.283 2.847 22.80
46.431 -101.978 2.727 2670.97
46.431 -100.673 2.667 5098.25
46.431 -99.368 2.801 6218.76
46.431 -98.063 3.087 13471.01
46.431 -96.758 3.291 21891.29
46.431 -95.454 3.289 25577.15
46.431 -94.149 3.244 19615.31
46.431 -92.844 3.090 13359.32
46.431 -91.539 3.005 6657.67
46.431 -90.234 3.002 6083.06
46.431 -88.929 3.020 7248.83
46.431 -87.624 2.983 12111.52
46.431 -86.320 2.860 14422.43
46.431 -85.015 2.852 20592.96
46.431 -83.710 3.074 19969.63
46.431 -82.405 3.303 21151.88
46.431 -81.100 3.311 19456.62
46.431 -79.795 3.212 29880.77
46.431 -78.490 3.179 31191.97
46.431 -77.185 3.214 30156.77
46.431 -75.881 3.253 26191.98
46.431 -74.576 3.249 28327.36
46.431 -73.271 3.173 33528.84
46.431 -71.966 2.955 23969.88
46.431 -70.661 2.972 15389.11
46.431 -69.356 3.100 13211.73
46.431 -68.051 3.194 14242.19
46.431 -66.747 3.076 187.08
46.431 -65.442 2.993 242.02
46.431 -64.137 2.965 16.99
46.431 -62.832 2.966 0.00
47.330 -136.522 2.970 0.00
47.330 -135.195 2.969 0.00
47.330 -133.868 2.969 0.00
47.330 -132.541 2.968 0.00
47.330 -131.214 2.968 0.00
47.330 -129.887 2.968 0.00
47.330 -128.561 2.968 0.00
47.330 -127.234 2.969 0.00
47.330 -125.907 2.970 0.00
47.330 -124.580 2.970 3.15
47.330 -123.253 2.958 0.00
47.330 -121.926 2.927 189.89
47.330 -120.599 2.890 384.16
47.330 -119.272 2.891 381.76
47.330 -117.945 2.968 617.66
47.330 -116.618 3.098 1671.25
47.330 -115.291 3.084 1813.98
47.330 -113.964 2.946 1158.43
47.330 -112.637 2.885 756.43
47.330 -111.311 2.915 613.49
47.330 -109.984 2.927 562.45
47.330 -108.657 2.926 39.98
47.330 -107.330 2.907 0.23
47.330 -106.003 2.884 73.13
47.330 -104.676 2.890 196.06
47.330 -103.349 2.884 105.10
47.330 -102.022 2.791 358.40
47.330 -100.695 2.710 2057.18
47.330 -99.368 2.794 8129.43
47.330 -98.041 3.069 15404.11
47.330 -96.714 3.310 19620.76
47.330 -95.387 3.301 17962.59
47.330 -94.061 3.289 15451.85
47.330 -92.734 3.175 8907.88
47.330 -91.407 3.030 4849.73
47.330 -90.080 2.906 2188.08
47.330 -88.753 2.845 3443.74
47.330 -87.426 2.863 1255.01
47.330 -86.099 2.861 796.43
47.330 -84.772 2.916 535.35
47.330 -83.445 3.086 1440.10
47.330 -82.118 3.249 3653.93
47.330 -80.791 3.262 4429.64
47.330 -79.464 3.239 5968.50
47.330 -78.137 3.227 7761.83
47.330 -76.811 3.222 16600.18
47.330 -75.484 3.211 12248.96
47.330 -74.157 3.186 9340.28
47.330 -72.830 3.151 9299.20
47.330 -71.503 3.058 9234.59
47.330 -70.176 3.009 8831.07
47.330 -68.849 3.029 1656.65
47.330 -67.522 3.064 401.39
47.330 -66.195 3.022 152.88
47.330 -64.868 2.979 25.98
47.330 -63.541 2.967 0.00
47.330 -62.214 2.970 0.00
48.229 -137.170 2.969 0.00
48.229 -135.820 2.968 0.00
48.229 -134.470 2.968 0.00
48.229 -133.120 2.968 0.00
48.229 -131.770 2.968 0.00
48.229 -130.420 2.968 0.00
48.229 -129.070 2.968 0.00
48.229 -127.720 2.968 0.00
48.229 -126.370 2.968 0.00
48.229 -125.020 2.966 4.99
48.229 -123.670 2.962 98.89
48.229 -122.320 2.964 13.99
48.229 -120.969 2.971 437.79
48.229 -119.619 2.991 314.74
48.229 -118.269 3.028 399.45
48.229 -116.919 3.077 1155.99
48.229 -115.569 3.051 1042.30
48.229 -114.219 2.945 786.42
48.229 -112.869 2.903 381.92
48.229 -111.519 2.936 475.76
48.229 -110.169 2.946 403.63
48.229 -108.819 2.961 0.00
48.229 -107.469 2.960 0.00
48.229 -106.119 2.926 0.00
48.229 -104.769 2.892 109.38
48.229 -103.418 2.887 1.90
48.229 -102.068 2.837 920.06
48.229 -100.718 2.799 3141.28
48.229 -99.368 2.861 6597.77
48.229 -98.018 3.017 9032.25
48.229 -96.668 3.197 9990.44
48.229 -95.318 3.220 13999.34
48.229 -93.968 3.236 13261.05
48.229 -92.618 3.203 3321.28
48.229 -91.268 3.090 2216.90
48.229 -89.918 2.940 1554.52
48.229 -88.568 2.872 754.56
48.229 -87.217 2.913 338.83
48.229 -85.867 2.959 381.11
48.229 -84.517 3.014 263.37
48.229 -83.167 3.092 520.87
48.229 -81.817 3.148 185.11
48.229 -80.467 3.179 607.89
48.229 -79.117 3.221 650.60
48.229 -77.767 3.275 464.57
48.229 -76.417 3.307 1049.70
48.229 -75.067 3.259 602.34
48.229 -73.717 3.210 863.38
48.229 -72.367 3.175 488.45
48.229 -71.017 3.126 729.65
48.229 -69.666 3.060 406.35
48.229 -68.316 3.018 1.44
48.229 -66.966 3.006 84.59
48.229 -65.616 2.984 33.98
48.229 -64.266 2.967 0.00
48.229 -62.916 2.967 0.00
48.229 -61.566 2.969 0.00
49.129 -137.851 2.968 0.00
49.129 -136.477 2.968 0.00
49.129 -135.103 2.968 0.00
49.129 -133.728 2.968 0.00
49.129 -132.354 2.968 0.00
49.129 -130.979 2.968 0.00
49.129 -129.605 2.969 0.00
49.129 -128.231 2.969 0.00
49.129 -126.856 2.968 0.00
49.129 -125.482 2.963 0.00
49.129 -124.107 2.953 69.92
49.129 -122.733 2.955 81.71
49.129 -121.359 2.977 17.98
49.129 -119.984 3.003 526.20
49.129 -118.610 3.008 481.71
49.129 -117.235 3.003 175.63
49.129 -115.861 2.986 255.98
49.129 -114.487 2.936 311.61
49.129 -113.112 2.913 337.74
49.129 -111.738 2.940 86.81
49.129 -110.363 2.952 82.64
49.129 -108.989 2.965 24.67
49.129 -107.615 2.972 24.67
49.129 -106.240 2.947 24.67
49.129 -104.866 2.901 54.64
49.129 -103.491 2.871 397.39
49.129 -102.117 2.871 1157.70
49.129 -100.743 2.902 1322.85
49.129 -99.368 2.948 1416.46
49.129 -97.994 3.018 2711.52
49.129 -96.619 3.096 1720.47
49.129 -95.245 3.082 3468.17
49.129 -93.871 3.082 180.45
49.129 -92.496 3.082 101.91
49.129 -91.122 3.034 488.84
49.129 -89.747 2.951 387.27
49.129 -88.373 2.943 193.62
49.129 -86.999 2.995 508.79
49.129 -85.624 3.035 227.76
49.129 -84.250 3.060 409.59
49.129 -82.875 3.077 518.49
49.129 -81.501 3.094 254.77
49.129 -80.127 3.124 663.42
49.129 -78.752 3.147 380.67
49.129 -77.378 3.204 765.28
49.129 -76.003 3.234 688.33
49.129 -74.629 3.172 377.00
49.129 -73.255 3.106 254.41
49.129 -71.880 3.086 212.13
49.129 -70.506 3.066 135.66
49.129 -69.131 3.034 213.21
49.129 -67.757 3.002 175.34
49.129 -66.383 2.982 41.97
49.129 -65.008 2.970 0.00
49.129 -63.634 2.967 0.00
49.129 -62.259 2.968 0.00
49.129 -60.885 2.968 0.00
50.028 -138.567 2.968 0.00
50.028 -137.167 2.968 0.00
50.028 -135.767 2.968 0.00
50.028 -134.367 2.968 0.00
50.028 -132.967 2.968 0.00
50.028 -131.567 2.968 0.00
50.028 -130.167 2.968 0.00
50.028 -128.767 2.969 0.00
50.028 -127.368 2.969 0.00
50.028 -125.968 2.965 0.00
50.028 -124.568 2.952 25.87
50.028 -123.168 2.939 223.68
50.028 -121.768 2.955 177.37
50.028 -120.368 2.980 395.72
50.028 -118.968 2.981 268.82
50.028 -117.568 2.973 65.03
50.028 -116.168 2.967 51.96
50.028 -114.768 2.947 0.00
50.028 -113.368 2.933 147.37
50.028 -111.968 2.952 0.00
50.028 -110.568 2.964 0.00
50.028 -109.168 2.970 0.00
50.028 -107.768 2.974 0.00
50.028 -106.368 2.966 0.00
50.028 -104.968 2.932 12.99
50.028 -103.568 2.889 214.77
50.028 -102.168 2.909 0.00
50.028 -100.768 2.967 101.89
50.028 -99.368 2.989 0.00
50.028 -97.968 2.998 0.00
50.028 -96.568 3.010 103.04
50.028 -95.168 2.998 345.89
50.028 -93.768 2.996 116.82
50.028 -92.368 3.008 116.65
50.028 -90.968 3.012 506.04
50.028 -89.568 2.996 407.67
50.028 -88.168 3.033 98.90
50.028 -86.769 3.090 617.89
50.028 -85.369 3.105 461.51
50.028 -83.969 3.086 142.85
50.028 -82.569 3.085 156.85
50.028 -81.169 3.094 489.58
50.028 -79.769 3.095 176.50
50.028 -78.369 3.105 247.81
50.028 -76.969 3.142 645.40
50.028 -75.569 3.163 256.72
50.028 -74.169 3.108 230.74
50.028 -72.769 3.054 401.63
50.028 -71.369 3.019 0.00
50.028 -69.969 3.014 120.97
50.028 -68.569 3.011 167.91
50.028 -67.169 2.991 47.97
50.028 -65.769 2.976 0.00
50.028 -64.369 2.969 0.00
50.028 -62.969 2.968 0.00
50.028 -61.569 2.968 0.00
50.028 -60.169 2.968 0.00
50.927 -139.320 2.968 0.00
50.927 -137.893 2.968 0.00
50.927 -136.466 2.968 0.00
50.927 -135.040 2.968 0.00
50.927 -133.613 2.968 0.00
50.927 -132.186 2.968 0.00
50.927 -130.759 2.968 0.00
50.927 -129.332 2.969 0.00
50.927 -127.905 2.970 0.00
50.927 -126.478 2.969 0.00
50.927 -125.052 2.959 0.00
50.927 -123.625 2.940 107.88
50.927 -122.198 2.935 323.57
50.927 -120.771 2.955 3.64
50.927 -119.344 2.967 49.97
50.927 -117.917 2.969 307.68
50.927 -116.490 2.968 0.00
50.927 -115.064 2.957 0.00
50.927 -113.637 2.943 146.30
50.927 -112.210 2.955 0.00
50.927 -110.783 2.967 0.00
50.927 -109.356 2.970 0.00
50.927 -107.929 2.974 0.00
50.927 -106.502 2.977 0.00
50.927 -105.076 2.957 120.89
50.927 -103.649 2.911 42.95
50.927 -102.222 2.907 65.92
50.927 -100.795 2.965 101.89
50.927 -99.368 2.985 21.98
50.927 -97.941 2.982 118.87
50.927 -96.514 2.981 185.79
50.927 -95.088 2.970 51.88
50.927 -93.661 2.969 0.00
50.927 -92.234 2.986 0.00
50.927 -90.807 3.013 568.50
50.927 -89.380 3.023 246.79
50.927 -87.953 3.066 158.84
50.927 -86.526 3.109 394.58
50.927 -85.100 3.097 200.78
50.927 -83.673 3.070 78.93
50.927 -82.246 3.062 201.85
50.927 -80.819 3.069 357.15
50.927 -79.392 3.081 106.94
50.927 -77.965 3.104 587.46
50.927 -76.538 3.124 151.84
50.927 -75.112 3.130 392.61
50.927 -73.685 3.079 165.60
50.927 -72.258 3.046 176.06
50.927 -70.831 3.025 131.88
50.927 -69.404 3.019 181.92
50.927 -67.977 3.006 156.92
50.927 -66.550 2.983 0.00
50.927 -65.124 2.971 0.00
50.927 -63.697 2.967 0.00
50.927 -62.270 2.967 0.00
50.927 -60.843 2.968 0.00
50.927 -59.416 2.969 0.00
51.827 -140.113 2.968 0.00
51.827 -138.658 2.968 0.00
51.827 -137.203 2.968 0.00
51.827 -135.747 2.968 0.00
51.827 -134.292 2.968 0.00
51.827 -132.837 2.968 0.00
51.827 -131.382 2.968 0.00
51.827 -129.927 2.968 0.00
51.827 -128.472 2.969 1.00
51.827 -127.016 2.970 0.68
51.827 -125.561 2.966 0.00
51.827 -124.106 2.951 0.00
51.827 -122.651 2.932 218.76
51.827 -121.196 2.936 144.21
51.827 -119.741 2.956 0.00
51.827 -118.285 2.968 181.13
51.827 -116.830 2.967 187.80
51.827 -115.375 2.961 0.00
51.827 -113.920 2.947 92.83
51.827 -112.465 2.951 53.47
51.827 -111.010 2.964 0.00
51.827 -109.554 2.969 0.00
51.827 -108.099 2.973 0.00
51.827 -106.644 2.980 55.95
51.827 -105.189 2.966 65.94
51.827 -103.734 2.923 0.00
51.827 -102.279 2.895 116.86
51.827 -100.823 2.945 216.77
51.827 -99.368 2.977 91.90
51.827 -97.913 2.991 127.85
51.827 -96.458 2.981 0.00
51.827 -95.003 2.972 51.88
51.827 -93.548 2.973 0.00
51.827 -92.092 2.996 228.79
51.827 -90.637 3.025 416.33
51.827 -89.182 3.032 75.93
51.827 -87.727 3.061 112.89
51.827 -86.272 3.090 312.65
51.827 -84.817 3.078 248.75
51.827 -83.361 3.043 178.87
51.827 -81.906 3.040 261.80
51.827 -80.451 3.067 52.95
51.827 -78.996 3.099 318.72
51.827 -77.541 3.117 448.56
51.827 -76.085 3.119 250.78
51.827 -74.630 3.083 172.81
51.827 -73.175 3.044 67.92
51.827 -71.720 3.040 110.88
51.827 -70.265 3.044 307.63
51.827 -68.810 3.031 263.15
51.827 -67.354 2.996 12.00
51.827 -65.899 2.972 0.00
51.827 -64.444 2.966 0.00
51.827 -62.989 2.967 0.00
51.827 -61.534 2.968 0.00
51.827 -60.079 2.969 0.00
51.827 -58.623 2.968 0.00
52.726 -140.948 2.968 0.00
52.726 -139.463 2.968 0.00
52.726 -137.978 2.968 0.00
52.726 -136.493 2.968 0.00
52.726 -135.008 2.968 0.00
52.726 -133.523 2.968 0.00
52.726 -132.038 2.968 0.00
52.726 -130.553 2.968 0.00
52.726 -129.068 2.968 0.00
52.726 -127.583 2.970 10.71
52.726 -126.098 2.970 6.61
52.726 -124.613 2.963 0.00
52.726 -123.128 2.944 20.98
52.726 -121.643 2.927 334.05
52.726 -120.158 2.944 9.28
52.726 -118.673 2.964 116.20
52.726 -117.188 2.970 59.94
52.726 -115.703 2.962 195.80
52.726 -114.218 2.952 3.41
52.726 -112.733 2.950 142.89
52.726 -111.248 2.963 0.00
52.726 -109.763 2.968 0.00
52.726 -108.278 2.970 0.00
52.726 -106.793 2.973 122.89
52.726 -105.308 2.964 9.99
52.726 -103.823 2.933 113.88
52.726 -102.338 2.908 159.82
52.726 -100.853 2.938 157.83
52.726 -99.368 2.976 106.87
52.726 -97.883 2.988 22.97
52.726 -96.398 2.979 0.00
52.726 -94.913 2.977 51.88
52.726 -93.428 2.989 0.00
52.726 -91.943 3.021 306.71
52.726 -90.458 3.050 266.69
52.726 -88.973 3.044 51.95
52.726 -87.488 3.060 109.89
52.726 -86.003 3.083 445.52
52.726 -84.518 3.055 179.84
52.726 -83.033 3.029 114.04
52.726 -81.548 3.051 205.81
52.726 -80.063 3.093 34.97
52.726 -78.578 3.120 671.39
52.726 -77.093 3.113 253.76
52.726 -75.608 3.095 176.81
52.726 -74.123 3.047 105.75
52.726 -72.638 3.019 21.10
52.726 -71.153 3.036 163.83
52.726 -69.668 3.049 322.72
52.726 -68.183 3.031 210.95
52.726 -66.698 2.988 0.00
52.726 -65.213 2.965 0.00
52.726 -63.728 2.965 0.00
52.726 -62.243 2.968 0.00
52.726 -60.758 2.969 0.00
52.726 -59.273 2.968 0.00
52.726 -57.788 2.968 0.00
53.625 -141.829 2.968 0.00
53.625 -140.313 2.968 0.00
53.625 -138.796 2.968 0.00
53.625 -137.280 2.968 0.00
53.625 -135.763 2.968 0.00
53.625 -134.247 2.968 0.00
53.625 -132.730 2.968 0.00
53.625 -131.214 2.968 0.00
53.625 -129.697 2.968 0.00
53.625 -128.181 2.969 0.00
53.625 -126.665 2.970 4.67
53.625 -125.148 2.969 11.39
53.625 -123.632 2.957 1.71
53.625 -122.115 2.935 115.53
53.625 -120.599 2.931 295.41
53.625 -119.082 2.954 69.24
53.625 -117.566 2.969 0.00
53.625 -116.049 2.964 52.95
53.625 -114.533 2.949 254.12
53.625 -113.016 2.955 177.13
53.625 -111.500 2.967 14.99
53.625 -109.983 2.969 0.00
53.625 -108.467 2.966 140.86
53.625 -106.951 2.961 135.86
53.625 -105.434 2.960 103.89
53.625 -103.918 2.959 0.00
53.625 -102.401 2.947 19.98
53.625 -100.885 2.936 276.68
53.625 -99.368 2.952 48.94
53.625 -97.852 2.969 0.00
53.625 -96.335 2.978 0.00
53.625 -94.819 2.992 51.88
53.625 -93.302 3.016 0.00
53.625 -91.786 3.052 422.61
53.625 -90.269 3.066 131.89
53.625 -88.753 3.056 38.96
53.625 -87.237 3.070 252.75
53.625 -85.720 3.066 450.53
53.625 -84.204 3.033 35.97
53.625 -82.687 3.039 128.88
53.625 -81.171 3.085 114.90
53.625 -79.654 3.121 615.45
53.625 -78.138 3.101 236.77
53.625 -76.621 3.079 112.90
53.625 -75.105 3.074 205.07
53.625 -73.588 3.034 64.62
53.625 -72.072 3.011 52.96
53.625 -70.555 3.029 175.82
53.625 -69.039 3.036 202.81
53.625 -67.523 3.024 271.89
53.625 -66.006 2.985 0.00
53.625 -64.490 2.967 0.00
53.625 -62.973 2.966 0.00
53.625 -61.457 2.968 0.00
53.625 -59.940 2.969 0.00
53.625 -58.424 2.968 0.00
53.625 -56.907 2.968 0.00
54.525 -142.759 2.968 0.00
54.525 -141.209 2.968 0.00
54.525 -139.660 2.968 0.00
54.525 -138.110 2.968 0.00
54.525 -136.560 2.968 0.00
54.525 -135.011 2.968 0.00
54.525 -133.461 2.969 0.00
54.525 -131.911 2.969 0.00
54.525 -130.362 2.968 0.00
54.525 -128.812 2.968 0.00
54.525 -127.262 2.969 0.00
54.525 -125.713 2.971 0.00
54.525 -124.163 2.966 9.68
54.525 -122.613 2.948 8.77
54.525 -121.064 2.928 441.36
54.525 -119.514 2.940 42.14
54.525 -117.964 2.958 0.00
54.525 -116.415 2.955 3.56
54.525 -114.865 2.939 158.86
54.525 -113.315 2.950 220.78
54.525 -111.766 2.967 220.79
54.525 -110.216 2.972 155.84
54.525 -108.666 2.967 171.83
54.525 -107.117 2.962 0.00
54.525 -105.567 2.969 0.00
54.525 -104.017 2.984 0.00
54.525 -102.468 2.980 135.34
54.525 -100.918 2.934 133.84
54.525 -99.368 2.917 48.94
54.525 -97.819 2.950 0.00
54.525 -96.269 2.989 0.00
54.525 -94.719 3.023 72.86
54.525 -93.170 3.046 270.75
54.525 -91.620 3.056 168.84
54.525 -90.070 3.067 172.85
54.525 -88.520 3.061 79.93
54.525 -86.971 3.067 400.59
54.525 -85.421 3.051 177.95
54.525 -83.871 3.035 0.00
54.525 -82.322 3.071 304.73
54.525 -80.772 3.113 241.79
54.525 -79.222 3.105 456.58
54.525 -77.673 3.061 208.79
54.525 -76.123 3.048 0.00
54.525 -74.573 3.071 271.35
54.525 -73.024 3.033 51.96
54.525 -71.474 3.007 64.95
54.525 -69.924 3.015 125.17
54.525 -68.375 3.014 2.70
54.525 -66.825 3.011 407.53
54.525 -65.275 2.983 0.00
54.525 -63.726 2.969 0.00
54.525 -62.176 2.968 0.00
54.525 -60.626 2.968 0.00
54.525 -59.077 2.968 0.00
54.525 -57.527 2.968 0.00
54.525 -55.977 2.968 0.00
55.424 -143.742 2.968 0.00
55.424 -142.157 2.968 0.00
55.424 -140.572 2.968 0.00
55.424 -138.988 2.968 0.00
55.424 -137.403 2.968 0.00
55.424 -135.818 2.969 0.00
55.424 -134.233 2.969 0.00
55.424 -132.648 2.968 0.00
55.424 -131.064 2.968 0.00
55.424 -129.479 2.968 0.00
55.424 -127.894 2.969 0.00
55.424 -126.309 2.971 0.00
55.424 -124.725 2.971 0.00
55.424 -123.140 2.959 2.73
55.424 -121.555 2.940 133.42
55.424 -119.970 2.930 368.63
55.424 -118.385 2.945 30.98
55.424 -116.801 2.941 110.64
55.424 -115.216 2.931 226.77
55.424 -113.631 2.948 139.85
55.424 -112.046 2.968 241.76
55.424 -110.462 2.981 248.78
55.424 -108.877 2.977 13.99
55.424 -107.292 2.973 0.00
55.424 -105.707 2.981 0.00
55.424 -104.123 2.996 41.95
55.424 -102.538 2.987 93.89
55.424 -100.953 2.937 0.00
55.424 -99.368 2.901 111.87
55.424 -97.783 2.946 0.00
55.424 -96.199 3.010 52.95
55.424 -94.614 3.051 131.61
55.424 -93.029 3.054 328.88
55.424 -91.444 3.054 108.90
55.424 -89.860 3.060 145.88
55.424 -88.275 3.058 108.91
55.424 -86.690 3.064 328.65
55.424 -85.105 3.054 158.85
55.424 -83.520 3.059 216.81
55.424 -81.936 3.094 100.91
55.424 -80.351 3.110 613.44
55.424 -78.766 3.066 120.90
55.424 -77.181 3.026 44.20
55.424 -75.597 3.043 29.01
55.424 -74.012 3.072 292.63
55.424 -72.427 3.028 65.95
55.424 -70.842 2.999 0.00
55.424 -69.257 3.006 139.86
55.424 -67.673 2.997 101.93
55.424 -66.088 2.987 13.99
55.424 -64.503 2.973 0.00
55.424 -62.918 2.968 0.00
55.424 -61.334 2.968 0.00
55.424 -59.749 2.968 0.00
55.424 -58.164 2.968 0.00
55.424 -56.579 2.968 0.00
55.424 -54.995 2.968 0.00
56.324 -144.782 2.968 0.00
56.324 -143.160 2.968 0.00
56.324 -141.538 2.968 0.00
56.324 -139.916 2.968 0.00
56.324 -138.294 2.968 0.00
56.324 -136.672 2.969 0.00
56.324 -135.050 2.968 0.00
56.324 -133.428 2.967 0.00
56.324 -131.806 2.966 91.45
56.324 -130.184 2.967 0.00
56.324 -128.563 2.968 0.00
56.324 -126.941 2.969 0.00
56.324 -125.319 2.969 0.00
56.324 -123.697 2.962 0.00
56.324 -122.075 2.951 129.06
56.324 -120.453 2.944 126.95
56.324 -118.831 2.948 83.22
56.324 -117.209 2.942 55.95
56.324 -115.587 2.943 59.94
56.324 -113.965 2.962 0.00
56.324 -112.343 2.974 99.91
56.324 -110.722 2.976 287.72
56.324 -109.100 2.982 131.89
56.324 -107.478 2.987 15.99
56.324 -105.856 2.993 25.97
56.324 -104.234 2.998 113.87
56.324 -102.612 2.986 0.00
56.324 -100.990 2.957 0.00
56.324 -99.368 2.929 66.92
56.324 -97.746 2.956 136.86
56.324 -96.124 3.015 69.93
56.324 -94.502 3.053 32.97
56.324 -92.881 3.062 477.48
56.324 -91.259 3.047 9.99
56.324 -89.637 3.055 221.83
56.324 -88.015 3.055 123.89
56.324 -86.393 3.068 430.56
56.324 -84.771 3.061 45.96
56.324 -83.149 3.077 205.81
56.324 -81.527 3.104 407.63
56.324 -79.905 3.084 288.74
56.324 -78.283 3.033 50.96
56.324 -76.661 3.020 0.00
56.324 -75.040 3.062 204.44
56.324 -73.418 3.059 186.80
56.324 -71.796 3.009 0.00
56.324 -70.174 2.993 44.17
56.324 -68.552 3.004 214.76
56.324 -66.930 2.987 0.00
56.324 -65.308 2.973 0.00
56.324 -63.686 2.967 0.00
56.324 -62.064 2.967 0.00
56.324 -60.442 2.968 0.00
56.324 -58.820 2.969 0.00
56.324 -57.199 2.968 0.00
56.324 -55.577 2.968 0.00
56.324 -53.955 2.968 0.00
57.223 -145.883 2.968 0.00
57.223 -144.222 2.968 0.00
57.223 -142.561 2.968 0.00
57.223 -140.899 2.968 0.00
57.223 -139.238 2.969 0.00
57.223 -137.577 2.969 0.00
57.223 -135.916 2.967 0.00
57.223 -134.254 2.965 79.96
57.223 -132.593 2.964 101.92
57.223 -130.932 2.965 51.95
57.223 -129.271 2.968 0.00
57.223 -127.609 2.969 0.00
57.223 -125.948 2.965 7.12
57.223 -124.287 2.959 117.07
57.223 -122.626 2.960 31.56
57.223 -120.964 2.960 0.00
57.223 -119.303 2.955 0.00
57.223 -117.642 2.944 117.89
57.223 -115.981 2.957 0.00
57.223 -114.319 2.971 18.98
57.223 -112.658 2.975 112.89
57.223 -110.997 2.973 1.00
57.223 -109.336 2.980 234.77
57.223 -107.674 2.996 172.85
57.223 -106.013 3.004 149.83
57.223 -104.352 2.997 0.00
57.223 -102.691 2.999 0.00
57.223 -101.029 2.998 11.99
57.223 -99.368 2.981 123.88
57.223 -97.707 2.957 144.84
57.223 -96.046 2.997 81.92
57.223 -94.384 3.043 161.85
57.223 -92.723 3.057 294.16
57.223 -91.062 3.047 134.89
57.223 -89.401 3.050 212.83
57.223 -87.739 3.046 177.84
57.223 -86.078 3.064 300.67
57.223 -84.417 3.076 97.91
57.223 -82.756 3.096 170.85
57.223 -81.094 3.098 594.44
57.223 -79.433 3.053 90.93
57.223 -77.772 3.015 0.00
57.223 -76.111 3.035 113.00
57.223 -74.449 3.072 206.32
57.223 -72.788 3.039 70.92
57.223 -71.127 2.992 70.95
57.223 -69.466 2.987 76.94
57.223 -67.805 3.000 114.88
57.223 -66.143 2.983 0.00
57.223 -64.482 2.969 0.00
57.223 -62.821 2.966 0.00
57.223 -61.160 2.968 0.00
57.223 -59.498 2.969 0.00
57.223 -57.837 2.969 0.00
57.223 -56.176 2.968 0.00
57.223 -54.515 2.968 0.00
57.223 -52.853 2.968 0.00
58.122 -147.051 2.968 0.00
58.122 -145.348 2.968 0.00
58.122 -143.645 2.969 0.00
58.122 -141.942 2.969 0.00
58.122 -140.239 2.969 0.00
58.122 -138.537 2.968 0.00
58.122 -136.834 2.965 0.00
58.122 -135.131 2.964 128.94
58.122 -133.428 2.967 0.00
58.122 -131.725 2.967 77.93
58.122 -130.022 2.969 156.33
58.122 -128.319 2.970 16.62
58.122 -126.616 2.964 9.89
58.122 -124.913 2.958 124.91
58.122 -123.210 2.964 0.00
58.122 -121.507 2.965 0.00
58.122 -119.804 2.955 0.00
58.122 -118.101 2.947 118.89
58.122 -116.398 2.964 0.00
58.122 -114.695 2.973 134.87
58.122 -112.992 2.972 0.00
58.122 -111.289 2.974 0.00
58.122 -109.586 2.986 4.99
58.122 -107.883 3.001 347.63
58.122 -106.180 3.008 190.83
58.122 -104.477 3.016 28.98
58.122 -102.774 3.033 65.94
58.122 -101.071 3.043 111.90
58.122 -99.368 3.011 19.98
58.122 -97.665 2.963 191.80
58.122 -95.962 2.961 78.92
58.122 -94.259 3.011 335.69
58.122 -92.556 3.048 277.70
58.122 -90.853 3.036 97.92
58.122 -89.150 3.027 100.92
58.122 -87.447 3.033 99.90
58.122 -85.744 3.075 301.67
58.122 -84.041 3.103 207.81
58.122 -82.339 3.111 612.42
58.122 -80.636 3.076 140.88
58.122 -78.933 3.027 0.00
58.122 -77.230 3.013 77.78
58.122 -75.527 3.045 112.70
58.122 -73.824 3.069 203.76
58.122 -72.121 3.021 101.93
58.122 -70.418 2.979 31.98
58.122 -68.715 2.979 14.98
58.122 -67.012 2.992 115.88
58.122 -65.309 2.978 0.00
58.122 -63.606 2.968 0.00
58.122 -61.903 2.967 0.00
58.122 -60.200 2.968 0.00
58.122 -58.497 2.969 0.00
58.122 -56.794 2.968 0.00
58.122 -55.091 2.968 0.00
58.122 -53.388 2.968 0.00
58.122 -51.685 2.968 0.00
59.022 -148.292 2.969 0.00
59.022 -146.545 2.969 0.00
59.022 -144.798 2.969 0.00
59.022 -143.050 2.969 0.00
59.022 -141.303 2.969 0.00
59.022 -139.556 2.966 0.00
59.022 -137.808 2.961 52.09
59.022 -136.061 2.963 282.81
59.022 -134.314 2.971 446.33
59.022 -132.567 2.970 123.04
59.022 -130.819 2.970 123.88
59.022 -129.072 2.970 187.86
59.022 -127.325 2.966 96.93
59.022 -125.577 2.963 108.92
59.022 -123.830 2.970 0.00
59.022 -122.083 2.964 0.00
59.022 -120.336 2.949 77.93
59.022 -118.588 2.952 41.96
59.022 -116.841 2.967 92.91
59.022 -115.094 2.972 44.96
59.022 -113.346 2.974 0.00
59.022 -111.599 2.986 2.00
59.022 -109.852 3.004 148.83
59.022 -108.105 3.012 0.00
59.022 -106.357 3.024 177.82
59.022 -104.610 3.048 348.68
59.022 -102.863 3.058 97.91
59.022 -101.115 3.057 87.92
59.022 -99.368 3.023 98.91
59.022 -97.621 2.960 0.00
59.022 -95.874 2.921 273.72
59.022 -94.126 2.963 283.26
59.022 -92.379 3.004 52.38
59.022 -90.632 3.006 0.00
59.022 -88.884 3.009 100.92
59.022 -87.137 3.047 266.73
59.022 -85.390 3.104 223.76
59.022 -83.643 3.128 427.61
59.022 -81.895 3.104 424.61
59.022 -80.148 3.051 18.98
59.022 -78.401 3.015 67.94
59.022 -76.654 3.018 124.53
59.022 -74.906 3.043 34.98
59.022 -73.159 3.056 305.69
59.022 -71.412 3.004 0.00
59.022 -69.664 2.971 11.99
59.022 -67.917 2.970 3.00
59.022 -66.170 2.977 14.84
59.022 -64.423 2.972 0.00
59.022 -62.675 2.968 0.00
59.022 -60.928 2.968 0.00
59.022 -59.181 2.968 0.00
59.022 -57.433 2.968 0.00
59.022 -55.686 2.968 0.00
59.022 -53.939 2.968 0.00
59.022 -52.192 2.968 0.00
59.022 -50.444 2.969 0.00
59.921 -149.612 2.968 0.00
59.921 -147.818 2.969 0.00
59.921 -146.023 2.968 0.00
59.921 -144.229 2.966 0.00
59.921 -142.434 2.966 0.00
59.921 -140.640 2.963 25.55
59.921 -138.845 2.957 335.34
59.921 -137.051 2.965 181.36
59.921 -135.257 2.975 591.62
59.921 -133.462 2.971 164.91
59.921 -131.668 2.969 48.96
59.921 -129.873 2.964 162.85
59.921 -128.079 2.960 195.86
59.921 -126.284 2.970 93.92
59.921 -124.490 2.974 78.94
59.921 -122.696 2.963 0.00
59.921 -120.901 2.946 120.89
59.921 -119.107 2.957 35.96
59.921 -117.312 2.971 104.90
59.921 -115.518 2.979 0.00
59.921 -113.724 2.995 5.99
59.921 -111.929 3.017 151.82
59.921 -110.135 3.028 0.00
59.921 -108.340 3.042 86.92
59.921 -106.546 3.053 116.89
59.921 -104.751 3.052 177.83
59.921 -102.957 3.052 387.64
59.921 -101.163 3.037 85.93
59.921 -99.368 3.011 83.92
59.921 -97.574 2.961 230.79
59.921 -95.779 2.909 142.85
59.921 -93.985 2.916 57.44
59.921 -92.191 2.962 62.47
59.921 -90.396 2.987 44.97
59.921 -88.602 3.017 83.93
59.921 -86.807 3.088 271.72
59.921 -85.013 3.142 320.69
59.921 -83.218 3.136 690.36
59.921 -81.424 3.080 55.95
59.921 -79.630 3.031 75.94
59.921 -77.835 3.013 94.46
59.921 -76.041 3.018 97.69
59.921 -74.246 3.038 121.89
59.921 -72.452 3.034 149.82
59.921 -70.657 2.990 0.00
59.921 -68.863 2.967 14.98
59.921 -67.069 2.966 0.00
59.921 -65.274 2.970 0.00
59.921 -63.480 2.968 0.00
59.921 -61.685 2.968 0.00
59.921 -59.891 2.968 0.00
59.921 -58.097 2.968 0.00
59.921 -56.302 2.968 0.00
59.921 -54.508 2.968 0.00
59.921 -52.713 2.968 0.00
59.921 -50.919 2.969 0.00
59.921 -49.124 2.968 0.00
60.820 -151.018 2.967 0.00
60.820 -149.173 2.965 12.80
60.820 -147.329 2.962 0.00
60.820 -145.484 2.958 102.32
60.820 -143.639 2.959 33.70
60.820 -141.795 2.961 0.00
60.820 -139.950 2.959 206.19
60.820 -138.106 2.964 272.10
60.820 -136.261 2.972 439.90
60.820 -134.416 2.965 640.84
60.820 -132.572 2.962 257.92
60.820 -130.727 2.958 99.92
60.820 -128.882 2.955 327.72
60.820 -127.038 2.964 19.98
60.820 -125.193 2.965 15.99
60.820 -123.348 2.957 94.92
60.820 -121.504 2.950 216.81
60.820 -119.659 2.971 145.86
60.820 -117.815 2.992 0.00
60.820 -115.970 3.015 15.98
60.820 -114.125 3.042 147.84
60.820 -112.281 3.057 65.94
60.820 -110.436 3.063 121.89
60.820 -108.591 3.056 70.94
60.820 -106.747 3.051 118.89
60.820 -104.902 3.034 67.94
60.820 -103.057 3.015 118.88
60.820 -101.213 3.004 544.49
60.820 -99.368 2.997 221.81
60.820 -97.524 2.971 0.00
60.820 -95.679 2.924 0.00
60.820 -93.834 2.890 116.86
60.820 -91.990 2.926 43.67
60.820 -90.145 2.984 134.16
60.820 -88.300 3.052 100.90
60.820 -86.456 3.143 288.71
60.820 -84.611 3.171 830.21
60.820 -82.766 3.118 151.87
60.820 -80.922 3.053 85.93
60.820 -79.077 3.014 61.21
60.820 -77.233 3.007 165.91
60.820 -75.388 3.011 29.98
60.820 -73.543 3.029 100.88
60.820 -71.699 3.014 101.88
60.820 -69.854 2.981 5.99
60.820 -68.009 2.966 9.14
60.820 -66.165 2.966 0.00
60.820 -64.320 2.968 0.00
60.820 -62.475 2.968 0.00
60.820 -60.631 2.968 0.00
60.820 -58.786 2.968 0.00
60.820 -56.942 2.968 0.00
60.820 -55.097 2.968 0.00
60.820 -53.252 2.968 0.00
60.820 -51.408 2.968 0.00
60.820 -49.563 2.968 0.00
60.820 -47.718 2.968 0.00
61.720 -152.518 2.965 0.00
61.720 -150.620 2.962 50.00
61.720 -148.722 2.956 85.68
61.720 -146.824 2.949 83.36
61.720 -144.926 2.945 290.77
61.720 -143.027 2.952 38.81
61.720 -141.129 2.957 94.00
61.720 -139.231 2.961 295.89
61.720 -137.333 2.968 536.88
61.720 -135.434 2.956 582.86
61.720 -133.536 2.953 307.12
61.720 -131.638 2.950 438.66
61.720 -129.740 2.951 304.84
61.720 -127.842 2.951 220.80
61.720 -125.943 2.953 0.00
61.720 -124.045 2.961 112.89
61.720 -122.147 2.986 150.86
61.720 -120.249 3.013 109.91
61.720 -118.350 3.037 135.88
61.720 -116.452 3.063 243.76
61.720 -114.554 3.080 120.89
61.720 -112.656 3.078 107.90
61.720 -110.758 3.063 117.89
61.720 -108.859 3.040 82.92
61.720 -106.961 3.016 63.93
61.720 -105.063 2.997 214.80
61.720 -103.165 2.983 185.83
61.720 -101.266 2.978 13.99
61.720 -99.368 2.981 307.70
61.720 -97.470 2.980 171.85
61.720 -95.572 2.947 0.00
61.720 -93.674 2.895 68.92
61.720 -91.775 2.900 72.25
61.720 -89.877 2.995 153.81
61.720 -87.979 3.110 174.82
61.720 -86.081 3.196 633.39
61.720 -84.182 3.172 569.47
61.720 -82.284 3.088 96.92
61.720 -80.386 3.024 92.93
61.720 -78.488 3.002 161.17
61.720 -76.590 2.991 0.00
61.720 -74.691 2.998 0.00
61.720 -72.793 3.017 100.88
61.720 -70.895 2.999 35.08
61.720 -68.997 2.974 14.98
61.720 -67.098 2.966 0.00
61.720 -65.200 2.968 0.00
61.720 -63.302 2.968 0.00
61.720 -61.404 2.968 0.00
61.720 -59.505 2.968 0.00
61.720 -57.607 2.968 0.00
61.720 -55.709 2.968 0.00
61.720 -53.811 2.968 0.00
61.720 -51.913 2.968 0.00
61.720 -50.014 2.968 0.00
61.720 -48.116 2.968 0.00
61.720 -46.218 2.968 0.00
62.619 -154.123 2.968 0.00
62.619 -152.167 2.967 22.24
62.619 -150.212 2.959 50.65
62.619 -148.256 2.946 147.97
62.619 -146.301 2.937 134.40
62.619 -144.345 2.936 360.29
62.619 -142.390 2.946 10.99
62.619 -140.434 2.959 187.96
62.619 -138.479 2.967 1030.68
62.619 -136.523 2.952 786.78
62.619 -134.567 2.947 281.40
62.619 -132.612 2.946 487.20
62.619 -130.656 2.949 400.85
62.619 -128.701 2.951 524.57
62.619 -126.745 2.975 332.24
62.619 -124.790 3.030 226.79
62.619 -122.834 3.082 99.91
62.619 -120.879 3.093 189.81
62.619 -118.923 3.077 248.37
62.619 -116.968 3.055 388.89
62.619 -115.012 3.055 485.84
62.619 -113.057 3.048 185.84
62.619 -111.101 3.025 143.85
62.619 -109.146 3.005 280.88
62.619 -107.190 2.989 164.85
62.619 -105.235 2.977 14.99
62.619 -103.279 2.970 0.00
62.619 -101.324 2.969 0.00
62.619 -99.368 2.977 0.00
62.619 -97.413 2.988 210.80
62.619 -95.457 2.975 300.73
62.619 -93.502 2.925 5.00
62.619 -91.546 2.908 134.47
62.619 -89.591 3.031 162.95
62.619 -87.635 3.176 290.71
62.619 -85.680 3.228 1074.97
62.619 -83.724 3.141 132.89
62.619 -81.769 3.042 126.91
62.619 -79.813 2.999 83.21
62.619 -77.858 2.988 30.99
62.619 -75.902 2.981 0.00
62.619 -73.946 2.993 0.00
62.619 -71.991 3.009 101.88
62.619 -70.035 2.989 0.60
62.619 -68.080 2.970 14.38
62.619 -66.124 2.966 0.00
62.619 -64.169 2.968 0.00
62.619 -62.213 2.969 0.00
62.619 -60.258 2.968 0.00
62.619 -58.302 2.968 0.00
62.619 -56.347 2.968 0.00
62.619 -54.391 2.968 0.00
62.619 -52.436 2.968 0.00
62.619 -50.480 2.968 0.00
62.619 -48.525 2.968 0.00
62.619 -46.569 2.968 0.00
62.619 -44.614 2.969 0.00
63.518 -155.841 2.969 0.00
63.518 -153.824 2.969 0.00
63.518 -151.807 2.963 60.02
63.518 -149.790 2.946 249.41
63.518 -147.773 2.931 296.52
63.518 -145.757 2.925 515.28
63.518 -143.740 2.931 695.36
63.518 -141.723 2.953 498.92
63.518 -139.706 2.970 716.86
63.518 -137.689 2.956 576.15
63.518 -135.672 2.952 162.99
63.518 -133.655 2.957 92.94
63.518 -131.638 2.963 156.21
63.518 -129.622 2.971 270.19
63.518 -127.605 3.015 682.51
63.518 -125.588 3.129 1337.41
63.518 -123.571 3.185 1076.23
63.518 -121.554 3.151 671.17
63.518 -119.537 3.094 498.95
63.518 -117.520 3.054 314.75
63.518 -115.503 3.032 316.69
63.518 -113.486 3.015 313.70
63.518 -111.470 3.001 291.74
63.518 -109.453 2.996 99.92
63.518 -107.436 2.993 99.93
63.518 -105.419 2.990 32.98
63.518 -103.402 2.989 0.00
63.518 -101.385 2.989 0.00
63.518 -99.368 2.994 22.98
63.518 -97.351 3.004 181.85
63.518 -95.334 3.000 283.75
63.518 -93.318 2.968 578.49
63.518 -91.301 2.962 213.85
63.518 -89.284 3.080 238.49
63.518 -87.267 3.221 1120.94
63.518 -85.250 3.209 463.57
63.518 -83.233 3.084 106.93
63.518 -81.216 2.999 1.32
63.518 -79.199 2.984 68.58
63.518 -77.182 2.978 0.00
63.518 -75.166 2.980 0.00
63.518 -73.149 3.000 50.94
63.518 -71.132 3.002 62.82
63.518 -69.115 2.979 32.13
63.518 -67.098 2.967 0.00
63.518 -65.081 2.967 0.00
63.518 -63.064 2.968 0.00
63.518 -61.047 2.968 0.00
63.518 -59.030 2.968 0.00
63.518 -57.014 2.968 0.00
63.518 -54.997 2.968 0.00
63.518 -52.980 2.968 0.00
63.518 -50.963 2.968 0.00
63.518 -48.946 2.968 0.00
63.518 -46.929 2.968 0.00
63.518 -44.912 2.968 0.00
63.518 -42.895 2.969 0.00
64.418 -157.686 2.969 0.00
64.418 -155.603 2.969 0.00
64.418 -153.520 2.965 0.00
64.418 -151.437 2.953 82.08
64.418 -149.355 2.940 211.36
64.418 -147.272 2.931 294.00
64.418 -145.189 2.928 573.12
64.418 -143.106 2.932 565.15
64.418 -141.023 2.945 462.44
64.418 -138.941 2.947 950.03
64.418 -136.858 2.952 501.60
64.418 -134.775 2.968 350.98
64.418 -132.692 2.975 226.41
64.418 -130.610 2.976 170.35
64.418 -128.527 3.002 592.96
64.418 -126.444 3.093 769.44
64.418 -124.361 3.162 888.58
64.418 -122.279 3.165 1138.74
64.418 -120.196 3.133 908.34
64.418 -118.113 3.101 593.97
64.418 -116.030 3.069 358.68
64.418 -113.948 3.038 295.74
64.418 -111.865 3.018 297.73
64.418 -109.782 3.009 343.45
64.418 -107.699 3.011 300.73
64.418 -105.616 3.015 368.68
64.418 -103.534 3.018 405.65
64.418 -101.451 3.019 402.66
64.418 -99.368 3.016 381.67
64.418 -97.285 3.014 222.80
64.418 -95.203 3.013 112.65
64.418 -93.120 2.999 100.92
64.418 -91.037 3.006 387.65
64.418 -88.954 3.087 1232.11
64.418 -86.872 3.177 977.57
64.418 -84.789 3.124 175.65
64.418 -82.706 3.025 34.10
64.418 -80.623 2.982 104.66
64.418 -78.541 2.975 33.76
64.418 -76.458 2.972 33.41
64.418 -74.375 2.985 33.06
64.418 -72.292 3.012 134.59
64.418 -70.210 2.998 19.49
64.418 -68.127 2.975 0.00
64.418 -66.044 2.967 0.00
64.418 -63.961 2.967 0.00
64.418 -61.878 2.968 0.00
64.418 -59.796 2.968 0.00
64.418 -57.713 2.968 0.00
64.418 -55.630 2.968 0.00
64.418 -53.547 2.968 0.00
64.418 -51.465 2.968 0.00
64.418 -49.382 2.968 0.00
64.418 -47.299 2.968 0.00
64.418 -45.216 2.968 0.00
64.418 -43.134 2.968 0.00
64.418 -41.051 2.968 0.00
65.317 -159.670 2.969 0.00
65.317 -157.516 2.969 0.00
65.317 -155.363 2.969 0.00
65.317 -153.209 2.965 0.00
65.317 -151.055 2.961 0.00
65.317 -148.902 2.953 42.22
65.317 -146.748 2.936 264.98
65.317 -144.595 2.915 578.46
65.317 -142.441 2.906 641.66
65.317 -140.287 2.910 1053.85
65.317 -138.134 2.927 128.71
65.317 -135.980 2.947 187.54
65.317 -133.826 2.958 43.98
65.317 -131.673 2.956 120.74
65.317 -129.519 2.958 305.24
65.317 -127.365 2.993 40.13
65.317 -125.212 3.028 9.21
65.317 -123.058 3.051 33.37
65.317 -120.905 3.075 348.43
65.317 -118.751 3.089 562.47
65.317 -116.597 3.083 553.47
65.317 -114.444 3.064 446.56
65.317 -112.290 3.046 401.61
65.317 -110.136 3.036 232.76
65.317 -107.983 3.031 98.90
65.317 -105.829 3.029 98.90
65.317 -103.675 3.029 99.91
65.317 -101.522 3.027 99.91
65.317 -99.368 3.023 100.91
65.317 -97.215 3.020 99.91
65.317 -95.061 3.017 99.91
65.317 -92.907 3.009 118.89
65.317 -90.754 3.009 141.82
65.317 -88.600 3.041 178.84
65.317 -86.446 3.063 0.00
65.317 -84.293 3.031 99.88
65.317 -82.139 2.990 35.61
65.317 -79.985 2.979 34.29
65.317 -77.832 2.973 0.00
65.317 -75.678 2.971 0.00
65.317 -73.525 2.995 0.00
65.317 -71.371 3.026 101.88
65.317 -69.217 3.008 0.00
65.317 -67.064 2.986 0.00
65.317 -64.910 2.976 21.32
65.317 -62.756 2.971 0.00
65.317 -60.603 2.968 0.00
65.317 -58.449 2.968 0.00
65.317 -56.295 2.968 0.00
65.317 -54.142 2.968 0.00
65.317 -51.988 2.968 0.00
65.317 -49.835 2.968 0.00
65.317 -47.681 2.968 0.00
65.317 -45.527 2.968 0.00
65.317 -43.374 2.968 0.00
65.317 -41.220 2.968 0.00
65.317 -39.066 2.968 0.00
66.216 -161.810 2.968 0.00
66.216 -159.580 2.969 0.00
66.216 -157.350 2.969 0.00
66.216 -155.120 2.970 0.00
66.216 -152.890 2.971 0.00
66.216 -150.660 2.967 0.00
66.216 -148.430 2.952 0.00
66.216 -146.200 2.926 17.72
66.216 -143.970 2.899 675.22
66.216 -141.740 2.891 1437.55
66.216 -139.510 2.906 321.11
66.216 -137.279 2.921 174.52
66.216 -135.049 2.930 214.30
66.216 -132.819 2.932 98.91
66.216 -130.589 2.925 212.83
66.216 -128.359 2.930 102.90
66.216 -126.129 2.934 112.65
66.216 -123.899 2.946 115.21
66.216 -121.669 2.970 128.75
66.216 -119.439 3.001 153.68
66.216 -117.209 3.037 283.72
66.216 -114.979 3.062 436.59
66.216 -112.749 3.069 358.67
66.216 -110.519 3.069 294.72
66.216 -108.288 3.064 292.70
66.216 -106.058 3.057 198.80
66.216 -103.828 3.049 199.79
66.216 -101.598 3.041 199.79
66.216 -99.368 3.034 200.79
66.216 -97.138 3.029 236.76
66.216 -94.908 3.024 306.69
66.216 -92.678 3.012 213.64
66.216 -90.448 2.998 98.97
66.216 -88.218 2.995 101.91
66.216 -85.988 2.998 0.00
66.216 -83.758 2.997 100.88
66.216 -81.528 2.998 71.21
66.216 -79.298 2.993 0.00
66.216 -77.067 2.986 0.00
66.216 -74.837 2.991 0.00
66.216 -72.607 3.019 0.00
66.216 -70.377 3.043 180.81
66.216 -68.147 3.021 89.92
66.216 -65.917 2.999 88.92
66.216 -63.687 2.983 20.98
66.216 -61.457 2.973 0.00
66.216 -59.227 2.969 0.00
66.216 -56.997 2.968 0.00
66.216 -54.767 2.968 0.00
66.216 -52.537 2.968 0.00
66.216 -50.307 2.968 0.00
66.216 -48.077 2.968 0.00
66.216 -45.846 2.968 0.00
66.216 -43.616 2.968 0.00
66.216 -41.386 2.968 0.00
66.216 -39.156 2.968 0.00
66.216 -36.926 2.968 0.00
67.116 -164.125 2.968 0.00
67.116 -161.812 2.968 0.00
67.116 -159.499 2.969 0.00
67.116 -157.186 2.969 0.00
67.116 -154.874 2.970 0.00
67.116 -152.561 2.967 0.00
67.116 -150.248 2.956 151.96
67.116 -147.935 2.937 419.64
67.116 -145.623 2.928 219.16
67.116 -143.310 2.929 0.00
67.116 -140.997 2.933 175.41
67.116 -138.685 2.933 379.50
67.116 -136.372 2.936 205.25
67.116 -134.059 2.944 2.93
67.116 -131.746 2.946 111.93
67.116 -129.434 2.950 0.00
67.116 -127.121 2.948 0.00
67.116 -124.808 2.946 0.50
67.116 -122.495 2.951 0.25
67.116 -120.183 2.964 9.10
67.116 -117.870 2.987 18.36
67.116 -115.557 3.013 25.55
67.116 -113.245 3.038 141.85
67.116 -110.932 3.060 311.70
67.116 -108.619 3.074 321.71
67.116 -106.306 3.077 346.68
67.116 -103.994 3.071 297.72
67.116 -101.681 3.060 270.74
67.116 -99.368 3.047 207.79
67.116 -97.055 3.038 169.83
67.116 -94.743 3.029 100.89
67.116 -92.430 3.019 22.86
67.116 -90.117 3.010 84.93
67.116 -87.805 2.999 16.99
67.116 -85.492 3.008 0.00
67.116 -83.179 3.024 172.10
67.116 -80.866 3.019 17.98
67.116 -78.554 3.010 95.91
67.116 -76.241 3.005 93.91
67.116 -73.928 3.018 93.91
67.116 -71.615 3.040 160.83
67.116 -69.303 3.027 44.95
67.116 -66.990 2.997 0.00
67.116 -64.677 2.981 0.00
67.116 -62.365 2.974 0.00
67.116 -60.052 2.969 0.00
67.116 -57.739 2.968 0.00
67.116 -55.426 2.968 0.00
67.116 -53.114 2.968 0.00
67.116 -50.801 2.968 0.00
67.116 -48.488 2.968 0.00
67.116 -46.176 2.968 0.00
67.116 -43.863 2.968 0.00
67.116 -41.550 2.968 0.00
67.116 -39.237 2.968 0.00
67.116 -36.925 2.968 0.00
67.116 -34.612 2.968 0.00
68.015 -166.634 2.968 0.00
68.015 -164.232 2.968 0.00
68.015 -161.829 2.968 0.00
68.015 -159.427 2.969 0.00
68.015 -157.025 2.969 0.00
68.015 -154.622 2.968 0.00
68.015 -152.220 2.964 0.00
68.015 -149.818 2.959 0.00
68.015 -147.415 2.955 41.02
68.015 -145.013 2.955 90.04
68.015 -142.611 2.953 93.04
68.015 -140.208 2.947 94.04
68.015 -137.806 2.944 321.31
68.015 -135.404 2.952 290.11
68.015 -133.001 2.960 313.15
68.015 -130.599 2.970 56.95
68.015 -128.196 2.972 0.00
68.015 -125.794 2.971 0.00
68.015 -123.392 2.968 0.00
68.015 -120.989 2.967 0.00
68.015 -118.587 2.971 0.00
68.015 -116.185 2.979 8.02
68.015 -113.782 2.993 15.99
68.015 -111.380 3.012 104.90
68.015 -108.978 3.033 189.80
68.015 -106.575 3.045 265.73
68.015 -104.173 3.050 313.70
68.015 -101.771 3.051 246.79
68.015 -99.368 3.056 305.74
68.015 -96.966 3.055 303.74
68.015 -94.563 3.050 204.82
68.015 -92.161 3.045 200.83
68.015 -89.759 3.042 237.79
68.015 -87.356 3.032 98.91
68.015 -84.954 3.041 134.17
68.015 -82.552 3.041 233.74
68.015 -80.149 3.018 77.93
68.015 -77.747 2.991 0.00
68.015 -75.345 2.987 0.00
68.015 -72.942 3.005 0.00
68.015 -70.540 3.027 101.88
68.015 -68.138 3.000 0.00
68.015 -65.735 2.972 0.00
68.015 -63.333 2.966 0.00
68.015 -60.931 2.967 0.00
68.015 -58.528 2.967 0.00
68.015 -56.126 2.968 0.00
68.015 -53.723 2.968 0.00
68.015 -51.321 2.968 0.00
68.015 -48.919 2.968 0.00
68.015 -46.516 2.968 0.00
68.015 -44.114 2.968 0.00
68.015 -41.712 2.968 0.00
68.015 -39.309 2.968 0.00
68.015 -36.907 2.968 0.00
68.015 -34.505 2.968 0.00
68.015 -32.102 2.968 0.00
68.915 -169.364 2.968 0.00
68.915 -166.864 2.968 0.00
68.915 -164.364 2.968 0.00
68.915 -161.865 2.968 0.00
68.915 -159.365 2.969 0.00
68.915 -156.865 2.969 0.00
68.915 -154.365 2.969 0.00
68.915 -151.865 2.968 0.00
68.915 -149.365 2.968 0.00
68.915 -146.865 2.968 0.00
68.915 -144.366 2.966 0.00
68.915 -141.866 2.963 0.00
68.915 -139.366 2.961 0.00
68.915 -136.866 2.963 0.00
68.915 -134.366 2.967 31.97
68.915 -131.866 2.973 214.80
68.915 -129.366 2.977 274.75
68.915 -126.867 2.978 198.81
68.915 -124.367 2.979 98.91
68.915 -121.867 2.977 99.91
68.915 -119.367 2.976 101.91
68.915 -116.867 2.975 102.90
68.915 -114.367 2.974 87.92
68.915 -111.867 2.976 0.00
68.915 -109.368 2.982 0.00
68.915 -106.868 2.989 0.00
68.915 -104.368 2.997 0.00
68.915 -101.868 3.009 95.89
68.915 -99.368 3.020 102.88
68.915 -96.868 3.025 102.88
68.915 -94.368 3.028 198.80
68.915 -91.869 3.031 159.74
68.915 -89.369 3.031 163.84
68.915 -86.869 3.025 2.64
68.915 -84.369 3.025 69.89
68.915 -81.869 3.009 9.04
68.915 -79.369 2.985 0.00
68.915 -76.870 2.968 0.00
68.915 -74.370 2.969 0.00
68.915 -71.870 2.991 0.00
68.915 -69.370 3.014 101.88
68.915 -66.870 2.989 0.00
68.915 -64.370 2.967 0.00
68.915 -61.870 2.964 0.00
68.915 -59.371 2.967 0.00
68.915 -56.871 2.968 0.00
68.915 -54.371 2.968 0.00
68.915 -51.871 2.968 0.00
68.915 -49.371 2.968 0.00
68.915 -46.871 2.968 0.00
68.915 -44.371 2.968 0.00
68.915 -41.872 2.968 0.00
68.915 -39.372 2.968 0.00
68.915 -36.872 2.968 0.00
68.915 -34.372 2.968 0.00
68.915 -31.872 2.968 0.00
68.915 -29.372 2.968 0.00
69.814 -172.344 2.968 0.00
69.814 -169.737 2.968 0.00
69.814 -167.131 2.968 0.00
69.814 -164.525 2.968 0.00
69.814 -161.919 2.968 0.00
69.814 -159.312 2.969 0.00
69.814 -156.706 2.969 0.00
69.814 -154.100 2.969 0.00
69.814 -151.494 2.969 0.00
69.814 -148.887 2.969 0.00
69.814 -146.281 2.969 0.00
69.814 -143.675 2.969 0.00
69.814 -141.069 2.968 0.00
69.814 -138.462 2.968 0.00
69.814 -135.856 2.969 0.00
69.814 -133.250 2.970 0.00
69.814 -130.643 2.971 0.00
69.814 -128.037 2.971 80.92
69.814 -125.431 2.970 183.83
69.814 -122.825 2.970 187.83
69.814 -120.218 2.970 188.82
69.814 -117.612 2.969 18.98
69.814 -115.006 2.967 0.00
69.814 -112.400 2.964 0.00
69.814 -109.793 2.962 0.00
69.814 -107.187 2.963 0.00
69.814 -104.581 2.966 0.00
69.814 -101.974 2.971 0.00
69.814 -99.368 2.976 0.00
69.814 -96.762 2.978 0.00
69.814 -94.156 2.986 0.00
