33.839 -89.623 3.693 26288.97
33.839 -88.540 3.676 26751.38
33.839 -87.458 3.683 23283.13
33.839 -86.375 3.641 21993.65
33.839 -85.292 3.594 30005.01
33.839 -84.209 3.622 21351.16
33.839 -83.126 3.712 12606.37
33.839 -82.044 3.823 13477.32
33.839 -80.961 3.793 5577.71
33.839 -79.878 3.777 5154.60
33.839 -78.795 3.699 1048.03
33.839 -77.713 3.671 202.79
33.839 -76.630 3.677 0.00
33.839 -75.547 3.719 119.86
33.839 -74.464 3.724 80.91
33.839 -73.381 3.699 100.92
33.839 -72.299 3.639 0.00
33.839 -71.216 3.611 0.00
33.839 -70.133 3.610 9.02
33.839 -69.050 3.613 17.33
34.739 -130.012 3.615 9.19
34.739 -128.918 3.612 0.00
34.739 -127.823 3.615 0.00
34.739 -126.729 3.615 0.00
34.739 -125.635 3.611 0.00
34.739 -124.540 3.606 0.00
34.739 -123.446 3.606 0.00
34.739 -122.351 3.620 0.00
34.739 -121.257 3.647 0.00
34.739 -120.162 3.676 741.19
34.739 -119.068 3.668 5068.41
34.739 -117.974 3.515 22432.91
34.739 -116.879 3.588 34744.27
34.739 -115.785 3.759 58365.96
34.739 -114.690 3.764 65805.82
34.739 -113.596 3.685 59994.58
34.739 -112.501 3.525 60382.97
34.739 -111.407 3.538 66746.50
34.739 -110.313 3.614 68766.69
34.739 -109.218 3.585 64572.35
34.739 -108.124 3.571 62437.95
34.739 -107.029 3.450 59027.99
34.739 -105.935 3.451 54061.36
34.739 -104.840 3.469 49730.46
34.739 -103.746 3.546 53413.36
34.739 -102.651 3.597 61261.23
34.739 -101.557 3.656 61273.77
34.739 -100.463 3.564 59575.50
34.739 -99.368 3.558 61206.98
34.739 -98.274 3.548 59290.44
34.739 -97.179 3.616 59233.19
34.739 -96.085 3.647 57825.33
34.739 -94.990 3.640 61507.83
34.739 -93.896 3.593 55902.89
34.739 -92.802 3.574 45291.52
34.739 -91.707 3.679 38906.45
34.739 -90.613 3.738 37908.64
34.739 -89.518 3.739 36891.82
34.739 -88.424 3.748 38284.84
34.739 -87.329 3.720 26278.47
34.739 -86.235 3.643 23278.43
34.739 -85.141 3.582 23218.06
34.739 -84.046 3.583 18884.69
34.739 -82.952 3.589 13774.63
34.739 -81.857 3.642 14629.00
34.739 -80.763 3.678 9891.78
34.739 -79.668 3.762 4829.32
34.739 -78.574 3.729 2221.23
34.739 -77.480 3.685 750.16
34.739 -76.385 3.688 5.99
34.739 -75.291 3.727 194.77
34.739 -74.196 3.707 0.00
34.739 -73.102 3.683 100.92
34.739 -72.007 3.634 0.00
34.739 -70.913 3.613 0.00
34.739 -69.818 3.611 0.00
34.739 -68.724 3.614 0.00
35.638 -130.353 3.615 25.10
35.638 -129.247 3.614 11.49
35.638 -128.140 3.613 0.00
35.638 -127.034 3.613 0.00
35.638 -125.927 3.609 0.00
35.638 -124.820 3.606 0.00
35.638 -123.714 3.617 0.00
35.638 -122.607 3.647 0.00
35.638 -121.500 3.661 1947.00
35.638 -120.394 3.668 11761.17
35.638 -119.287 3.728 16518.94
35.638 -118.181 3.563 22400.71
35.638 -117.074 3.460 32791.99
35.638 -115.967 3.644 56531.30
35.638 -114.861 3.681 62083.09
35.638 -113.754 3.587 64925.34
35.638 -112.648 3.494 67669.86
35.638 -111.541 3.451 67132.27
35.638 -110.434 3.551 59289.77
35.638 -109.328 3.591 54380.10
35.638 -108.221 3.607 58775.42
35.638 -107.115 3.437 61235.74
35.638 -106.008 3.420 55642.62
35.638 -104.901 3.455 54244.11
35.638 -103.795 3.480 58290.28
35.638 -102.688 3.612 60588.05
35.638 -101.581 3.655 68457.12
35.638 -100.475 3.601 75774.12
35.638 -99.368 3.653 70114.15
35.638 -98.262 3.665 72284.20
35.638 -97.155 3.588 117940.85
35.638 -96.048 3.539 87824.14
35.638 -94.942 3.671 62753.13
35.638 -93.835 3.593 57632.85
35.638 -92.729 3.623 74067.81
35.638 -91.622 3.675 55678.01
35.638 -90.515 3.713 51511.30
35.638 -89.409 3.734 45111.13
35.638 -88.302 3.756 41933.62
35.638 -87.195 3.698 31202.82
35.638 -86.089 3.645 26970.30
35.638 -84.982 3.600 23373.54
35.638 -83.876 3.618 21872.56
35.638 -82.769 3.577 17169.84
35.638 -81.662 3.577 12847.08
35.638 -80.556 3.620 14633.26
35.638 -79.449 3.744 7000.95
35.638 -78.343 3.750 6215.83
35.638 -77.236 3.698 1293.10
35.638 -76.129 3.706 544.61
35.638 -75.023 3.726 99.88
35.638 -73.916 3.700 27.98
35.638 -72.809 3.664 71.94
35.638 -71.703 3.624 0.00
35.638 -70.596 3.611 0.00
35.638 -69.490 3.612 0.00
35.638 -68.383 3.614 0.00
36.538 -130.710 3.616 0.00
36.538 -129.591 3.617 5.83
36.538 -128.471 3.617 17.33
36.538 -127.352 3.614 15.20
36.538 -126.233 3.609 0.00
36.538 -125.113 3.613 0.00
36.538 -123.994 3.644 0.00
36.538 -122.875 3.701 45.96
36.538 -121.755 3.684 2945.26
36.538 -120.636 3.681 43442.87
36.538 -119.516 3.714 56892.87
36.538 -118.397 3.551 54511.34
36.538 -117.278 3.411 55087.18
36.538 -116.158 3.480 68522.41
36.538 -115.039 3.555 72498.66
36.538 -113.920 3.462 83017.36
36.538 -112.800 3.462 69763.99
36.538 -111.681 3.485 64170.09
36.538 -110.562 3.556 56221.94
36.538 -109.442 3.586 50916.15
36.538 -108.323 3.575 53168.95
36.538 -107.204 3.429 55536.02
36.538 -106.084 3.386 56032.72
36.538 -104.965 3.386 59423.19
36.538 -103.846 3.428 70359.66
36.538 -102.726 3.590 74401.91
36.538 -101.607 3.675 79293.06
36.538 -100.488 3.641 76433.19
36.538 -99.368 3.634 73689.85
36.538 -98.249 3.713 73927.75
36.538 -97.130 3.684 71963.70
36.538 -96.010 3.584 87958.86
36.538 -94.891 3.780 80613.46
36.538 -93.771 3.688 75361.66
36.538 -92.652 3.689 79136.82
36.538 -91.533 3.668 60517.83
36.538 -90.413 3.707 58177.81
36.538 -89.294 3.694 54785.03
36.538 -88.175 3.654 45059.78
36.538 -87.055 3.624 32709.48
36.538 -85.936 3.570 28018.34
36.538 -84.817 3.545 27096.40
36.538 -83.697 3.615 24129.86
36.538 -82.578 3.616 20379.66
36.538 -81.459 3.576 17121.54
36.538 -80.339 3.568 13110.20
36.538 -79.220 3.704 8499.12
36.538 -78.101 3.767 3417.37
36.538 -76.981 3.717 1149.55
36.538 -75.862 3.715 99.88
36.538 -74.743 3.725 99.88
36.538 -73.623 3.703 100.92
36.538 -72.504 3.648 0.00
36.538 -71.384 3.615 0.00
36.538 -70.265 3.609 0.00
36.538 -69.146 3.612 0.00
36.538 -68.026 3.613 0.00
37.437 -131.083 3.614 0.00
37.437 -129.950 3.615 0.00
37.437 -128.817 3.613 0.00
37.437 -127.685 3.609 1.94
37.437 -126.552 3.613 17.33
37.437 -125.419 3.631 17.33
37.437 -124.287 3.690 15.35
37.437 -123.154 3.757 133.87
37.437 -122.021 3.667 22594.03
37.437 -120.889 3.650 34695.98
37.437 -119.756 3.668 25728.81
37.437 -118.623 3.499 39851.41
37.437 -117.491 3.495 44858.57
37.437 -116.358 3.462 61179.78
37.437 -115.225 3.478 68856.18
37.437 -114.093 3.440 70410.34
37.437 -112.960 3.391 73511.71
37.437 -111.827 3.455 59553.75
37.437 -110.695 3.517 60932.88
37.437 -109.562 3.549 54150.13
37.437 -108.429 3.537 54966.57
37.437 -107.297 3.421 58754.66
37.437 -106.164 3.372 65506.73
37.437 -105.032 3.387 83727.40
37.437 -103.899 3.470 75979.93
37.437 -102.766 3.629 77865.55
37.437 -101.634 3.627 68783.69
37.437 -100.501 3.592 70002.59
37.437 -99.368 3.574 70435.98
37.437 -98.236 3.670 66707.04
37.437 -97.103 3.662 67702.80
37.437 -95.970 3.622 69503.05
37.437 -94.838 3.741 73315.38
37.437 -93.705 3.728 81577.33
37.437 -92.572 3.670 82467.99
37.437 -91.440 3.619 70809.58
37.437 -90.307 3.624 62914.24
37.437 -89.174 3.619 54076.60
37.437 -88.042 3.657 40821.39
37.437 -86.909 3.601 34668.26
37.437 -85.776 3.570 31154.63
37.437 -84.644 3.555 23398.47
37.437 -83.511 3.602 22944.07
37.437 -82.378 3.633 23985.07
37.437 -81.246 3.561 28846.94
37.437 -80.113 3.562 24511.17
37.437 -78.980 3.738 17816.62
37.437 -77.848 3.802 3549.05
37.437 -76.715 3.753 1044.61
37.437 -75.582 3.726 99.88
37.437 -74.450 3.715 99.88
37.437 -73.317 3.698 100.92
37.437 -72.184 3.644 0.00
37.437 -71.052 3.611 0.00
37.437 -69.919 3.609 0.00
37.437 -68.786 3.612 0.00
37.437 -67.654 3.613 0.00
38.336 -131.472 3.614 0.00
38.336 -130.326 3.612 0.00
38.336 -129.179 3.607 0.00
38.336 -128.033 3.610 0.00
38.336 -126.886 3.630 0.00
38.336 -125.740 3.678 0.00
38.336 -124.593 3.761 162.00
38.336 -123.446 3.779 291.43
38.336 -122.300 3.691 14647.49
38.336 -121.153 3.556 30402.08
38.336 -120.007 3.476 26660.60
38.336 -118.860 3.324 45113.41
38.336 -117.713 3.433 52708.85
38.336 -116.567 3.554 54589.23
38.336 -115.420 3.586 52576.46
38.336 -114.274 3.625 63577.49
38.336 -113.127 3.405 73321.78
38.336 -111.981 3.380 66405.52
38.336 -110.834 3.381 60168.87
38.336 -109.687 3.454 57203.55
38.336 -108.541 3.471 56410.51
38.336 -107.394 3.291 60206.96
38.336 -106.248 3.221 60259.38
38.336 -105.101 3.337 45179.82
38.336 -103.955 3.570 42946.64
38.336 -102.808 3.711 51998.69
38.336 -101.661 3.659 53778.28
38.336 -100.515 3.653 54032.51
38.336 -99.368 3.679 54186.81
38.336 -98.222 3.720 57524.88
38.336 -97.075 3.696 60703.88
38.336 -95.928 3.701 62383.58
38.336 -94.782 3.723 61478.55
38.336 -93.635 3.626 66359.92
38.336 -92.489 3.596 77342.28
38.336 -91.342 3.576 89024.93
38.336 -90.196 3.646 85092.82
38.336 -89.049 3.721 83743.38
38.336 -87.902 3.704 69705.13
38.336 -86.756 3.551 40300.09
38.336 -85.609 3.609 33679.18
38.336 -84.463 3.565 29678.34
38.336 -83.316 3.573 24711.95
38.336 -82.170 3.564 31282.54
38.336 -81.023 3.463 30709.72
38.336 -79.876 3.507 33931.56
38.336 -78.730 3.693 39919.30
38.336 -77.583 3.823 17851.97
38.336 -76.437 3.803 568.52
38.336 -75.290 3.752 150.83
38.336 -74.143 3.694 19.98
38.336 -72.997 3.680 100.91
38.336 -71.850 3.638 0.00
38.336 -70.704 3.612 0.00
38.336 -69.557 3.610 0.00
38.336 -68.411 3.613 0.00
38.336 -67.264 3.613 0.00
39.236 -131.880 3.610 0.00
39.236 -130.719 3.609 0.00
39.236 -129.558 3.609 0.00
39.236 -128.397 3.628 0.00
39.236 -127.235 3.667 0.00
39.236 -126.074 3.724 129.88
39.236 -124.913 3.767 20.98
39.236 -123.752 3.763 1380.11
39.236 -122.591 3.747 14748.98
39.236 -121.430 3.610 24178.04
39.236 -120.269 3.478 43310.38
39.236 -119.107 3.513 70905.72
39.236 -117.946 3.523 48371.04
39.236 -116.785 3.626 47847.38
39.236 -115.624 3.592 52430.53
39.236 -114.463 3.592 58288.06
39.236 -113.302 3.489 67889.66
39.236 -112.141 3.468 68480.74
39.236 -110.980 3.431 58289.22
39.236 -109.818 3.492 53881.52
39.236 -108.657 3.507 60930.38
39.236 -107.496 3.306 63688.35
39.236 -106.335 3.267 57746.94
39.236 -105.174 3.452 42011.64
39.236 -104.013 3.690 37517.76
39.236 -102.852 3.756 43789.01
39.236 -101.690 3.676 42149.34
39.236 -100.529 3.608 38006.21
39.236 -99.368 3.579 38232.23
39.236 -98.207 3.658 40299.75
39.236 -97.046 3.733 49539.33
39.236 -95.885 3.739 50129.09
39.236 -94.724 3.702 52470.93
39.236 -93.563 3.620 58909.37
39.236 -92.401 3.680 59980.87
39.236 -91.240 3.698 73974.64
39.236 -90.079 3.700 68518.84
39.236 -88.918 3.636 66105.34
39.236 -87.757 3.539 54088.61
39.236 -86.596 3.554 38983.39
39.236 -85.435 3.685 30401.51
39.236 -84.273 3.664 29782.76
39.236 -83.112 3.597 26776.83
39.236 -81.951 3.544 29067.24
39.236 -80.790 3.467 26490.28
39.236 -79.629 3.521 20565.14
39.236 -78.468 3.697 10265.48
39.236 -77.307 3.851 5031.33
39.236 -76.145 3.851 1827.51
39.236 -74.984 3.804 551.33
39.236 -73.823 3.707 0.00
39.236 -72.662 3.667 100.91
39.236 -71.501 3.629 0.00
39.236 -70.340 3.612 0.00
39.236 -69.179 3.612 0.00
39.236 -68.018 3.613 0.00
39.236 -66.856 3.612 0.00
40.135 -132.306 3.606 0.00
40.135 -131.130 3.607 0.00
40.135 -129.954 3.627 0.00
40.135 -128.777 3.655 0.00
40.135 -127.601 3.695 101.90
40.135 -126.424 3.727 50.95
40.135 -125.248 3.699 0.00
40.135 -124.072 3.572 11853.65
40.135 -122.895 3.453 33681.15
40.135 -121.719 3.337 37275.98
40.135 -120.543 3.510 72726.93
40.135 -119.366 3.517 74633.80
40.135 -118.190 3.599 53310.36
40.135 -117.014 3.674 54757.88
40.135 -115.837 3.648 53355.37
40.135 -114.661 3.592 67562.88
40.135 -113.484 3.558 72392.87
40.135 -112.308 3.479 69612.45
40.135 -111.132 3.406 58150.75
40.135 -109.955 3.381 52867.45
40.135 -108.779 3.358 62421.36
40.135 -107.603 3.307 61359.80
40.135 -106.426 3.246 48420.30
40.135 -105.250 3.390 41492.47
40.135 -104.074 3.593 35217.02
40.135 -102.897 3.727 34347.07
40.135 -101.721 3.715 33334.64
40.135 -100.545 3.642 31993.08
40.135 -99.368 3.614 31493.86
40.135 -98.192 3.647 33949.84
40.135 -97.015 3.664 43709.94
40.135 -95.839 3.579 48665.53
40.135 -94.663 3.523 50088.04
40.135 -93.486 3.575 53116.70
40.135 -92.310 3.694 54289.16
40.135 -91.134 3.728 48937.30
40.135 -89.957 3.705 32904.55
40.135 -88.781 3.590 29691.23
40.135 -87.605 3.557 35471.60
40.135 -86.428 3.627 30667.08
40.135 -85.252 3.698 34625.61
40.135 -84.076 3.695 33430.64
40.135 -82.899 3.630 27268.27
40.135 -81.723 3.603 25595.72
40.135 -80.546 3.595 22115.90
40.135 -79.370 3.630 17016.62
40.135 -78.194 3.635 12000.97
40.135 -77.017 3.699 8614.32
40.135 -75.841 3.841 3041.82
40.135 -74.665 3.873 1407.55
40.135 -73.488 3.767 0.00
40.135 -72.312 3.681 100.91
40.135 -71.136 3.621 0.00
40.135 -69.959 3.608 0.00
40.135 -68.783 3.612 0.00
40.135 -67.607 3.613 0.00
40.135 -66.430 3.611 0.00
41.034 -132.752 3.609 0.00
41.034 -131.560 3.614 0.00
41.034 -130.368 3.648 0.00
41.034 -129.175 3.686 75.93
41.034 -127.983 3.734 79.93
41.034 -126.791 3.756 0.00
41.034 -125.598 3.690 277.71
41.034 -124.406 3.388 59403.11
41.034 -123.214 3.205 46154.42
41.034 -122.022 3.187 43973.75
41.034 -120.829 3.375 37906.71
41.034 -119.637 3.363 56057.61
41.034 -118.445 3.584 55544.29
41.034 -117.252 3.696 48551.53
41.034 -116.060 3.703 47323.13
41.034 -114.868 3.747 75923.27
41.034 -113.676 3.711 62883.68
41.034 -112.483 3.470 62428.04
41.034 -111.291 3.316 58644.54
41.034 -110.099 3.202 68975.61
41.034 -108.906 3.271 53120.77
41.034 -107.714 3.340 47635.57
41.034 -106.522 3.360 40847.18
41.034 -105.330 3.418 36539.01
41.034 -104.137 3.534 32736.76
41.034 -102.945 3.640 28080.10
41.034 -101.753 3.667 29718.24
41.034 -100.560 3.641 29182.44
41.034 -99.368 3.564 29665.29
41.034 -98.176 3.538 34128.21
41.034 -96.984 3.592 41712.17
41.034 -95.791 3.641 45881.03
41.034 -94.599 3.619 50066.99
41.034 -93.407 3.676 50097.12
41.034 -92.215 3.775 42688.16
41.034 -91.022 3.749 32311.30
41.034 -89.830 3.742 23825.42
41.034 -88.638 3.707 23100.62
41.034 -87.445 3.675 23903.03
41.034 -86.253 3.784 23047.14
41.034 -85.061 3.782 28184.12
41.034 -83.869 3.723 26376.45
41.034 -82.676 3.616 25324.64
41.034 -81.484 3.582 21240.69
41.034 -80.292 3.626 18569.92
41.034 -79.099 3.552 15808.74
41.034 -77.907 3.462 15225.21
41.034 -76.715 3.535 11838.33
41.034 -75.523 3.750 10864.23
41.034 -74.330 3.884 7531.58
41.034 -73.138 3.827 1243.48
41.034 -71.946 3.715 401.71
41.034 -70.753 3.623 9.99
41.034 -69.561 3.599 0.00
41.034 -68.369 3.607 0.00
41.034 -67.177 3.611 0.00
41.034 -65.984 3.613 0.00
41.934 -133.219 3.630 0.00
41.934 -132.010 3.635 0.00
41.934 -130.801 3.676 53.95
41.934 -129.592 3.727 104.90
41.934 -128.383 3.768 0.00
41.934 -127.174 3.812 76.92
41.934 -125.965 3.807 1793.25
41.934 -124.756 3.579 13836.14
41.934 -123.547 3.333 27108.69
41.934 -122.338 3.368 31695.17
41.934 -121.129 3.439 31589.31
41.934 -119.920 3.442 40168.02
41.934 -118.711 3.512 41816.74
41.934 -117.502 3.505 44053.13
41.934 -116.293 3.462 52257.12
41.934 -115.085 3.542 63324.25
41.934 -113.876 3.636 53062.42
41.934 -112.667 3.649 59678.97
41.934 -111.458 3.515 72596.26
41.934 -110.249 3.427 65831.78
41.934 -109.040 3.446 53079.41
41.934 -107.831 3.432 44475.77
41.934 -106.622 3.429 38639.21
41.934 -105.413 3.442 35858.09
41.934 -104.204 3.493 29691.78
41.934 -102.995 3.524 28192.01
41.934 -101.786 3.594 27264.89
41.934 -100.577 3.609 30721.12
41.934 -99.368 3.571 33229.20
41.934 -98.159 3.651 36074.05
41.934 -96.950 3.651 41412.06
41.934 -95.741 3.652 45533.00
41.934 -94.532 3.651 46488.87
41.934 -93.323 3.694 41261.21
41.934 -92.115 3.744 33470.24
41.934 -90.906 3.785 32067.64
41.934 -89.697 3.809 22175.32
41.934 -88.488 3.802 21871.56
41.934 -87.279 3.724 18362.62
41.934 -86.070 3.747 18279.26
41.934 -84.861 3.712 23142.11
41.934 -83.652 3.688 21388.29
41.934 -82.443 3.673 18804.61
41.934 -81.234 3.598 20670.41
41.934 -80.025 3.602 21149.33
41.934 -78.816 3.547 20201.22
41.934 -77.607 3.459 15871.15
41.934 -76.398 3.550 12253.53
41.934 -75.189 3.707 9243.67
41.934 -73.980 3.836 7759.15
41.934 -72.771 3.849 3705.37
41.934 -71.562 3.745 1014.23
41.934 -70.353 3.646 121.38
41.934 -69.145 3.604 0.00
41.934 -67.936 3.600 0.00
41.934 -66.727 3.603 0.00
41.934 -65.518 3.621 0.00
42.833 -133.707 3.665 0.00
42.833 -132.481 3.676 35.97
42.833 -131.254 3.701 126.88
42.833 -130.028 3.721 0.00
42.833 -128.802 3.748 7.99
42.833 -127.575 3.738 305.70
42.833 -126.349 3.613 10715.68
42.833 -125.122 3.447 15680.62
42.833 -123.896 3.397 11277.38
42.833 -122.670 3.431 23432.56
42.833 -121.443 3.456 26882.76
42.833 -120.217 3.464 29432.65
42.833 -118.990 3.533 34631.05
42.833 -117.764 3.530 40397.67
42.833 -116.538 3.517 49631.66
42.833 -115.311 3.460 45921.98
42.833 -114.085 3.481 48843.22
42.833 -112.858 3.451 49914.59
42.833 -111.632 3.399 56024.89
42.833 -110.406 3.423 54139.68
42.833 -109.179 3.443 50855.38
42.833 -107.953 3.450 42345.75
42.833 -106.727 3.532 39693.29
42.833 -105.500 3.493 36996.36
42.833 -104.274 3.452 35929.71
42.833 -103.047 3.456 32028.66
42.833 -101.821 3.600 31148.34
42.833 -100.595 3.658 31596.11
42.833 -99.368 3.577 31635.29
42.833 -98.142 3.585 37162.42
42.833 -96.915 3.581 41040.57
42.833 -95.689 3.641 37912.96
42.833 -94.463 3.629 37774.40
42.833 -93.236 3.633 32213.13
42.833 -92.010 3.680 27116.46
42.833 -90.783 3.681 33669.38
42.833 -89.557 3.736 21821.60
42.833 -88.331 3.828 19723.58
42.833 -87.104 3.794 16729.27
42.833 -85.878 3.771 16944.87
42.833 -84.652 3.730 16534.11
42.833 -83.425 3.675 16446.72
42.833 -82.199 3.668 18518.83
42.833 -80.972 3.643 19421.33
42.833 -79.746 3.607 19132.71
42.833 -78.520 3.553 19729.07
42.833 -77.293 3.490 15815.77
42.833 -76.067 3.616 11714.75
42.833 -74.840 3.737 10871.01
42.833 -73.614 3.769 11213.20
42.833 -72.388 3.845 10108.29
42.833 -71.161 3.801 2243.06
42.833 -69.935 3.705 83.93
42.833 -68.708 3.642 0.00
42.833 -67.482 3.611 0.00
42.833 -66.256 3.601 0.00
42.833 -65.029 3.632 0.00
43.732 -134.219 3.705 22.98
43.732 -132.974 3.711 143.87
43.732 -131.729 3.700 0.00
43.732 -130.485 3.744 0.00
43.732 -129.240 3.767 283.72
43.732 -127.995 3.548 210.89
43.732 -126.751 3.188 44536.65
43.732 -125.506 3.075 24176.00
43.732 -124.261 3.130 16457.74
43.732 -123.017 3.287 18813.07
43.732 -121.772 3.314 23541.32
43.732 -120.527 3.330 27123.97
43.732 -119.283 3.430 30871.73
43.732 -118.038 3.507 35225.11
43.732 -116.793 3.563 42228.33
43.732 -115.549 3.549 37997.34
43.732 -114.304 3.527 41631.67
43.732 -113.059 3.427 35606.45
43.732 -111.815 3.287 38518.90
43.732 -110.570 3.243 44379.05
43.732 -109.325 3.322 38499.08
43.732 -108.081 3.537 38703.14
43.732 -106.836 3.701 36971.23
43.732 -105.591 3.675 32997.34
43.732 -104.347 3.552 33099.02
43.732 -103.102 3.509 31228.22
43.732 -101.858 3.639 29788.98
43.732 -100.613 3.734 31031.88
43.732 -99.368 3.664 36506.50
43.732 -98.124 3.625 36064.05
43.732 -96.879 3.584 41662.07
43.732 -95.634 3.586 38221.31
43.732 -94.390 3.594 33152.30
43.732 -93.145 3.629 31264.29
43.732 -91.900 3.676 27107.76
43.732 -90.656 3.647 32261.69
43.732 -89.411 3.721 22376.38
43.732 -88.166 3.806 19230.83
43.732 -86.922 3.800 17338.36
43.732 -85.677 3.803 16268.26
43.732 -84.432 3.780 12152.22
43.732 -83.188 3.737 12886.37
43.732 -81.943 3.709 11819.47
43.732 -80.698 3.693 15325.62
43.732 -79.454 3.660 16867.37
43.732 -78.209 3.604 18250.16
43.732 -76.964 3.575 16298.70
43.732 -75.720 3.721 11494.86
43.732 -74.475 3.772 12579.10
43.732 -73.230 3.742 8265.99
43.732 -71.986 3.802 6211.90
43.732 -70.741 3.782 6016.81
43.732 -69.496 3.746 641.98
43.732 -68.252 3.692 161.85
43.732 -67.007 3.649 115.89
43.732 -65.763 3.631 0.00
43.732 -64.518 3.659 0.00
44.632 -134.754 3.737 171.84
44.632 -133.490 3.721 0.00
44.632 -132.227 3.737 0.00
44.632 -130.963 3.825 215.79
44.632 -129.699 3.839 208.36
44.632 -128.435 3.594 315.27
44.632 -127.172 3.169 2727.13
44.632 -125.908 3.048 10764.76
44.632 -124.644 3.121 12557.48
44.632 -123.380 3.324 19013.68
44.632 -122.116 3.375 20645.58
44.632 -120.853 3.387 22286.62
44.632 -119.589 3.504 25853.15
44.632 -118.325 3.534 34771.43
44.632 -117.061 3.580 36983.11
44.632 -115.797 3.641 32323.31
44.632 -114.534 3.602 33951.47
44.632 -113.270 3.524 34499.26
44.632 -112.006 3.370 30472.19
44.632 -110.742 3.264 35580.78
44.632 -109.479 3.360 30887.64
44.632 -108.215 3.572 28102.02
44.632 -106.951 3.626 29166.61
44.632 -105.687 3.660 27597.11
44.632 -104.423 3.622 25740.93
44.632 -103.160 3.535 25847.85
44.632 -101.896 3.599 26201.83
44.632 -100.632 3.708 25366.85
44.632 -99.368 3.783 26644.29
44.632 -98.104 3.744 27922.55
44.632 -96.841 3.662 33640.31
44.632 -95.577 3.633 31140.08
44.632 -94.313 3.598 28787.33
44.632 -93.049 3.587 26005.79
44.632 -91.785 3.663 26569.13
44.632 -90.522 3.730 24343.16
44.632 -89.258 3.738 24565.98
44.632 -87.994 3.755 17918.77
44.632 -86.730 3.728 16795.80
44.632 -85.467 3.751 15191.15
44.632 -84.203 3.776 12994.56
44.632 -82.939 3.766 11316.20
44.632 -81.675 3.737 12240.15
44.632 -80.411 3.704 11935.55
44.632 -79.148 3.616 14963.73
44.632 -77.884 3.557 21578.72
44.632 -76.620 3.576 17258.63
44.632 -75.356 3.764 14238.31
44.632 -74.092 3.753 10154.88
44.632 -72.829 3.664 6257.84
44.632 -71.565 3.682 3930.49
44.632 -70.301 3.706 2829.98
44.632 -69.037 3.723 2050.08
44.632 -67.773 3.721 1440.28
44.632 -66.510 3.703 127.88
44.632 -65.246 3.704 228.79
44.632 -63.982 3.721 197.98
45.531 -135.316 3.763 161.85
45.531 -134.032 3.746 0.00
45.531 -132.748 3.777 150.04
45.531 -131.464 3.875 227.32
45.531 -130.180 3.946 168.92
45.531 -128.897 3.805 338.68
45.531 -127.613 3.514 1319.45
45.531 -126.329 3.487 2182.65
45.531 -125.045 3.431 3959.99
45.531 -123.761 3.395 10779.58
45.531 -122.477 3.387 15593.68
45.531 -121.193 3.436 19682.36
45.531 -119.910 3.543 24233.61
45.531 -118.626 3.681 34054.25
45.531 -117.342 3.655 31332.74
45.531 -116.058 3.633 26278.67
45.531 -114.774 3.633 27110.54
45.531 -113.490 3.646 26982.23
45.531 -112.207 3.618 33378.40
45.531 -110.923 3.505 26739.32
45.531 -109.639 3.530 22267.32
45.531 -108.355 3.701 21050.01
45.531 -107.071 3.688 23414.81
45.531 -105.787 3.624 24666.73
45.531 -104.504 3.628 20758.50
45.531 -103.220 3.608 20162.70
45.531 -101.936 3.639 21825.92
45.531 -100.652 3.734 22468.15
45.531 -99.368 3.879 24324.09
45.531 -98.084 3.844 26578.72
45.531 -96.801 3.708 29456.92
45.531 -95.517 3.649 25867.92
45.531 -94.233 3.606 24235.33
45.531 -92.949 3.546 20133.98
45.531 -91.665 3.584 21805.47
45.531 -90.381 3.747 19174.87
45.531 -89.097 3.797 17195.47
45.531 -87.814 3.786 13672.89
45.531 -86.530 3.696 13849.74
45.531 -85.246 3.718 12979.32
45.531 -83.962 3.856 9571.93
45.531 -82.678 3.861 10724.03
45.531 -81.394 3.791 10311.27
45.531 -80.111 3.757 10188.30
45.531 -78.827 3.674 10775.85
45.531 -77.543 3.531 17386.12
45.531 -76.259 3.524 21239.46
45.531 -74.975 3.765 5902.02
45.531 -73.691 3.822 5015.46
45.531 -72.408 3.700 3255.64
45.531 -71.124 3.604 3238.34
45.531 -69.840 3.611 3306.04
45.531 -68.556 3.678 630.53
45.531 -67.272 3.736 1228.26
45.531 -65.988 3.765 950.64
45.531 -64.705 3.779 380.82
45.531 -63.421 3.790 424.58
46.431 -135.904 3.782 346.90
46.431 -134.600 3.783 109.08
46.431 -133.295 3.804 248.92
46.431 -131.990 3.835 152.86
46.431 -130.685 3.910 196.81
46.431 -129.380 3.935 328.67
46.431 -128.075 3.899 1349.10
46.431 -126.770 4.023 1850.52
46.431 -125.466 3.831 2838.20
46.431 -124.161 3.558 6249.68
46.431 -122.856 3.427 11998.97
46.431 -121.551 3.409 18303.99
46.431 -120.246 3.541 24068.98
46.431 -118.941 3.778 29094.37
46.431 -117.636 3.679 22358.36
46.431 -116.331 3.610 20555.97
46.431 -115.027 3.646 23967.96
46.431 -113.722 3.651 25810.83
46.431 -112.417 3.662 22985.53
46.431 -111.112 3.639 15633.96
46.431 -109.807 3.630 17040.40
46.431 -108.502 3.666 18885.68
46.431 -107.197 3.624 19249.73
46.431 -105.893 3.577 24614.15
46.431 -104.588 3.621 17474.48
46.431 -103.283 3.599 16862.20
46.431 -101.978 3.553 16410.82
46.431 -100.673 3.600 15501.33
46.431 -99.368 3.747 17983.02
46.431 -98.063 3.825 20058.37
46.431 -96.758 3.808 22194.72
46.431 -95.454 3.760 22385.93
46.431 -94.149 3.680 19344.24
46.431 -92.844 3.638 18059.36
46.431 -91.539 3.605 13409.41
46.431 -90.234 3.670 12105.00
46.431 -88.929 3.721 9832.64
46.431 -87.624 3.697 7390.52
46.431 -86.320 3.642 8846.82
46.431 -85.015 3.739 7414.06
46.431 -83.710 3.859 6866.15
46.431 -82.405 3.877 6191.74
46.431 -81.100 3.856 6205.37
46.431 -79.795 3.847 5786.40
46.431 -78.490 3.851 5168.27
46.431 -77.185 3.799 4485.38
46.431 -75.881 3.758 4508.58
46.431 -74.576 3.833 3080.03
46.431 -73.271 3.842 3914.94
46.431 -71.966 3.716 2603.58
46.431 -70.661 3.599 2236.10
46.431 -69.356 3.613 1237.78
46.431 -68.051 3.679 803.42
46.431 -66.747 3.757 308.64
46.431 -65.442 3.799 416.58
46.431 -64.137 3.788 573.40
46.431 -62.832 3.771 223.74
47.330 -136.522 3.811 294.56
47.330 -135.195 3.815 414.39
47.330 -133.868 3.826 144.86
47.330 -132.541 3.845 140.87
47.330 -131.214 3.875 159.85
47.330 -129.887 3.925 419.58
47.330 -128.561 4.013 1583.42
47.330 -127.234 4.228 2503.28
47.330 -125.907 4.023 2704.45
47.330 -124.580 3.726 5040.41
47.330 -123.253 3.504 13031.17
47.330 -121.926 3.458 17687.28
47.330 -120.599 3.558 21278.11
47.330 -119.272 3.748 20305.37
47.330 -117.945 3.720 17055.35
47.330 -116.618 3.638 18253.79
47.330 -115.291 3.562 19994.29
47.330 -113.964 3.547 18006.10
47.330 -112.637 3.631 17380.50
47.330 -111.311 3.618 13899.21
47.330 -109.984 3.585 14548.56
47.330 -108.657 3.549 14855.70
47.330 -107.330 3.524 15317.48
47.330 -106.003 3.533 16674.57
47.330 -104.676 3.544 16617.10
47.330 -103.349 3.536 13622.66
47.330 -102.022 3.560 14553.52
47.330 -100.695 3.602 15930.26
47.330 -99.368 3.667 15887.70
47.330 -98.041 3.834 17865.89
47.330 -96.714 3.846 17173.96
47.330 -95.387 3.789 14731.33
47.330 -94.061 3.743 12007.90
47.330 -92.734 3.712 9395.61
47.330 -91.407 3.629 7054.94
47.330 -90.080 3.657 7288.53
47.330 -88.753 3.689 7992.96
47.330 -87.426 3.654 6804.12
47.330 -86.099 3.626 5528.06
47.330 -84.772 3.703 4472.99
47.330 -83.445 3.830 4199.92
47.330 -82.118 3.865 3835.21
47.330 -80.791 3.872 3928.70
47.330 -79.464 3.901 4208.00
47.330 -78.137 3.972 3599.36
47.330 -76.811 3.948 3158.03
47.330 -75.484 3.891 2372.19
47.330 -74.157 3.866 2779.79
47.330 -72.830 3.797 2340.05
47.330 -71.503 3.700 2174.70
47.330 -70.176 3.636 1522.43
47.330 -68.849 3.647 387.58
47.330 -67.522 3.698 384.71
47.330 -66.195 3.748 436.73
47.330 -64.868 3.745 408.63
47.330 -63.541 3.703 291.71
47.330 -62.214 3.738 361.58
48.229 -137.170 3.889 496.65
48.229 -135.820 3.875 203.82
48.229 -134.470 3.874 333.67
48.229 -133.120 3.884 450.56
48.229 -131.770 3.884 398.60
48.229 -130.420 3.907 1057.92
48.229 -129.070 3.983 1875.79
48.229 -127.720 4.162 2439.95
48.229 -126.370 3.982 2735.78
48.229 -125.020 3.767 7148.24
48.229 -123.670 3.605 16377.61
48.229 -122.320 3.592 16887.58
48.229 -120.969 3.578 17336.61
48.229 -119.619 3.659 14106.35
48.229 -118.269 3.689 14384.11
48.229 -116.919 3.605 16715.11
48.229 -115.569 3.524 13639.58
48.229 -114.219 3.508 13751.81
48.229 -112.869 3.577 13065.97
48.229 -111.519 3.584 9195.81
48.229 -110.169 3.509 11031.51
48.229 -108.819 3.465 11604.48
48.229 -107.469 3.553 13667.52
48.229 -106.119 3.637 11223.87
48.229 -104.769 3.619 17213.15
48.229 -103.418 3.590 13150.21
48.229 -102.068 3.576 14024.62
48.229 -100.718 3.606 13421.74
48.229 -99.368 3.693 13280.04
48.229 -98.018 3.748 10851.06
48.229 -96.668 3.730 12357.70
48.229 -95.318 3.726 9893.76
48.229 -93.968 3.735 6447.12
48.229 -92.618 3.721 5197.52
48.229 -91.268 3.657 4618.67
48.229 -89.918 3.703 3341.90
48.229 -88.568 3.747 4477.65
48.229 -87.217 3.771 3043.84
48.229 -85.867 3.745 2474.65
48.229 -84.517 3.778 2483.45
48.229 -83.167 3.890 2323.17
48.229 -81.817 3.948 2743.41
48.229 -80.467 3.944 2599.02
48.229 -79.117 3.922 2653.76
48.229 -77.767 3.934 3103.19
48.229 -76.417 3.923 2209.98
48.229 -75.067 3.870 1259.29
48.229 -73.717 3.819 1395.51
48.229 -72.367 3.740 979.00
48.229 -71.017 3.702 734.25
48.229 -69.666 3.699 222.77
48.229 -68.316 3.730 82.90
48.229 -66.966 3.746 424.57
48.229 -65.616 3.715 389.62
48.229 -64.266 3.669 309.68
48.229 -62.916 3.665 111.85
48.229 -61.566 3.777 115.65
49.129 -137.851 4.031 575.42
49.129 -136.477 4.022 167.83
49.129 -135.103 3.956 302.70
49.129 -133.728 3.902 405.59
49.129 -132.354 3.902 672.32
49.129 -130.979 3.956 1154.77
49.129 -129.605 3.980 1149.92
49.129 -128.231 3.986 2830.61
49.129 -126.856 3.844 4452.65
49.129 -125.482 3.732 15064.60
49.129 -124.107 3.699 18808.58
49.129 -122.733 3.604 14456.15
49.129 -121.359 3.528 12916.82
49.129 -119.984 3.529 13482.74
49.129 -118.610 3.544 11025.26
49.129 -117.235 3.557 10343.17
49.129 -115.861 3.503 7945.94
49.129 -114.487 3.541 9024.51
49.129 -113.112 3.516 9892.06
49.129 -111.738 3.549 8086.32
49.129 -110.363 3.518 8115.08
49.129 -108.989 3.483 8908.84
49.129 -107.615 3.599 9205.30
49.129 -106.240 3.723 9970.46
49.129 -104.866 3.721 12008.56
49.129 -103.491 3.611 13829.46
49.129 -102.117 3.586 11700.01
49.129 -100.743 3.614 11631.18
49.129 -99.368 3.723 9488.45
49.129 -97.994 3.761 8112.99
49.129 -96.619 3.754 6873.70
49.129 -95.245 3.728 5284.31
49.129 -93.871 3.735 2762.10
49.129 -92.496 3.693 2451.45
49.129 -91.122 3.625 2861.66
49.129 -89.747 3.682 3902.33
49.129 -88.373 3.794 3954.97
49.129 -86.999 3.872 3340.56
49.129 -85.624 3.879 3219.85
49.129 -84.250 3.870 2973.02
49.129 -82.875 3.905 2744.40
49.129 -81.501 3.935 1830.93
49.129 -80.127 3.916 2749.21
49.129 -78.752 3.863 2098.84
49.129 -77.378 3.838 1229.01
49.129 -76.003 3.817 1009.48
49.129 -74.629 3.778 632.37
49.129 -73.255 3.731 794.13
49.129 -71.880 3.704 623.39
49.129 -70.506 3.726 334.63
49.129 -69.131 3.765 364.65
49.129 -67.757 3.788 575.68
49.129 -66.383 3.742 234.78
49.129 -65.008 3.694 154.46
49.129 -63.634 3.687 94.17
49.129 -62.259 3.744 143.31
49.129 -60.885 3.900 466.54
50.028 -138.567 4.123 502.50
50.028 -137.167 4.104 600.00
50.028 -135.767 3.927 574.42
50.028 -134.367 3.850 526.44
50.028 -132.967 3.908 311.70
50.028 -131.567 3.959 937.98
50.028 -130.167 3.872 1207.89
50.028 -128.767 3.757 4109.69
50.028 -127.368 3.690 15750.33
50.028 -125.968 3.675 19845.45
50.028 -124.568 3.565 17577.80
50.028 -123.168 3.502 13852.52
50.028 -121.768 3.466 13032.31
50.028 -120.368 3.448 10658.29
50.028 -118.968 3.446 9052.01
50.028 -117.568 3.483 9906.96
50.028 -116.168 3.504 7880.56
50.028 -114.768 3.633 8596.83
50.028 -113.368 3.617 7983.14
50.028 -111.968 3.623 7608.88
50.028 -110.568 3.603 6202.20
50.028 -109.168 3.561 8422.61
50.028 -107.768 3.548 8219.12
50.028 -106.368 3.644 8932.95
50.028 -104.968 3.653 9609.14
50.028 -103.568 3.623 14582.95
50.028 -102.168 3.621 10523.01
50.028 -100.768 3.667 9353.42
50.028 -99.368 3.807 6715.13
50.028 -97.968 3.906 5678.32
50.028 -96.568 3.904 7517.18
50.028 -95.168 3.848 3223.25
50.028 -93.768 3.802 2270.38
50.028 -92.368 3.714 1940.96
50.028 -90.968 3.608 3088.78
50.028 -89.568 3.704 3113.85
50.028 -88.168 3.851 2926.99
50.028 -86.769 3.906 1905.96
50.028 -85.369 3.903 1609.40
50.028 -83.969 3.889 1895.05
50.028 -82.569 3.851 2314.60
50.028 -81.169 3.817 2419.10
50.028 -79.769 3.780 1768.17
50.028 -78.369 3.743 1158.79
50.028 -76.969 3.747 1005.33
50.028 -75.569 3.755 991.04
50.028 -74.169 3.750 1235.20
50.028 -72.769 3.740 382.58
50.028 -71.369 3.747 437.57
50.028 -69.969 3.790 498.44
50.028 -68.569 3.808 389.63
50.028 -67.169 3.772 405.69
50.028 -65.769 3.743 86.68
50.028 -64.369 3.751 132.23
50.028 -62.969 3.809 163.84
50.028 -61.569 3.891 525.50
50.028 -60.169 3.984 151.86
50.927 -139.320 4.099 903.14
50.927 -137.893 4.064 714.31
50.927 -136.466 3.873 350.64
50.927 -135.040 3.829 2.00
50.927 -133.613 3.893 734.24
50.927 -132.186 3.865 587.37
50.927 -130.759 3.704 1989.15
50.927 -129.332 3.634 20263.17
50.927 -127.905 3.651 27007.87
50.927 -126.478 3.580 18382.62
50.927 -125.052 3.477 17775.96
50.927 -123.625 3.508 13351.96
50.927 -122.198 3.473 11555.12
50.927 -120.771 3.464 10097.30
50.927 -119.344 3.474 9883.79
50.927 -117.917 3.493 9690.23
50.927 -116.490 3.566 7208.02
50.927 -115.064 3.728 6914.55
50.927 -113.637 3.742 6271.65
50.927 -112.210 3.708 7203.81
50.927 -110.783 3.677 6068.91
50.927 -109.356 3.580 6615.12
50.927 -107.929 3.522 8388.44
50.927 -106.502 3.530 9456.39
50.927 -105.076 3.537 10869.72
50.927 -103.649 3.614 13215.18
50.927 -102.222 3.694 11983.76
50.927 -100.795 3.732 7842.93
50.927 -99.368 3.862 5390.41
50.927 -97.941 4.002 4102.97
50.927 -96.514 3.983 3564.31
50.927 -95.088 3.911 2584.33
50.927 -93.661 3.864 2162.67
50.927 -92.234 3.753 2699.17
50.927 -90.807 3.675 3441.49
50.927 -89.380 3.812 2369.83
50.927 -87.953 3.944 1675.33
50.927 -86.526 3.940 1944.96
50.927 -85.100 3.858 2072.90
50.927 -83.673 3.788 1544.45
50.927 -82.246 3.740 2098.81
50.927 -80.819 3.735 2048.66
50.927 -79.392 3.749 823.17
50.927 -77.965 3.780 972.31
50.927 -76.538 3.805 742.66
50.927 -75.112 3.815 831.16
50.927 -73.685 3.821 1032.86
50.927 -72.258 3.821 349.65
50.927 -70.831 3.808 544.85
50.927 -69.404 3.793 338.56
50.927 -67.977 3.789 364.82
50.927 -66.550 3.789 200.19
50.927 -65.124 3.823 259.76
50.927 -63.697 3.887 306.71
50.927 -62.270 3.930 479.53
50.927 -60.843 3.923 311.71
50.927 -59.416 3.960 651.39
51.827 -140.113 4.030 957.11
51.827 -138.658 3.991 218.79
51.827 -137.203 3.835 21.97
51.827 -135.747 3.827 155.82
51.827 -134.292 3.873 959.02
51.827 -132.837 3.792 489.50
51.827 -131.382 3.630 29921.22
51.827 -129.927 3.702 42689.78
51.827 -128.472 3.710 21663.70
51.827 -127.016 3.605 16505.60
51.827 -125.561 3.589 13550.18
51.827 -124.106 3.673 11667.74
51.827 -122.651 3.674 9823.34
51.827 -121.196 3.661 7532.24
51.827 -119.741 3.618 6866.88
51.827 -118.285 3.567 6345.63
51.827 -116.830 3.584 5410.18
51.827 -115.375 3.695 5213.95
51.827 -113.920 3.782 5118.95
51.827 -112.465 3.799 6427.64
51.827 -111.010 3.714 7047.26
51.827 -109.554 3.656 7205.53
51.827 -108.099 3.595 8031.86
51.827 -106.644 3.555 11220.41
51.827 -105.189 3.597 11895.60
51.827 -103.734 3.697 11401.27
51.827 -102.279 3.778 12760.93
51.827 -100.823 3.784 7416.37
51.827 -99.368 3.903 4646.15
51.827 -97.913 3.959 3952.96
51.827 -96.458 3.912 2246.73
51.827 -95.003 3.871 2785.15
51.827 -93.548 3.846 2575.32
51.827 -92.092 3.784 2202.74
51.827 -90.637 3.750 2699.51
51.827 -89.182 3.897 2269.55
51.827 -87.727 3.996 2041.83
51.827 -86.272 3.952 2049.87
51.827 -84.817 3.809 1796.26
51.827 -83.361 3.728 1826.21
51.827 -81.906 3.690 1722.81
51.827 -80.451 3.735 1351.57
51.827 -78.996 3.849 1294.70
51.827 -77.541 3.925 1099.57
51.827 -76.085 3.946 1013.47
51.827 -74.630 3.951 872.91
51.827 -73.175 3.938 1065.84
51.827 -71.720 3.894 619.79
51.827 -70.265 3.847 548.61
51.827 -68.810 3.822 289.75
51.827 -67.354 3.829 200.79
51.827 -65.899 3.863 194.82
51.827 -64.444 3.915 637.41
51.827 -62.989 3.934 673.35
51.827 -61.534 3.911 509.52
51.827 -60.079 3.894 615.43
51.827 -58.623 3.920 290.73
52.726 -140.948 3.992 402.63
52.726 -139.463 3.945 91.89
52.726 -137.978 3.836 135.84
52.726 -136.493 3.856 702.30
52.726 -135.008 3.864 733.29
52.726 -133.523 3.786 466.53
52.726 -132.038 3.709 4627.91
52.726 -130.553 3.760 10563.54
52.726 -129.068 3.713 8617.45
52.726 -127.583 3.623 8357.26
52.726 -126.098 3.639 8007.61
52.726 -124.613 3.690 7943.88
52.726 -123.128 3.673 6245.46
52.726 -121.643 3.636 6108.37
52.726 -120.158 3.612 5793.80
52.726 -118.673 3.586 6012.03
52.726 -117.188 3.628 5622.88
52.726 -115.703 3.711 5047.97
52.726 -114.218 3.884 4317.78
52.726 -112.733 3.907 7345.99
52.726 -111.248 3.880 7836.12
52.726 -109.763 3.824 7055.71
52.726 -108.278 3.738 8980.69
52.726 -106.793 3.630 12161.36
52.726 -105.308 3.648 11338.16
52.726 -103.823 3.724 11774.87
52.726 -102.338 3.775 11127.52
52.726 -100.853 3.811 8735.05
52.726 -99.368 3.850 4551.31
52.726 -97.883 3.835 2492.48
52.726 -96.398 3.815 1960.94
52.726 -94.913 3.803 2634.29
52.726 -93.428 3.809 2003.09
52.726 -91.943 3.807 2071.84
52.726 -90.458 3.752 2384.92
52.726 -88.973 3.852 1999.25
52.726 -87.488 3.917 1824.77
52.726 -86.003 3.903 2067.59
52.726 -84.518 3.752 1687.43
52.726 -83.033 3.683 1207.98
52.726 -81.548 3.689 997.24
52.726 -80.063 3.784 1630.99
52.726 -78.578 3.909 1841.22
52.726 -77.093 3.974 1282.15
52.726 -75.608 3.975 1042.97
52.726 -74.123 3.950 1177.74
52.726 -72.638 3.929 808.23
52.726 -71.153 3.925 1037.98
52.726 -69.668 3.925 507.51
52.726 -68.183 3.911 563.48
52.726 -66.698 3.920 534.49
52.726 -65.213 3.940 826.23
52.726 -63.728 3.935 533.50
52.726 -62.243 3.913 463.55
52.726 -60.758 3.887 396.63
52.726 -59.273 3.880 5.00
52.726 -57.788 3.915 263.76
53.625 -141.829 3.947 586.42
53.625 -140.313 3.919 174.83
53.625 -138.796 3.847 382.65
53.625 -137.280 3.831 780.21
53.625 -135.763 3.801 184.80
53.625 -134.247 3.803 357.63
53.625 -132.730 3.904 1160.51
53.625 -131.214 3.945 2782.00
53.625 -129.697 3.812 3094.25
53.625 -128.181 3.715 3732.14
53.625 -126.665 3.737 4041.75
53.625 -125.148 3.728 5095.10
53.625 -123.632 3.650 3210.77
53.625 -122.115 3.592 4129.23
53.625 -120.599 3.572 4669.20
53.625 -119.082 3.600 4492.63
53.625 -117.566 3.671 5271.23
53.625 -116.049 3.771 4466.44
53.625 -114.533 3.931 5272.72
53.625 -113.016 3.933 6431.05
53.625 -111.500 3.924 7800.16
53.625 -109.983 3.890 9142.65
53.625 -108.467 3.793 10469.06
53.625 -106.951 3.655 12426.05
53.625 -105.434 3.635 11538.12
53.625 -103.918 3.707 8709.06
53.625 -102.401 3.750 8728.04
53.625 -100.885 3.753 9773.97
53.625 -99.368 3.715 4033.75
53.625 -97.852 3.727 2525.30
53.625 -96.335 3.766 2227.62
53.625 -94.819 3.793 1811.13
53.625 -93.302 3.827 1622.33
53.625 -91.786 3.793 1885.07
53.625 -90.269 3.703 1842.12
53.625 -88.753 3.781 2011.08
53.625 -87.237 3.810 1996.06
53.625 -85.720 3.797 1844.09
53.625 -84.204 3.663 922.07
53.625 -82.687 3.641 811.01
53.625 -81.171 3.694 1138.75
53.625 -79.654 3.792 1708.22
53.625 -78.138 3.836 1201.49
53.625 -76.621 3.843 1201.69
53.625 -75.105 3.833 1276.76
53.625 -73.588 3.858 1658.76
53.625 -72.072 3.910 963.05
53.625 -70.555 3.979 832.17
53.625 -69.039 4.031 720.28
53.625 -67.523 4.033 942.10
53.625 -66.006 3.984 681.37
53.625 -64.490 3.923 441.59
53.625 -62.973 3.889 326.67
53.625 -61.457 3.866 236.78
53.625 -59.940 3.856 110.90
53.625 -58.424 3.870 333.68
53.625 -56.907 3.872 265.72
54.525 -142.759 3.886 258.74
54.525 -141.209 3.869 317.70
54.525 -139.660 3.804 452.53
54.525 -138.110 3.752 317.70
54.525 -136.560 3.723 217.74
54.525 -135.011 3.798 382.66
54.525 -133.461 4.036 998.62
54.525 -131.911 4.005 2617.51
54.525 -130.362 3.908 2887.32
54.525 -128.812 3.780 3450.63
54.525 -127.262 3.783 3542.87
54.525 -125.713 3.771 4104.61
54.525 -124.163 3.667 3102.80
54.525 -122.613 3.615 3487.70
54.525 -121.064 3.642 3302.77
54.525 -119.514 3.697 3600.18
54.525 -117.964 3.776 4317.59
54.525 -116.415 3.802 4318.59
54.525 -114.865 3.889 5423.71
54.525 -113.315 3.848 6059.90
54.525 -111.766 3.815 8405.52
54.525 -110.216 3.808 10357.28
54.525 -108.666 3.757 11788.58
54.525 -107.117 3.667 12522.05
54.525 -105.567 3.642 9202.47
54.525 -104.017 3.721 6005.76
54.525 -102.468 3.748 7686.00
54.525 -100.918 3.722 7631.11
54.525 -99.368 3.661 5181.71
54.525 -97.819 3.684 3173.57
54.525 -96.269 3.765 1744.13
54.525 -94.719 3.820 1825.18
54.525 -93.170 3.802 1709.25
54.525 -91.620 3.758 1321.62
54.525 -90.070 3.674 2646.27
54.525 -88.520 3.735 1867.13
54.525 -86.971 3.748 1952.03
54.525 -85.421 3.740 941.79
54.525 -83.871 3.639 660.32
54.525 -82.322 3.645 729.17
54.525 -80.772 3.692 1208.69
54.525 -79.222 3.736 1586.21
54.525 -77.673 3.739 801.16
54.525 -76.123 3.739 937.07
54.525 -74.573 3.752 1093.89
54.525 -73.024 3.785 1180.77
54.525 -71.474 3.825 875.11
54.525 -69.924 3.890 812.00
54.525 -68.375 3.948 1479.39
54.525 -66.825 3.922 902.65
54.525 -65.275 3.867 250.77
54.525 -63.726 3.816 229.77
54.525 -62.176 3.782 121.87
54.525 -60.626 3.802 124.86
54.525 -59.077 3.850 319.67
54.525 -57.527 3.850 182.80
54.525 -55.977 3.828 112.89
55.424 -143.742 3.813 495.54
55.424 -142.157 3.783 39.96
55.424 -140.572 3.733 564.41
55.424 -138.988 3.712 226.78
55.424 -137.403 3.728 147.83
55.424 -135.818 3.830 641.42
55.424 -134.233 4.017 855.15
55.424 -132.648 3.944 3061.56
55.424 -131.064 3.839 2546.25
55.424 -129.479 3.733 3147.30
55.424 -127.894 3.713 2937.18
55.424 -126.309 3.701 3789.56
55.424 -124.725 3.613 3763.04
55.424 -123.140 3.586 3194.37
55.424 -121.555 3.677 3747.32
55.424 -119.970 3.750 4192.85
55.424 -118.385 3.793 5236.70
55.424 -116.801 3.760 4934.58
55.424 -115.216 3.776 5702.76
55.424 -113.631 3.776 6390.50
55.424 -112.046 3.777 9077.84
55.424 -110.462 3.764 11683.86
55.424 -108.877 3.759 12738.67
55.424 -107.292 3.722 10163.50
55.424 -105.707 3.730 8136.57
55.424 -104.123 3.787 5241.69
55.424 -102.538 3.775 4695.21
55.424 -100.953 3.706 5723.13
55.424 -99.368 3.636 8946.78
55.424 -97.783 3.647 2560.19
55.424 -96.199 3.742 2113.88
55.424 -94.614 3.775 1320.68
55.424 -93.029 3.766 1607.35
55.424 -91.444 3.739 1550.47
55.424 -89.860 3.665 3027.90
55.424 -88.275 3.718 985.95
55.424 -86.690 3.747 1529.49
55.424 -85.105 3.741 947.01
55.424 -83.520 3.659 1034.28
55.424 -81.936 3.667 775.63
55.424 -80.351 3.693 1674.63
55.424 -78.766 3.699 1056.58
55.424 -77.181 3.683 999.54
55.424 -75.597 3.685 613.39
55.424 -74.012 3.719 1027.88
55.424 -72.427 3.733 522.47
55.424 -70.842 3.738 797.13
55.424 -69.257 3.762 862.12
55.424 -67.673 3.786 1118.89
55.424 -66.088 3.753 496.53
55.424 -64.503 3.716 405.39
55.424 -62.918 3.687 224.74
55.424 -61.334 3.697 142.44
55.424 -59.749 3.768 187.82
55.424 -58.164 3.826 77.93
55.424 -56.579 3.822 348.67
55.424 -54.995 3.777 293.73
56.324 -144.782 3.735 49.95
56.324 -143.160 3.716 453.52
56.324 -141.538 3.696 169.82
56.324 -139.916 3.726 255.75
56.324 -138.294 3.795 287.70
56.324 -136.672 3.866 866.16
56.324 -135.050 3.926 1038.97
56.324 -133.428 3.858 2452.72
56.324 -131.806 3.751 2714.79
56.324 -130.184 3.676 2798.45
56.324 -128.563 3.677 2434.66
56.324 -126.941 3.668 3050.77
56.324 -125.319 3.583 4575.54
56.324 -123.697 3.597 3706.14
56.324 -122.075 3.669 3836.30
56.324 -120.453 3.728 3922.45
56.324 -118.831 3.675 4613.34
56.324 -117.209 3.673 4316.69
56.324 -115.587 3.713 6268.95
56.324 -113.965 3.796 8266.49
56.324 -112.343 3.819 11682.99
56.324 -110.722 3.764 14077.28
56.324 -109.100 3.793 10938.74
56.324 -107.478 3.829 8793.86
56.324 -105.856 3.853 5354.61
56.324 -104.234 3.833 6081.73
56.324 -102.612 3.792 3854.02
56.324 -100.990 3.679 5788.01
56.324 -99.368 3.623 7140.64
56.324 -97.746 3.610 5194.75
56.324 -96.124 3.683 1626.33
56.324 -94.502 3.736 1391.54
56.324 -92.881 3.750 2547.47
56.324 -91.259 3.727 1570.41
56.324 -89.637 3.662 1939.97
56.324 -88.015 3.724 944.06
56.324 -86.393 3.778 1294.69
56.324 -84.771 3.769 639.29
56.324 -83.149 3.685 579.24
56.324 -81.527 3.697 1151.80
56.324 -79.905 3.693 1604.25
56.324 -78.283 3.679 907.11
56.324 -76.661 3.675 804.71
56.324 -75.040 3.694 777.37
56.324 -73.418 3.722 1095.78
56.324 -71.796 3.716 595.37
56.324 -70.174 3.714 707.25
56.324 -68.552 3.724 581.43
56.324 -66.930 3.714 727.29
56.324 -65.308 3.661 513.53
56.324 -63.686 3.618 369.64
56.324 -62.064 3.601 118.90
56.324 -60.442 3.617 66.94
56.324 -58.820 3.679 0.00
56.324 -57.199 3.742 371.88
56.324 -55.577 3.724 61.94
56.324 -53.955 3.698 0.00
57.223 -145.883 3.703 144.85
57.223 -144.222 3.695 501.47
57.223 -142.561 3.708 0.00
57.223 -140.899 3.767 363.65
57.223 -139.238 3.840 562.42
57.223 -137.577 3.866 943.06
57.223 -135.916 3.844 1296.61
57.223 -134.254 3.825 2225.46
57.223 -132.593 3.737 2101.40
57.223 -130.932 3.680 2384.26
57.223 -129.271 3.661 2844.46
57.223 -127.609 3.676 2956.26
57.223 -125.948 3.611 5174.93
57.223 -124.287 3.626 4136.85
57.223 -122.626 3.659 3587.93
57.223 -120.964 3.683 3204.83
57.223 -119.303 3.643 4433.60
57.223 -117.642 3.721 4719.03
57.223 -115.981 3.797 7394.28
57.223 -114.319 3.912 11344.66
57.223 -112.658 3.891 15245.46
57.223 -110.997 3.801 13513.49
57.223 -109.336 3.813 9190.47
57.223 -107.674 3.913 6610.33
57.223 -106.013 3.926 5179.57
57.223 -104.352 3.801 5513.25
57.223 -102.691 3.721 4538.23
57.223 -101.029 3.639 4030.84
57.223 -99.368 3.630 4987.95
57.223 -97.707 3.606 7303.58
57.223 -96.046 3.662 3103.83
57.223 -94.384 3.729 1954.02
57.223 -92.723 3.762 2362.62
57.223 -91.062 3.755 1094.88
57.223 -89.401 3.686 1911.00
57.223 -87.739 3.711 654.30
57.223 -86.078 3.774 1097.90
57.223 -84.417 3.772 977.36
57.223 -82.756 3.722 915.58
57.223 -81.094 3.721 1279.63
57.223 -79.433 3.691 1238.56
57.223 -77.772 3.668 893.05
57.223 -76.111 3.679 849.12
57.223 -74.449 3.706 779.21
57.223 -72.788 3.706 787.18
57.223 -71.127 3.698 551.45
57.223 -69.466 3.697 80.94
57.223 -67.805 3.701 383.63
57.223 -66.143 3.682 311.70
57.223 -64.482 3.641 292.72
57.223 -62.821 3.604 313.71
57.223 -61.160 3.577 305.72
57.223 -59.498 3.568 271.75
57.223 -57.837 3.592 100.92
57.223 -56.176 3.623 77.76
57.223 -54.515 3.628 353.08
57.223 -52.853 3.647 25.98
58.122 -147.051 3.718 590.38
58.122 -145.348 3.726 84.91
58.122 -143.645 3.756 107.90
58.122 -141.942 3.798 645.35
58.122 -140.239 3.822 526.50
58.122 -138.537 3.851 1142.81
58.122 -136.834 3.818 1002.98
58.122 -135.131 3.855 2385.19
58.122 -133.428 3.831 2642.14
58.122 -131.725 3.747 2656.50
58.122 -130.022 3.707 4051.56
58.122 -128.319 3.732 2722.77
58.122 -126.616 3.676 4733.95
58.122 -124.913 3.686 4443.04
58.122 -123.210 3.691 3260.41
58.122 -121.507 3.685 4522.52
58.122 -119.804 3.712 3840.67
58.122 -118.101 3.823 5881.73
58.122 -116.398 3.912 9815.94
58.122 -114.695 3.980 16558.88
58.122 -112.992 3.893 15452.90
58.122 -111.289 3.803 11033.98
58.122 -109.586 3.798 5866.03
58.122 -107.883 3.882 5553.07
58.122 -106.180 3.874 5059.70
58.122 -104.477 3.754 4478.30
58.122 -102.774 3.645 4861.93
58.122 -101.071 3.633 3932.03
58.122 -99.368 3.631 4754.01
58.122 -97.665 3.646 6964.89
58.122 -95.962 3.664 5012.90
58.122 -94.259 3.742 2790.21
58.122 -92.556 3.828 1964.03
58.122 -90.853 3.833 1538.33
58.122 -89.150 3.706 1808.04
58.122 -87.447 3.675 872.06
58.122 -85.744 3.752 1480.49
58.122 -84.041 3.762 850.94
58.122 -82.339 3.732 839.81
58.122 -80.636 3.704 690.50
58.122 -78.933 3.677 1203.11
58.122 -77.230 3.666 749.23
58.122 -75.527 3.683 1134.85
58.122 -73.824 3.695 1111.82
58.122 -72.121 3.677 302.74
58.122 -70.418 3.664 231.75
58.122 -68.715 3.661 138.85
58.122 -67.012 3.662 329.69
58.122 -65.309 3.650 144.86
58.122 -63.606 3.637 176.82
58.122 -61.903 3.629 115.88
58.122 -60.200 3.611 238.79
58.122 -58.497 3.588 205.83
58.122 -56.794 3.574 284.73
58.122 -55.091 3.571 239.78
58.122 -53.388 3.574 130.89
58.122 -51.685 3.620 399.69
59.022 -148.292 3.726 836.15
59.022 -146.545 3.752 86.37
59.022 -144.798 3.788 615.39
59.022 -143.050 3.789 321.66
59.022 -141.303 3.797 948.03
59.022 -139.556 3.821 877.10
59.022 -137.808 3.797 1335.88
59.022 -136.061 3.890 3843.53
59.022 -134.314 3.888 5191.64
59.022 -132.567 3.849 2794.24
59.022 -130.819 3.792 2967.19
59.022 -129.072 3.769 2289.93
59.022 -127.325 3.697 4681.91
59.022 -125.577 3.721 5309.80
59.022 -123.830 3.743 3740.84
59.022 -122.083 3.684 4118.68
59.022 -120.336 3.740 3468.88
59.022 -118.588 3.841 8185.33
59.022 -116.841 3.885 16040.41
59.022 -115.094 3.817 18642.71
59.022 -113.346 3.816 12825.64
59.022 -111.599 3.810 7168.75
59.022 -109.852 3.790 5125.89
59.022 -108.105 3.773 4555.31
59.022 -106.357 3.776 3817.00
59.022 -104.610 3.738 3726.12
59.022 -102.863 3.644 4873.08
59.022 -101.115 3.664 3959.13
59.022 -99.368 3.675 5245.57
59.022 -97.621 3.676 4472.36
59.022 -95.874 3.679 6266.90
59.022 -94.126 3.787 2438.91
59.022 -92.379 3.878 1030.95
59.022 -90.632 3.860 1806.07
59.022 -88.884 3.736 1252.71
59.022 -87.137 3.691 1115.90
59.022 -85.390 3.772 1493.46
59.022 -83.643 3.764 701.16
59.022 -81.895 3.691 574.24
59.022 -80.148 3.637 759.25
59.022 -78.401 3.644 1233.74
59.022 -76.654 3.667 889.07
59.022 -74.906 3.682 898.10
59.022 -73.159 3.682 828.15
59.022 -71.412 3.654 323.67
59.022 -69.664 3.645 65.93
59.022 -67.917 3.647 369.64
59.022 -66.170 3.638 214.79
59.022 -64.423 3.631 104.89
59.022 -62.675 3.629 11.99
59.022 -60.928 3.634 51.95
59.022 -59.181 3.636 88.91
59.022 -57.433 3.628 148.85
59.022 -55.686 3.605 235.81
59.022 -53.939 3.586 162.87
59.022 -52.192 3.578 224.79
59.022 -50.444 3.606 236.78
59.921 -149.612 3.670 1238.62
59.921 -147.818 3.695 310.70
59.921 -146.023 3.726 508.47
59.921 -144.229 3.750 590.35
59.921 -142.434 3.778 1026.00
59.921 -140.640 3.769 508.67
59.921 -138.845 3.739 1635.50
59.921 -137.051 3.836 1778.61
59.921 -135.257 3.864 3169.47
59.921 -133.462 3.861 2901.26
59.921 -131.668 3.793 2476.13
59.921 -129.873 3.739 2602.79
59.921 -128.079 3.654 3530.55
59.921 -126.284 3.726 5827.18
