40.135 -81.723 3.363 42307.70
40.135 -80.546 3.323 34110.10
40.135 -79.370 3.305 31102.98
40.135 -78.194 3.353 21966.46
40.135 -77.017 3.398 18591.75
40.135 -75.841 3.524 7500.57
40.135 -74.665 3.576 4482.64
40.135 -73.488 3.581 55.81
40.135 -72.312 3.515 100.91
40.135 -71.136 3.427 0.00
40.135 -69.959 3.408 0.00
40.135 -68.783 3.416 0.00
40.135 -67.607 3.418 0.00
40.135 -66.430 3.415 0.00
41.034 -132.752 3.411 0.00
41.034 -131.560 3.419 0.00
41.034 -130.368 3.475 0.00
41.034 -129.175 3.514 75.93
41.034 -127.983 3.526 79.93
41.034 -126.791 3.588 0.00
41.034 -125.598 3.632 179.79
41.034 -124.406 3.300 60006.78
41.034 -123.214 3.058 46383.31
41.034 -122.022 3.042 42952.99
41.034 -120.829 3.194 39429.24
41.034 -119.637 3.226 58274.74
41.034 -118.445 3.394 60531.40
41.034 -117.252 3.480 53544.72
41.034 -116.060 3.538 51823.52
41.034 -114.868 3.663 93268.32
41.034 -113.676 3.692 70362.46
41.034 -112.483 3.410 66812.78
41.034 -111.291 3.151 63118.53
41.034 -110.099 3.077 74080.77
41.034 -108.906 3.047 58751.34
41.034 -107.714 3.035 53330.17
41.034 -106.522 3.225 41938.90
41.034 -105.330 3.332 39634.48
41.034 -104.137 3.325 34839.41
41.034 -102.945 3.268 29064.07
41.034 -101.753 3.249 31136.99
41.034 -100.560 3.310 32044.86
41.034 -99.368 3.294 34447.33
41.034 -98.176 3.302 41669.70
41.034 -96.984 3.282 49264.28
41.034 -95.791 3.298 56328.32
41.034 -94.599 3.364 55624.06
41.034 -93.407 3.399 57294.88
41.034 -92.215 3.401 54604.36
41.034 -91.022 3.403 40795.75
41.034 -89.830 3.336 33223.12
41.034 -88.638 3.322 30714.61
41.034 -87.445 3.438 34848.87
41.034 -86.253 3.433 31712.93
41.034 -85.061 3.421 41934.32
41.034 -83.869 3.367 36833.27
41.034 -82.676 3.383 36147.38
41.034 -81.484 3.375 32235.85
41.034 -80.292 3.334 32888.59
41.034 -79.099 3.279 28677.51
41.034 -77.907 3.279 27002.10
41.034 -76.715 3.363 22708.02
41.034 -75.523 3.550 18983.81
41.034 -74.330 3.649 11677.21
41.034 -73.138 3.709 2771.14
41.034 -71.946 3.624 553.93
41.034 -70.753 3.465 236.34
41.034 -69.561 3.403 0.00
41.034 -68.369 3.409 0.00
41.034 -67.177 3.415 0.00
41.034 -65.984 3.418 0.00
41.934 -133.219 3.440 0.00
41.934 -132.010 3.453 0.00
41.934 -130.801 3.512 53.95
41.934 -129.592 3.536 104.90
41.934 -128.383 3.571 0.00
41.934 -127.174 3.784 15.85
41.934 -125.965 4.063 1873.79
41.934 -124.756 3.746 15656.71
41.934 -123.547 3.234 27484.49
41.934 -122.338 3.127 29912.69
41.934 -121.129 3.281 31156.15
41.934 -119.920 3.311 42282.39
41.934 -118.711 3.471 44933.62
41.934 -117.502 3.411 49889.25
41.934 -116.293 3.438 59625.55
41.934 -115.085 3.517 71141.07
41.934 -113.876 3.628 58820.85
41.934 -112.667 3.691 64200.80
41.934 -111.458 3.395 77824.44
41.934 -110.249 3.245 72194.39
41.934 -109.040 3.135 59917.55
41.934 -107.831 3.053 48648.27
41.934 -106.622 3.109 42122.28
41.934 -105.413 3.261 37572.74
41.934 -104.204 3.340 29773.48
41.934 -102.995 3.303 28043.15
41.934 -101.786 3.283 29454.69
41.934 -100.577 3.294 34274.82
41.934 -99.368 3.344 40400.59
41.934 -98.159 3.372 42664.13
41.934 -96.950 3.389 50385.60
41.934 -95.741 3.398 55737.69
41.934 -94.532 3.395 57688.79
41.934 -93.323 3.386 53907.37
41.934 -92.115 3.406 43238.04
41.934 -90.906 3.453 42536.95
41.934 -89.697 3.511 28961.43
41.934 -88.488 3.491 29021.43
41.934 -87.279 3.543 29105.69
41.934 -86.070 3.503 33518.85
41.934 -84.861 3.488 35910.11
41.934 -83.652 3.438 30933.30
41.934 -82.443 3.415 25734.49
41.934 -81.234 3.385 29044.53
41.934 -80.025 3.339 30012.69
41.934 -78.816 3.226 29476.76
41.934 -77.607 3.273 25042.97
41.934 -76.398 3.387 23066.47
41.934 -75.189 3.545 18546.65
41.934 -73.980 3.660 13574.42
41.934 -72.771 3.775 6570.48
41.934 -71.562 3.701 2215.32
41.934 -70.353 3.522 652.00
41.934 -69.145 3.416 0.00
41.934 -67.936 3.398 0.00
41.934 -66.727 3.404 0.00
41.934 -65.518 3.429 0.00
42.833 -133.707 3.496 0.00
42.833 -132.481 3.513 35.97
42.833 -131.254 3.529 126.88
42.833 -130.028 3.504 0.00
42.833 -128.802 3.564 0.00
42.833 -127.575 3.787 114.37
42.833 -126.349 3.895 10786.19
42.833 -125.122 3.503 12849.14
42.833 -123.896 3.288 11237.32
42.833 -122.670 3.287 23121.26
42.833 -121.443 3.352 25832.69
42.833 -120.217 3.296 29715.11
42.833 -118.990 3.401 37581.75
42.833 -117.764 3.460 45106.29
42.833 -116.538 3.456 56015.28
42.833 -115.311 3.332 53786.49
42.833 -114.085 3.323 53960.61
42.833 -112.858 3.384 55337.01
42.833 -111.632 3.366 58379.66
42.833 -110.406 3.202 61271.68
42.833 -109.179 3.157 57620.30
42.833 -107.953 3.165 47052.52
42.833 -106.727 3.138 42577.20
42.833 -105.500 3.224 39734.40
42.833 -104.274 3.299 36798.52
42.833 -103.047 3.349 33183.51
42.833 -101.821 3.427 33683.30
42.833 -100.595 3.401 33550.31
42.833 -99.368 3.424 35079.59
42.833 -98.142 3.408 46592.64
42.833 -96.915 3.345 50380.59
42.833 -95.689 3.361 50554.73
42.833 -94.463 3.372 50041.43
42.833 -93.236 3.454 42370.98
42.833 -92.010 3.477 34893.13
42.833 -90.783 3.462 45362.37
42.833 -89.557 3.514 26823.78
42.833 -88.331 3.542 26462.40
42.833 -87.104 3.640 26811.29
42.833 -85.878 3.571 25919.08
42.833 -84.652 3.549 29118.75
42.833 -83.425 3.504 25373.23
42.833 -82.199 3.473 25769.60
42.833 -80.972 3.458 27605.67
42.833 -79.746 3.346 27309.49
42.833 -78.520 3.226 29543.14
42.833 -77.293 3.320 25361.40
42.833 -76.067 3.434 19753.94
42.833 -74.840 3.581 18568.81
42.833 -73.614 3.607 21736.40
42.833 -72.388 3.735 19948.59
42.833 -71.161 3.692 4006.08
42.833 -69.935 3.549 316.77
42.833 -68.708 3.453 0.00
42.833 -67.482 3.409 0.00
42.833 -66.256 3.400 0.00
42.833 -65.029 3.446 0.00
43.732 -134.219 3.558 22.98
43.732 -132.974 3.563 143.87
43.732 -131.729 3.500 0.00
43.732 -130.485 3.498 0.00
43.732 -129.240 3.568 87.16
43.732 -127.995 3.516 206.13
43.732 -126.751 3.213 40845.62
43.732 -125.506 2.993 22703.96
43.732 -124.261 3.015 17597.21
43.732 -123.017 3.183 22911.79
43.732 -121.772 3.223 25960.63
43.732 -120.527 3.233 30733.01
43.732 -119.283 3.319 34214.18
43.732 -118.038 3.424 38729.61
43.732 -116.793 3.473 45499.32
43.732 -115.549 3.398 43514.16
43.732 -114.304 3.366 46299.88
43.732 -113.059 3.287 40727.38
43.732 -111.815 3.243 42394.68
43.732 -110.570 3.134 50124.58
43.732 -109.325 3.198 43490.11
43.732 -108.081 3.253 41810.38
43.732 -106.836 3.176 40132.96
43.732 -105.591 3.345 35061.22
43.732 -104.347 3.402 34912.21
43.732 -103.102 3.406 30851.93
43.732 -101.858 3.396 31371.60
43.732 -100.613 3.325 34975.91
43.732 -99.368 3.368 42147.00
43.732 -98.124 3.512 45152.53
43.732 -96.879 3.487 54202.68
43.732 -95.634 3.428 52033.79
43.732 -94.390 3.424 42312.99
43.732 -93.145 3.422 41939.34
43.732 -91.900 3.480 34393.50
43.732 -90.656 3.475 40670.43
43.732 -89.411 3.508 29909.01
43.732 -88.166 3.573 26738.96
43.732 -86.922 3.622 25725.05
43.732 -85.677 3.526 28080.10
43.732 -84.432 3.515 22388.65
43.732 -83.188 3.520 21085.91
43.732 -81.943 3.532 19720.63
43.732 -80.698 3.474 23634.95
43.732 -79.454 3.381 24792.07
43.732 -78.209 3.296 25304.36
43.732 -76.964 3.432 25598.72
43.732 -75.720 3.514 19518.26
43.732 -74.475 3.589 19966.26
43.732 -73.230 3.601 14518.01
43.732 -71.986 3.691 14035.93
43.732 -70.741 3.675 15696.05
43.732 -69.496 3.572 2300.44
43.732 -68.252 3.500 187.84
43.732 -67.007 3.451 115.89
43.732 -65.763 3.437 0.00
43.732 -64.518 3.480 0.00
44.632 -134.754 3.591 171.84
44.632 -133.490 3.558 0.00
44.632 -132.227 3.512 0.00
44.632 -130.963 3.583 62.73
44.632 -129.699 3.659 156.20
44.632 -128.435 3.474 316.10
44.632 -127.172 3.050 2594.94
44.632 -125.908 2.883 10683.28
44.632 -124.644 2.970 14054.78
44.632 -123.380 3.218 22853.34
44.632 -122.116 3.265 24110.28
44.632 -120.853 3.329 25355.55
44.632 -119.589 3.453 27784.00
44.632 -118.325 3.407 38631.44
44.632 -117.061 3.427 40584.32
44.632 -115.797 3.421 36548.06
44.632 -114.534 3.402 37133.97
44.632 -113.270 3.375 40301.21
44.632 -112.006 3.309 36665.01
44.632 -110.742 3.255 40300.48
44.632 -109.479 3.414 34120.02
44.632 -108.215 3.469 28751.42
44.632 -106.951 3.432 30463.98
44.632 -105.687 3.451 28399.21
44.632 -104.423 3.520 27052.74
44.632 -103.160 3.442 28478.98
44.632 -101.896 3.376 27897.46
44.632 -100.632 3.373 27425.30
44.632 -99.368 3.411 31974.15
44.632 -98.104 3.527 37706.41
44.632 -96.841 3.547 45939.40
44.632 -95.577 3.481 41536.78
44.632 -94.313 3.329 41331.35
44.632 -93.049 3.270 35154.61
44.632 -91.785 3.359 34806.55
44.632 -90.522 3.431 32357.20
44.632 -89.258 3.456 33009.20
44.632 -87.994 3.478 24532.48
44.632 -86.730 3.499 22274.21
44.632 -85.467 3.457 21229.47
44.632 -84.203 3.484 19324.35
44.632 -82.939 3.549 15828.77
44.632 -81.675 3.550 16146.56
44.632 -80.411 3.502 16797.64
44.632 -79.148 3.414 21622.73
44.632 -77.884 3.351 30041.20
44.632 -76.620 3.422 26629.66
44.632 -75.356 3.561 24167.47
44.632 -74.092 3.574 18153.16
44.632 -72.829 3.553 11660.06
44.632 -71.565 3.588 8457.26
44.632 -70.301 3.617 6149.03
44.632 -69.037 3.570 4935.13
44.632 -67.773 3.542 4282.10
44.632 -66.510 3.515 127.88
44.632 -65.246 3.520 228.79
44.632 -63.982 3.547 197.98
45.531 -135.316 3.584 161.85
45.531 -134.032 3.550 0.00
45.531 -132.748 3.548 42.34
45.531 -131.464 3.660 125.36
45.531 -130.180 3.786 169.30
45.531 -128.897 3.707 338.68
45.531 -127.613 3.462 1168.40
45.531 -126.329 3.475 2418.70
45.531 -125.045 3.438 4464.18
45.531 -123.761 3.331 12192.01
45.531 -122.477 3.199 18140.65
45.531 -121.193 3.288 21658.16
45.531 -119.910 3.510 26058.40
45.531 -118.626 3.444 37288.76
45.531 -117.342 3.360 36039.75
45.531 -116.058 3.407 30949.00
45.531 -114.774 3.383 31011.33
45.531 -113.490 3.421 31966.14
45.531 -112.207 3.468 40838.24
45.531 -110.923 3.366 28078.88
45.531 -109.639 3.476 21629.18
45.531 -108.355 3.519 22061.30
45.531 -107.071 3.447 24384.69
45.531 -105.787 3.366 26067.07
45.531 -104.504 3.474 21498.93
45.531 -103.220 3.446 21801.81
45.531 -101.936 3.369 24679.81
45.531 -100.652 3.395 26931.28
45.531 -99.368 3.463 30430.81
45.531 -98.084 3.530 35375.82
45.531 -96.801 3.583 39192.03
45.531 -95.517 3.448 39440.04
45.531 -94.233 3.280 36201.05
45.531 -92.949 3.231 27961.42
45.531 -91.665 3.280 32359.03
45.531 -90.381 3.409 25279.50
45.531 -89.097 3.452 25551.38
45.531 -87.814 3.458 20684.02
45.531 -86.530 3.482 22719.20
45.531 -85.246 3.482 19216.06
45.531 -83.962 3.589 14485.90
45.531 -82.678 3.602 18485.83
45.531 -81.394 3.630 15426.86
45.531 -80.111 3.660 15536.57
45.531 -78.827 3.543 17225.00
45.531 -77.543 3.407 25143.45
45.531 -76.259 3.292 28729.50
45.531 -74.975 3.443 9937.04
45.531 -73.691 3.550 10454.27
45.531 -72.408 3.486 8102.49
45.531 -71.124 3.474 6658.66
45.531 -69.840 3.509 6152.82
45.531 -68.556 3.495 2361.16
45.531 -67.272 3.522 1207.32
45.531 -65.988 3.573 1025.46
45.531 -64.705 3.602 437.10
45.531 -63.421 3.606 431.78
46.431 -135.904 3.546 354.02
46.431 -134.600 3.539 41.93
46.431 -133.295 3.586 101.90
46.431 -131.990 3.659 152.86
46.431 -130.685 3.770 196.81
46.431 -129.380 3.902 311.69
46.431 -128.075 4.048 1163.41
46.431 -126.770 4.342 2325.59
46.431 -125.466 4.095 3729.36
46.431 -124.161 3.581 6490.39
46.431 -122.856 3.244 13457.79
46.431 -121.551 3.179 21779.54
46.431 -120.246 3.467 28322.23
46.431 -118.941 3.548 32209.94
46.431 -117.636 3.519 25397.15
46.431 -116.331 3.585 22959.94
46.431 -115.027 3.507 25713.05
46.431 -113.722 3.442 28524.08
46.431 -112.417 3.482 24516.45
46.431 -111.112 3.353 16884.28
46.431 -109.807 3.371 17425.06
46.431 -108.502 3.444 19323.86
46.431 -107.197 3.356 19805.50
46.431 -105.893 3.276 24625.28
46.431 -104.588 3.390 17394.29
46.431 -103.283 3.388 17736.21
46.431 -101.978 3.380 19949.80
46.431 -100.673 3.459 19816.50
46.431 -99.368 3.539 21228.92
46.431 -98.063 3.565 24833.53
46.431 -96.758 3.581 31650.68
46.431 -95.454 3.506 32515.32
46.431 -94.149 3.403 28411.83
46.431 -92.844 3.313 23562.06
46.431 -91.539 3.282 18648.30
46.431 -90.234 3.355 15276.71
46.431 -88.929 3.441 12665.05
46.431 -87.624 3.430 10614.91
46.431 -86.320 3.430 13790.75
46.431 -85.015 3.519 13410.06
46.431 -83.710 3.661 11322.49
46.431 -82.405 3.722 9611.12
46.431 -81.100 3.750 10358.18
46.431 -79.795 3.712 11284.50
46.431 -78.490 3.628 9969.94
46.431 -77.185 3.479 9920.49
46.431 -75.881 3.388 9650.43
46.431 -74.576 3.439 7141.98
46.431 -73.271 3.523 10014.30
46.431 -71.966 3.439 7703.87
46.431 -70.661 3.377 5343.33
46.431 -69.356 3.387 3651.29
46.431 -68.051 3.415 2828.65
46.431 -66.747 3.512 496.70
46.431 -65.442 3.601 538.68
46.431 -64.137 3.606 573.40
46.431 -62.832 3.554 223.74
47.330 -136.522 3.536 258.50
47.330 -135.195 3.540 229.46
47.330 -133.868 3.631 144.86
47.330 -132.541 3.710 140.87
47.330 -131.214 3.810 159.85
47.330 -129.887 4.003 302.70
47.330 -128.561 4.335 1496.09
47.330 -127.234 4.636 3134.96
47.330 -125.907 4.326 3229.62
47.330 -124.580 3.780 5674.07
47.330 -123.253 3.408 14189.90
47.330 -121.926 3.306 19238.71
47.330 -120.599 3.608 23188.22
47.330 -119.272 3.734 21299.21
47.330 -117.945 3.704 19077.95
47.330 -116.618 3.620 20568.56
47.330 -115.291 3.481 22159.23
47.330 -113.964 3.444 19302.61
47.330 -112.637 3.426 18199.11
47.330 -111.311 3.346 14530.43
47.330 -109.984 3.331 14198.51
47.330 -108.657 3.312 14129.98
47.330 -107.330 3.243 15790.20
47.330 -106.003 3.134 16471.05
47.330 -104.676 3.211 16874.87
47.330 -103.349 3.338 14972.30
47.330 -102.022 3.396 16950.32
47.330 -100.695 3.483 18773.26
47.330 -99.368 3.579 18096.09
47.330 -98.041 3.592 25160.93
47.330 -96.714 3.550 23900.43
47.330 -95.387 3.498 21546.34
47.330 -94.061 3.481 17708.57
47.330 -92.734 3.388 13574.45
47.330 -91.407 3.380 9398.56
47.330 -90.080 3.451 9519.48
47.330 -88.753 3.527 9093.47
47.330 -87.426 3.490 7560.07
47.330 -86.099 3.468 5912.72
47.330 -84.772 3.579 4841.47
47.330 -83.445 3.673 4728.84
47.330 -82.118 3.707 4899.77
47.330 -80.791 3.711 5847.82
47.330 -79.464 3.694 5887.24
47.330 -78.137 3.710 5618.51
47.330 -76.811 3.639 5805.07
47.330 -75.484 3.594 4889.64
47.330 -74.157 3.547 4651.34
47.330 -72.830 3.564 3804.38
47.330 -71.503 3.486 3700.65
47.330 -70.176 3.405 2938.51
47.330 -68.849 3.418 562.84
47.330 -67.522 3.468 417.03
47.330 -66.195 3.552 476.02
47.330 -64.868 3.581 388.82
47.330 -63.541 3.525 203.80
47.330 -62.214 3.530 275.04
48.229 -137.170 3.659 182.10
48.229 -135.820 3.657 117.58
48.229 -134.470 3.744 249.10
48.229 -133.120 3.828 365.99
48.229 -131.770 3.898 315.70
48.229 -130.420 4.089 857.15
48.229 -129.070 4.340 1760.57
48.229 -127.720 4.449 3247.70
48.229 -126.370 4.142 3103.82
48.229 -125.020 3.817 7494.63
48.229 -123.670 3.530 17439.33
48.229 -122.320 3.449 17867.65
48.229 -120.969 3.626 18291.25
48.229 -119.619 3.814 14395.72
48.229 -118.269 3.696 15588.52
48.229 -116.919 3.510 18388.19
48.229 -115.569 3.288 15816.43
48.229 -114.219 3.333 13938.58
48.229 -112.869 3.405 13713.13
48.229 -111.519 3.459 9206.86
48.229 -110.169 3.462 10632.51
48.229 -108.819 3.344 11024.22
48.229 -107.469 3.213 13494.01
48.229 -106.119 3.109 11098.90
48.229 -104.769 3.130 17912.73
48.229 -103.418 3.380 13554.34
48.229 -102.068 3.467 15304.73
48.229 -100.718 3.481 14818.52
48.229 -99.368 3.525 16855.79
48.229 -98.018 3.516 14272.64
48.229 -96.668 3.483 15345.30
48.229 -95.318 3.512 14211.01
48.229 -93.968 3.564 9226.37
48.229 -92.618 3.515 5434.03
48.229 -91.268 3.488 5180.89
48.229 -89.918 3.598 3878.54
48.229 -88.568 3.629 4526.78
48.229 -87.217 3.548 3651.85
48.229 -85.867 3.464 3309.91
48.229 -84.517 3.558 2779.87
48.229 -83.167 3.641 2658.37
48.229 -81.817 3.642 3302.33
48.229 -80.467 3.658 3306.80
48.229 -79.117 3.684 3560.49
48.229 -77.767 3.742 3686.69
48.229 -76.417 3.735 2938.33
48.229 -75.067 3.654 1714.25
48.229 -73.717 3.555 1796.15
48.229 -72.367 3.528 1298.68
48.229 -71.017 3.495 867.17
48.229 -69.666 3.485 149.83
48.229 -68.316 3.528 82.90
48.229 -66.966 3.573 427.97
48.229 -65.616 3.560 399.17
48.229 -64.266 3.496 378.18
48.229 -62.916 3.460 250.05
48.229 -61.566 3.577 230.69
49.129 -137.851 3.931 347.62
49.129 -136.477 3.939 167.83
49.129 -135.103 3.920 302.70
49.129 -133.728 3.904 405.59
49.129 -132.354 3.955 672.32
49.129 -130.979 4.227 977.13
49.129 -129.605 4.291 1374.53
49.129 -128.231 4.148 3523.37
49.129 -126.856 3.878 4809.59
49.129 -125.482 3.703 15476.52
49.129 -124.107 3.520 19447.50
49.129 -122.733 3.383 15127.13
49.129 -121.359 3.528 13191.90
49.129 -119.984 3.659 14007.10
49.129 -118.610 3.467 12055.30
49.129 -117.235 3.245 10785.72
49.129 -115.861 3.158 8184.30
49.129 -114.487 3.206 8359.52
49.129 -113.112 3.344 9355.32
49.129 -111.738 3.513 7924.01
49.129 -110.363 3.514 7613.06
49.129 -108.989 3.450 8862.97
49.129 -107.615 3.260 9035.41
49.129 -106.240 3.185 10595.86
49.129 -104.866 3.175 12338.95
49.129 -103.491 3.445 14145.25
49.129 -102.117 3.612 11801.31
49.129 -100.743 3.490 11466.69
49.129 -99.368 3.473 9908.97
49.129 -97.994 3.504 9258.29
49.129 -96.619 3.555 8641.81
49.129 -95.245 3.606 6496.40
49.129 -93.871 3.625 2999.05
49.129 -92.496 3.530 2603.62
49.129 -91.122 3.459 3077.85
49.129 -89.747 3.560 3878.82
49.129 -88.373 3.625 3882.59
49.129 -86.999 3.600 3730.19
49.129 -85.624 3.543 3834.24
49.129 -84.250 3.626 3282.96
49.129 -82.875 3.716 3412.92
49.129 -81.501 3.726 2209.61
49.129 -80.127 3.739 3190.85
49.129 -78.752 3.735 2394.71
49.129 -77.378 3.706 1492.43
49.129 -76.003 3.683 1381.44
49.129 -74.629 3.590 1154.85
49.129 -73.255 3.517 938.97
49.129 -71.880 3.497 721.30
49.129 -70.506 3.516 339.73
49.129 -69.131 3.549 233.76
49.129 -67.757 3.590 410.28
49.129 -66.383 3.560 234.78
49.129 -65.008 3.508 156.20
49.129 -63.634 3.486 96.76
49.129 -62.259 3.545 127.02
49.129 -60.885 3.772 243.36
50.028 -138.567 4.202 632.24
50.028 -137.167 4.171 792.85
50.028 -135.767 3.933 574.42
50.028 -134.367 3.836 526.44
50.028 -132.967 4.001 311.70
50.028 -131.567 4.263 730.24
50.028 -130.167 4.049 1757.27
50.028 -128.767 3.766 4640.58
50.028 -127.368 3.615 16012.40
50.028 -125.968 3.505 20179.82
50.028 -124.568 3.323 17461.10
50.028 -123.168 3.311 14365.80
50.028 -121.768 3.433 14015.72
50.028 -120.368 3.498 11374.85
50.028 -118.968 3.326 8865.63
50.028 -117.568 3.159 9830.03
50.028 -116.168 3.141 7281.10
50.028 -114.768 3.222 7801.33
50.028 -113.368 3.382 7598.15
50.028 -111.968 3.501 7865.39
50.028 -110.568 3.451 6322.16
50.028 -109.168 3.486 8457.64
50.028 -107.768 3.359 7755.26
50.028 -106.368 3.227 9684.38
50.028 -104.968 3.209 9784.55
50.028 -103.568 3.412 13683.10
50.028 -102.168 3.680 10231.27
50.028 -100.768 3.594 8771.32
50.028 -99.368 3.564 6604.72
50.028 -97.968 3.593 5717.48
50.028 -96.568 3.674 8411.01
50.028 -95.168 3.743 3258.70
50.028 -93.768 3.709 2722.76
50.028 -92.368 3.539 1886.07
50.028 -90.968 3.393 3348.58
50.028 -89.568 3.497 3020.95
50.028 -88.168 3.560 2799.82
50.028 -86.769 3.503 2482.37
50.028 -85.369 3.514 2107.45
50.028 -83.969 3.637 2338.29
50.028 -82.569 3.732 2808.52
50.028 -81.169 3.764 3033.28
50.028 -79.769 3.769 2075.83
50.028 -78.369 3.707 1503.56
50.028 -76.969 3.656 1663.66
50.028 -75.569 3.619 1618.97
50.028 -74.169 3.563 1325.84
50.028 -72.769 3.543 471.52
50.028 -71.369 3.554 335.69
50.028 -69.969 3.588 407.66
50.028 -68.569 3.606 335.70
50.028 -67.169 3.573 407.88
50.028 -65.769 3.556 89.18
50.028 -64.369 3.563 133.02
50.028 -62.969 3.626 121.76
50.028 -61.569 3.744 302.36
50.028 -60.169 3.933 161.83
50.927 -139.320 4.218 988.37
50.927 -137.893 4.155 841.34
50.927 -136.466 3.849 350.64
50.927 -135.040 3.803 2.00
50.927 -133.613 4.018 677.30
50.927 -132.186 4.083 487.97
50.927 -130.759 3.740 2624.74
50.927 -129.332 3.532 20709.87
50.927 -127.905 3.507 27382.86
50.927 -126.478 3.402 18334.58
50.927 -125.052 3.282 18494.68
50.927 -123.625 3.359 13817.35
50.927 -122.198 3.487 11589.20
50.927 -120.771 3.482 9632.13
50.927 -119.344 3.346 9643.97
50.927 -117.917 3.256 9859.09
50.927 -116.490 3.243 7340.70
50.927 -115.064 3.292 6774.91
50.927 -113.637 3.362 6865.24
50.927 -112.210 3.435 7221.50
50.927 -110.783 3.432 5927.03
50.927 -109.356 3.474 6320.36
50.927 -107.929 3.463 8045.40
50.927 -106.502 3.227 9650.24
50.927 -105.076 3.229 10982.54
50.927 -103.649 3.376 12689.68
50.927 -102.222 3.725 11130.24
50.927 -100.795 3.700 7758.62
50.927 -99.368 3.628 5284.60
50.927 -97.941 3.687 4909.14
50.927 -96.514 3.751 3440.46
50.927 -95.088 3.778 2790.59
50.927 -93.661 3.719 2357.74
50.927 -92.234 3.520 2696.52
50.927 -90.807 3.413 3580.07
50.927 -89.380 3.562 2365.86
50.927 -87.953 3.612 1865.92
50.927 -86.526 3.581 2465.08
50.927 -85.100 3.590 2615.48
50.927 -83.673 3.655 1640.37
50.927 -82.246 3.700 2879.02
50.927 -80.819 3.681 2430.77
50.927 -79.392 3.672 1095.37
50.927 -77.965 3.644 1558.38
50.927 -76.538 3.644 963.05
50.927 -75.112 3.658 1257.54
50.927 -73.685 3.652 1056.82
50.927 -72.258 3.690 493.52
50.927 -70.831 3.694 512.62
50.927 -69.404 3.647 447.88
50.927 -67.977 3.622 367.21
50.927 -66.550 3.623 200.44
50.927 -65.124 3.669 259.76
50.927 -63.697 3.747 217.47
50.927 -62.270 3.807 297.88
50.927 -60.843 3.830 330.27
50.927 -59.416 3.936 731.03
51.827 -140.113 4.070 1072.58
51.827 -138.658 4.014 218.79
51.827 -137.203 3.773 21.97
51.827 -135.747 3.804 155.82
51.827 -134.292 4.029 838.16
51.827 -132.837 3.991 727.73
51.827 -131.382 3.659 30159.12
51.827 -129.927 3.606 42909.51
51.827 -128.472 3.626 22320.90
51.827 -127.016 3.559 16541.57
51.827 -125.561 3.511 13757.53
51.827 -124.106 3.547 11869.11
51.827 -122.651 3.587 9767.96
51.827 -121.196 3.546 8142.22
51.827 -119.741 3.442 7315.15
51.827 -118.285 3.358 6634.74
51.827 -116.830 3.346 5714.05
51.827 -115.375 3.357 4776.36
51.827 -113.920 3.413 5067.05
51.827 -112.465 3.400 6124.14
51.827 -111.010 3.468 6501.27
51.827 -109.554 3.529 6947.48
51.827 -108.099 3.539 8595.43
51.827 -106.644 3.302 11118.68
51.827 -105.189 3.260 11955.48
51.827 -103.734 3.375 10917.74
51.827 -102.279 3.637 12026.99
51.827 -100.823 3.689 7448.26
51.827 -99.368 3.623 4223.06
51.827 -97.913 3.625 4796.18
51.827 -96.458 3.672 2469.88
51.827 -95.003 3.704 3082.64
51.827 -93.548 3.680 2395.15
51.827 -92.092 3.549 2143.59
51.827 -90.637 3.527 2947.20
51.827 -89.182 3.685 2386.42
51.827 -87.727 3.740 2263.81
51.827 -86.272 3.707 2545.43
51.827 -84.817 3.680 2103.95
51.827 -83.361 3.702 2347.13
51.827 -81.906 3.707 2352.21
51.827 -80.451 3.664 1412.24
51.827 -78.996 3.673 1800.22
51.827 -77.541 3.724 1622.17
51.827 -76.085 3.797 1248.59
51.827 -74.630 3.846 1098.37
51.827 -73.175 3.843 1071.02
51.827 -71.720 3.849 732.91
51.827 -70.265 3.808 571.20
51.827 -68.810 3.729 395.74
51.827 -67.354 3.671 200.79
51.827 -65.899 3.695 197.25
51.827 -64.444 3.765 483.87
51.827 -62.989 3.815 545.68
51.827 -61.534 3.817 539.06
51.827 -60.079 3.832 685.68
51.827 -58.623 3.878 361.66
52.726 -140.948 3.958 432.60
52.726 -139.463 3.895 91.89
52.726 -137.978 3.766 135.84
52.726 -136.493 3.894 702.30
52.726 -135.008 4.079 610.43
52.726 -133.523 4.025 968.70
52.726 -132.038 3.827 5393.42
52.726 -130.553 3.763 10400.07
52.726 -129.068 3.740 8523.66
52.726 -127.583 3.740 7977.19
52.726 -126.098 3.699 8124.24
52.726 -124.613 3.625 8588.01
52.726 -123.128 3.570 6147.24
52.726 -121.643 3.523 6669.07
52.726 -120.158 3.429 6142.04
52.726 -118.673 3.376 6018.96
52.726 -117.188 3.406 5409.95
52.726 -115.703 3.441 4878.33
52.726 -114.218 3.500 3900.48
52.726 -112.733 3.464 7461.90
52.726 -111.248 3.490 7604.90
52.726 -109.763 3.535 7222.51
52.726 -108.278 3.494 9451.21
52.726 -106.793 3.396 12133.34
52.726 -105.308 3.283 10904.65
52.726 -103.823 3.329 11558.99
52.726 -102.338 3.417 10464.01
52.726 -100.853 3.576 8656.71
52.726 -99.368 3.581 4763.95
52.726 -97.883 3.557 2902.37
52.726 -96.398 3.609 2277.61
52.726 -94.913 3.718 2883.47
52.726 -93.428 3.777 1995.33
52.726 -91.943 3.688 2224.03
52.726 -90.458 3.608 2341.04
52.726 -88.973 3.685 2054.33
52.726 -87.488 3.688 1992.59
52.726 -86.003 3.636 2666.75
52.726 -84.518 3.603 2185.09
52.726 -83.033 3.627 1729.42
52.726 -81.548 3.649 1282.55
52.726 -80.063 3.643 1873.69
52.726 -78.578 3.677 2324.19
52.726 -77.093 3.774 1527.82
52.726 -75.608 3.838 1332.50
52.726 -74.123 3.812 1403.51
52.726 -72.638 3.807 809.23
52.726 -71.153 3.842 1087.93
52.726 -69.668 3.837 591.45
52.726 -68.183 3.770 676.98
52.726 -66.698 3.736 481.61
52.726 -65.213 3.752 620.40
52.726 -63.728 3.778 475.60
52.726 -62.243 3.799 517.02
52.726 -60.758 3.809 444.52
52.726 -59.273 3.811 36.97
52.726 -57.788 3.846 332.70
53.625 -141.829 3.866 586.42
53.625 -140.313 3.836 174.83
53.625 -138.796 3.810 382.65
53.625 -137.280 3.928 780.21
53.625 -135.763 4.023 195.80
53.625 -134.247 4.033 1090.06
53.625 -132.730 3.982 1842.19
53.625 -131.214 3.826 3015.12
53.625 -129.697 3.780 3598.32
53.625 -128.181 3.696 4070.75
53.625 -126.665 3.632 4572.73
53.625 -125.148 3.589 5556.11
53.625 -123.632 3.551 4262.79
53.625 -122.115 3.519 4745.33
53.625 -120.599 3.411 4871.20
53.625 -119.082 3.350 4527.24
53.625 -117.566 3.378 4904.94
53.625 -116.049 3.447 4495.79
53.625 -114.533 3.509 4905.40
53.625 -113.016 3.489 6432.45
53.625 -111.500 3.462 8000.95
53.625 -109.983 3.466 9067.88
53.625 -108.467 3.454 10605.37
53.625 -106.951 3.438 12532.95
53.625 -105.434 3.316 11103.59
53.625 -103.918 3.271 8450.46
53.625 -102.401 3.311 8334.59
53.625 -100.885 3.533 9729.49
53.625 -99.368 3.601 4848.26
53.625 -97.852 3.600 2544.32
53.625 -96.335 3.677 2206.62
53.625 -94.819 3.752 2046.33
53.625 -93.302 3.822 1704.23
53.625 -91.786 3.751 2248.38
53.625 -90.269 3.640 1765.84
53.625 -88.753 3.654 2242.34
53.625 -87.237 3.584 2293.44
53.625 -85.720 3.484 2286.24
53.625 -84.204 3.433 1268.47
53.625 -82.687 3.479 1281.89
53.625 -81.171 3.542 1351.43
53.625 -79.654 3.557 2083.80
53.625 -78.138 3.586 1529.43
53.625 -76.621 3.656 1325.45
53.625 -75.105 3.668 1360.48
53.625 -73.588 3.647 1813.79
53.625 -72.072 3.688 1093.82
53.625 -70.555 3.760 912.00
53.625 -69.039 3.780 787.85
53.625 -67.523 3.780 883.65
53.625 -66.006 3.764 536.19
53.625 -64.490 3.748 441.59
53.625 -62.973 3.763 404.09
53.625 -61.457 3.772 261.52
53.625 -59.940 3.765 110.90
53.625 -58.424 3.771 435.59
53.625 -56.907 3.775 265.72
54.525 -142.759 3.793 258.74
54.525 -141.209 3.784 317.70
54.525 -139.660 3.821 452.53
54.525 -138.110 3.879 317.70
54.525 -136.560 3.912 466.15
54.525 -135.011 3.936 1112.46
54.525 -133.461 4.015 1308.79
54.525 -131.911 3.797 2973.90
54.525 -130.362 3.724 3510.06
54.525 -128.812 3.605 4067.09
54.525 -127.262 3.577 3971.83
54.525 -125.713 3.562 4148.90
54.525 -124.163 3.509 3706.83
54.525 -122.613 3.443 4269.29
54.525 -121.064 3.367 3619.42
54.525 -119.514 3.305 3642.24
54.525 -117.964 3.384 3889.51
54.525 -116.415 3.463 4818.23
54.525 -114.865 3.463 5457.27
54.525 -113.315 3.483 5852.28
54.525 -111.766 3.495 8817.11
54.525 -110.216 3.411 10379.40
54.525 -108.666 3.445 11296.86
54.525 -107.117 3.439 12446.86
54.525 -105.567 3.392 9222.26
54.525 -104.017 3.292 6432.47
54.525 -102.468 3.304 7380.08
54.525 -100.918 3.465 7643.71
54.525 -99.368 3.604 5658.14
54.525 -97.819 3.657 2758.15
54.525 -96.269 3.778 1864.99
54.525 -94.719 3.809 2063.32
54.525 -93.170 3.780 1994.45
54.525 -91.620 3.707 1674.51
54.525 -90.070 3.558 2551.78
54.525 -88.520 3.565 2046.95
54.525 -86.971 3.525 2243.52
54.525 -85.421 3.428 1317.85
54.525 -83.871 3.378 1210.71
54.525 -82.322 3.429 1031.45
54.525 -80.772 3.453 1436.47
54.525 -79.222 3.441 2037.92
54.525 -77.673 3.493 1057.93
54.525 -76.123 3.568 943.07
54.525 -74.573 3.572 1294.61
54.525 -73.024 3.564 1095.88
54.525 -71.474 3.584 779.23
54.525 -69.924 3.613 894.54
54.525 -68.375 3.608 1448.45
54.525 -66.825 3.629 1140.07
54.525 -65.275 3.672 276.31
54.525 -63.726 3.694 307.99
54.525 -62.176 3.680 121.87
54.525 -60.626 3.697 124.86
54.525 -59.077 3.745 416.58
54.525 -57.527 3.742 186.80
54.525 -55.977 3.721 112.89
55.424 -143.742 3.726 495.54
55.424 -142.157 3.716 39.96
55.424 -140.572 3.777 564.41
55.424 -138.988 3.852 179.83
55.424 -137.403 3.917 627.96
55.424 -135.818 3.908 1354.75
55.424 -134.233 3.949 1067.95
55.424 -132.648 3.753 3249.53
55.424 -131.064 3.651 3066.55
55.424 -129.479 3.584 3810.80
55.424 -127.894 3.543 3412.06
55.424 -126.309 3.501 3788.94
55.424 -124.725 3.431 4428.07
55.424 -123.140 3.341 3492.77
55.424 -121.555 3.299 4228.11
55.424 -119.970 3.307 4310.70
55.424 -118.385 3.399 5479.85
55.424 -116.801 3.437 5253.30
55.424 -115.216 3.430 5793.79
55.424 -113.631 3.504 6264.19
55.424 -112.046 3.538 9692.53
55.424 -110.462 3.431 12125.44
55.424 -108.877 3.460 12170.28
55.424 -107.292 3.525 10066.02
55.424 -105.707 3.516 8391.27
55.424 -104.123 3.396 5226.72
55.424 -102.538 3.318 4697.08
55.424 -100.953 3.305 6143.67
55.424 -99.368 3.533 8917.64
55.424 -97.783 3.660 2393.11
55.424 -96.199 3.792 2256.72
55.424 -94.614 3.829 1419.56
55.424 -93.029 3.775 1976.67
55.424 -91.444 3.675 1706.23
55.424 -89.860 3.471 2704.27
55.424 -88.275 3.460 1253.36
55.424 -86.690 3.447 1825.54
55.424 -85.105 3.398 1362.59
55.424 -83.520 3.396 1616.66
55.424 -81.936 3.444 968.13
55.424 -80.351 3.426 2082.94
55.424 -78.766 3.421 1546.95
55.424 -77.181 3.489 1001.57
55.424 -75.597 3.527 669.49
55.424 -74.012 3.519 1126.49
55.424 -72.427 3.517 604.37
55.424 -70.842 3.505 618.34
55.424 -69.257 3.510 874.11
55.424 -67.673 3.504 1082.93
55.424 -66.088 3.522 550.80
55.424 -64.503 3.572 457.27
55.424 -62.918 3.574 224.74
55.424 -61.334 3.574 142.44
55.424 -59.749 3.638 248.76
55.424 -58.164 3.705 117.89
55.424 -56.579 3.692 348.67
55.424 -54.995 3.655 293.73
56.324 -144.782 3.683 49.95
56.324 -143.160 3.690 453.52
56.324 -141.538 3.753 169.82
56.324 -139.916 3.881 423.57
56.324 -138.294 3.984 943.92
56.324 -136.672 3.900 1326.73
56.324 -135.050 3.832 1042.96
56.324 -133.428 3.715 2515.69
56.324 -131.806 3.629 3515.02
56.324 -130.184 3.579 3676.68
56.324 -128.563 3.524 2797.85
56.324 -126.941 3.439 2968.42
56.324 -125.319 3.337 5331.08
56.324 -123.697 3.287 3995.61
56.324 -122.075 3.291 4323.65
56.324 -120.453 3.357 3834.03
56.324 -118.831 3.404 5295.94
56.324 -117.209 3.440 4722.19
56.324 -115.587 3.491 6367.91
56.324 -113.965 3.592 8374.50
56.324 -112.343 3.562 11896.27
56.324 -110.722 3.529 14036.90
56.324 -109.100 3.492 10900.76
56.324 -107.478 3.556 8491.87
56.324 -105.856 3.652 5097.65
56.324 -104.234 3.525 6084.69
56.324 -102.612 3.302 4793.03
56.324 -100.990 3.200 5759.10
56.324 -99.368 3.457 6896.63
56.324 -97.746 3.569 4801.75
56.324 -96.124 3.656 1529.82
56.324 -94.502 3.778 1665.69
56.324 -92.881 3.812 2939.21
56.324 -91.259 3.719 1652.34
56.324 -89.637 3.476 1778.47
56.324 -88.015 3.403 1088.44
56.324 -86.393 3.384 1488.30
56.324 -84.771 3.310 1019.06
56.324 -83.149 3.351 1224.47
56.324 -81.527 3.449 1488.90
56.324 -79.905 3.449 2071.25
56.324 -78.283 3.482 1183.83
56.324 -76.661 3.550 693.10
56.324 -75.040 3.551 899.04
56.324 -73.418 3.529 1197.75
56.324 -71.796 3.515 602.36
56.324 -70.174 3.506 607.37
56.324 -68.552 3.502 648.16
56.324 -66.930 3.476 702.62
56.324 -65.308 3.462 470.53
56.324 -63.686 3.473 369.64
56.324 -62.064 3.460 118.90
56.324 -60.442 3.463 93.92
56.324 -58.820 3.524 74.93
56.324 -57.199 3.585 481.56
56.324 -55.577 3.550 61.94
56.324 -53.955 3.561 0.00
57.223 -145.883 3.700 144.85
57.223 -144.222 3.724 501.47
57.223 -142.561 3.800 22.97
57.223 -140.899 3.946 770.20
57.223 -139.238 4.000 1167.20
57.223 -137.577 3.834 1221.80
57.223 -135.916 3.711 1367.86
57.223 -134.254 3.669 2167.45
57.223 -132.593 3.631 3316.32
57.223 -130.932 3.572 3214.84
57.223 -129.271 3.470 3019.39
57.223 -127.609 3.376 3074.56
57.223 -125.948 3.306 5752.42
57.223 -124.287 3.314 4783.45
57.223 -122.626 3.330 3997.15
57.223 -120.964 3.424 2898.57
57.223 -119.303 3.481 4521.92
57.223 -117.642 3.542 4500.81
57.223 -115.981 3.643 7109.84
57.223 -114.319 3.691 11856.34
57.223 -112.658 3.619 15157.38
57.223 -110.997 3.581 13530.64
57.223 -109.336 3.483 9168.18
57.223 -107.674 3.509 6317.32
57.223 -106.013 3.690 4938.32
57.223 -104.352 3.597 5721.88
57.223 -102.691 3.268 5350.23
57.223 -101.029 3.179 4030.55
57.223 -99.368 3.336 4506.22
57.223 -97.707 3.464 7203.27
57.223 -96.046 3.520 2901.66
57.223 -94.384 3.655 2150.96
57.223 -92.723 3.808 2663.99
57.223 -91.062 3.785 1231.59
57.223 -89.401 3.514 1963.97
57.223 -87.739 3.383 849.62
57.223 -86.078 3.365 1078.41
57.223 -84.417 3.248 1568.53
57.223 -82.756 3.296 1251.15
57.223 -81.094 3.388 1738.22
57.223 -79.433 3.447 1614.33
57.223 -77.772 3.526 903.04
57.223 -76.111 3.588 925.03
57.223 -74.449 3.551 841.95
57.223 -72.788 3.516 868.06
57.223 -71.127 3.495 454.57
57.223 -69.466 3.490 114.65
57.223 -67.805 3.499 571.94
57.223 -66.143 3.479 292.72
57.223 -64.482 3.447 200.83
57.223 -62.821 3.423 220.80
57.223 -61.160 3.398 285.74
57.223 -59.498 3.393 373.66
57.223 -57.837 3.418 100.92
57.223 -56.176 3.433 135.72
57.223 -54.515 3.417 427.72
57.223 -52.853 3.498 15.99
58.122 -147.051 3.770 590.38
58.122 -145.348 3.799 84.91
58.122 -143.645 3.901 339.65
58.122 -141.942 4.010 1123.84
58.122 -140.239 3.938 1028.88
58.122 -138.537 3.739 1277.69
58.122 -136.834 3.622 998.00
58.122 -135.131 3.645 2726.00
58.122 -133.428 3.678 3906.24
58.122 -131.725 3.629 2991.52
58.122 -130.022 3.511 4304.73
58.122 -128.319 3.443 3206.35
58.122 -126.616 3.385 5405.71
58.122 -124.913 3.384 4770.42
58.122 -123.210 3.428 3341.38
58.122 -121.507 3.512 4160.48
58.122 -119.804 3.577 3864.32
58.122 -118.101 3.661 5680.22
58.122 -116.398 3.782 9815.73
58.122 -114.695 3.775 16828.58
58.122 -112.992 3.703 15219.71
58.122 -111.289 3.616 11385.77
58.122 -109.586 3.474 5849.06
58.122 -107.883 3.447 5778.18
58.122 -106.180 3.593 5055.72
58.122 -104.477 3.592 4387.81
58.122 -102.774 3.295 5118.07
58.122 -101.071 3.169 4322.44
58.122 -99.368 3.258 4231.38
58.122 -97.665 3.472 7291.32
58.122 -95.962 3.472 4539.71
58.122 -94.259 3.576 2892.43
58.122 -92.556 3.768 2171.86
58.122 -90.853 3.775 1751.75
58.122 -89.150 3.514 1602.27
58.122 -87.447 3.371 1199.70
58.122 -85.744 3.403 1375.13
58.122 -84.041 3.277 1756.49
58.122 -82.339 3.304 1305.66
58.122 -80.636 3.381 1045.96
58.122 -78.933 3.474 1150.61
58.122 -77.230 3.569 773.21
58.122 -75.527 3.584 1216.75
58.122 -73.824 3.506 1134.57
58.122 -72.121 3.475 406.62
58.122 -70.418 3.449 202.11
58.122 -68.715 3.447 181.16
58.122 -67.012 3.479 445.57
58.122 -65.309 3.471 144.86
58.122 -63.606 3.451 176.82
58.122 -61.903 3.430 51.95
58.122 -60.200 3.408 226.82
58.122 -58.497 3.392 156.87
58.122 -56.794 3.387 284.73
58.122 -55.091 3.371 239.78
58.122 -53.388 3.363 140.89
58.122 -51.685 3.471 498.67
59.022 -148.292 3.799 836.17
59.022 -146.545 3.847 104.83
59.022 -144.798 3.965 1051.91
59.022 -143.050 4.008 923.72
59.022 -141.303 3.830 1273.61
59.022 -139.556 3.636 877.10
59.022 -137.808 3.582 1206.70
59.022 -136.061 3.713 4667.96
59.022 -134.314 3.774 5552.49
59.022 -132.567 3.821 3238.64
59.022 -130.819 3.698 3204.71
59.022 -129.072 3.588 2546.38
59.022 -127.325 3.539 5149.47
59.022 -125.577 3.523 5697.67
59.022 -123.830 3.569 3835.51
59.022 -122.083 3.554 3584.12
59.022 -120.336 3.587 3443.57
59.022 -118.588 3.654 8010.76
59.022 -116.841 3.743 16721.69
59.022 -115.094 3.711 18715.65
59.022 -113.346 3.675 13213.71
59.022 -111.599 3.656 7358.19
59.022 -109.852 3.505 4803.04
59.022 -108.105 3.389 5036.83
59.022 -106.357 3.440 3568.24
59.022 -104.610 3.510 3862.04
59.022 -102.863 3.404 4682.81
59.022 -101.115 3.262 4311.50
59.022 -99.368 3.300 5124.64
59.022 -97.621 3.563 4098.84
59.022 -95.874 3.540 6329.25
59.022 -94.126 3.595 2839.23
59.022 -92.379 3.717 1127.48
59.022 -90.632 3.710 1681.22
59.022 -88.884 3.492 1107.88
59.022 -87.137 3.367 1582.42
59.022 -85.390 3.494 1345.14
59.022 -83.643 3.384 1641.64
59.022 -81.895 3.358 1184.79
59.022 -80.148 3.428 984.03
59.022 -78.401 3.508 1233.74
59.022 -76.654 3.567 992.97
59.022 -74.906 3.541 900.07
59.022 -73.159 3.477 878.04
59.022 -71.412 3.451 432.66
59.022 -69.664 3.434 47.74
59.022 -67.917 3.437 369.64
59.022 -66.170 3.457 229.63
59.022 -64.423 3.463 104.89
59.022 -62.675 3.451 11.99
59.022 -60.928 3.442 117.90
59.022 -59.181 3.431 96.91
59.022 -57.433 3.415 44.96
59.022 -55.686 3.393 149.89
59.022 -53.939 3.379 153.87
59.022 -52.192 3.382 224.79
59.022 -50.444 3.474 236.78
59.921 -149.612 3.702 1419.76
59.921 -147.818 3.764 459.57
59.921 -146.023 3.878 895.61
59.921 -144.229 3.877 1153.59
59.921 -142.434 3.686 1268.78
59.921 -140.640 3.537 443.68
59.921 -138.845 3.547 1963.97
59.921 -137.051 3.720 2424.20
59.921 -135.257 3.824 3821.43
59.921 -133.462 3.914 3487.72
59.921 -131.668 3.783 2853.60
59.921 -129.873 3.603 3155.52
59.921 -128.079 3.564 4072.24
59.921 -126.284 3.553 6474.54
59.921 -124.490 3.566 5025.92
59.921 -122.696 3.504 3424.74
59.921 -120.901 3.501 4865.14
59.921 -119.107 3.585 14068.48
59.921 -117.312 3.575 21417.76
59.921 -115.518 3.564 14659.92
59.921 -113.724 3.586 7491.88
59.921 -111.929 3.655 6638.58
59.921 -110.135 3.541 4900.21
59.921 -108.340 3.353 3474.33
59.921 -106.546 3.353 3304.02
59.921 -104.751 3.461 4817.11
59.921 -102.957 3.558 5149.54
59.921 -101.163 3.436 4264.85
59.921 -99.368 3.391 3722.12
59.921 -97.574 3.529 4893.93
59.921 -95.779 3.610 5982.37
59.921 -93.985 3.571 2462.22
59.921 -92.191 3.632 833.02
59.921 -90.396 3.652 1534.43
59.921 -88.602 3.506 1216.77
59.921 -86.807 3.376 1446.73
59.921 -85.013 3.539 1615.94
59.921 -83.218 3.459 2019.92
59.921 -81.424 3.437 1256.68
59.921 -79.630 3.482 1227.74
59.921 -77.835 3.529 1037.96
59.921 -76.041 3.538 696.30
59.921 -74.246 3.486 1170.20
59.921 -72.452 3.461 546.05
59.921 -70.657 3.464 229.75
59.921 -68.863 3.443 172.82
59.921 -67.069 3.446 344.67
59.921 -65.274 3.458 120.88
59.921 -63.480 3.455 64.93
59.921 -61.685 3.442 35.97
59.921 -59.891 3.436 65.95
59.921 -58.097 3.431 14.99
59.921 -56.302 3.423 75.93
59.921 -54.508 3.413 21.98
59.921 -52.713 3.408 76.94
59.921 -50.919 3.418 186.86
59.921 -49.124 3.480 306.81
60.820 -151.018 3.580 715.35
60.820 -149.173 3.604 2024.08
60.820 -147.329 3.666 1247.86
60.820 -145.484 3.639 2028.74
60.820 -143.639 3.504 1371.84
60.820 -141.795 3.415 836.13
60.820 -139.950 3.464 1743.63
60.820 -138.106 3.573 1301.24
60.820 -136.261 3.633 2605.63
60.820 -134.416 3.725 2942.16
60.820 -132.572 3.603 2578.79
60.820 -130.727 3.412 2725.52
60.820 -128.882 3.447 3086.08
60.820 -127.038 3.500 7303.98
60.820 -125.193 3.496 4735.90
60.820 -123.348 3.443 3805.56
60.820 -121.504 3.443 10355.39
60.820 -119.659 3.485 25454.53
60.820 -117.815 3.467 16948.47
60.820 -115.970 3.483 7254.62
60.820 -114.125 3.518 6961.80
60.820 -112.281 3.658 5390.07
60.820 -110.436 3.589 5109.63
60.820 -108.591 3.406 4098.49
60.820 -106.747 3.362 4421.28
60.820 -104.902 3.453 3774.92
60.820 -103.057 3.582 3312.00
60.820 -101.213 3.533 4818.40
60.820 -99.368 3.403 3793.40
60.820 -97.524 3.405 4370.53
60.820 -95.679 3.641 4091.09
60.820 -93.834 3.581 5595.78
60.820 -91.990 3.605 974.28
60.820 -90.145 3.637 1495.87
60.820 -88.300 3.527 805.18
60.820 -86.456 3.363 1665.51
60.820 -84.611 3.511 2718.43
60.820 -82.766 3.449 1979.92
60.820 -80.922 3.474 676.31
60.820 -79.077 3.532 1392.84
60.820 -77.233 3.537 1114.26
60.820 -75.388 3.498 760.13
60.820 -73.543 3.446 937.36
60.820 -71.699 3.466 474.50
60.820 -69.854 3.480 160.82
60.820 -68.009 3.458 426.59
60.820 -66.165 3.452 175.83
60.820 -64.320 3.458 100.89
60.820 -62.475 3.445 6.99
60.820 -60.631 3.432 94.92
60.820 -58.786 3.426 0.00
60.820 -56.942 3.425 0.00
60.820 -55.097 3.427 0.00
60.820 -53.252 3.431 54.95
60.820 -51.408 3.439 59.94
60.820 -49.563 3.453 0.00
60.820 -47.718 3.481 224.79
61.720 -152.518 3.513 556.46
61.720 -150.620 3.518 549.85
61.720 -148.722 3.509 2775.27
61.720 -146.824 3.447 2871.12
61.720 -144.926 3.346 2662.35
61.720 -143.027 3.333 1967.64
61.720 -141.129 3.388 1492.15
61.720 -139.231 3.445 1527.19
61.720 -137.333 3.473 2536.48
61.720 -135.434 3.545 2710.31
61.720 -133.536 3.419 2231.34
61.720 -131.638 3.234 3894.66
61.720 -129.740 3.287 3257.19
61.720 -127.842 3.353 7589.56
61.720 -125.943 3.412 5015.17
61.720 -124.045 3.386 6286.27
61.720 -122.147 3.430 30483.42
61.720 -120.249 3.428 21190.22
61.720 -118.350 3.454 7145.71
61.720 -116.452 3.480 5193.60
61.720 -114.554 3.510 5353.68
61.720 -112.656 3.615 5488.96
61.720 -110.758 3.627 5893.68
61.720 -108.859 3.448 4576.44
61.720 -106.961 3.386 3402.57
61.720 -105.063 3.481 3188.06
61.720 -103.165 3.597 3113.51
61.720 -101.266 3.566 3929.23
61.720 -99.368 3.365 4184.36
61.720 -97.470 3.356 3583.48
61.720 -95.572 3.613 3722.87
61.720 -93.674 3.633 4468.67
61.720 -91.775 3.575 2830.84
61.720 -89.877 3.572 1608.39
61.720 -87.979 3.479 805.17
61.720 -86.081 3.338 2174.75
61.720 -84.182 3.455 1726.11
61.720 -82.284 3.408 1414.53
61.720 -80.386 3.449 1024.92
61.720 -78.488 3.512 1668.65
61.720 -76.590 3.521 817.48
61.720 -74.691 3.479 747.24
61.720 -72.793 3.447 678.08
61.720 -70.895 3.484 491.57
61.720 -68.997 3.483 318.67
61.720 -67.098 3.463 313.70
61.720 -65.200 3.460 130.87
61.720 -63.302 3.452 13.99
61.720 -61.404 3.436 101.92
61.720 -59.505 3.427 0.00
61.720 -57.607 3.427 0.00
61.720 -55.709 3.434 0.00
61.720 -53.811 3.444 0.00
61.720 -51.913 3.452 0.00
61.720 -50.014 3.457 123.86
61.720 -48.116 3.462 224.75
61.720 -46.218 3.467 102.89
62.619 -154.123 3.464 317.44
62.619 -152.167 3.455 557.89
62.619 -150.212 3.441 764.91
62.619 -148.256 3.378 1831.34
62.619 -146.301 3.315 2581.93
62.619 -144.345 3.334 3575.58
62.619 -142.390 3.385 2805.38
62.619 -140.434 3.433 2507.01
62.619 -138.479 3.438 4046.78
62.619 -136.523 3.458 3136.89
62.619 -134.567 3.337 2993.48
62.619 -132.612 3.199 4283.68
62.619 -130.656 3.246 5494.03
62.619 -128.701 3.289 6720.69
62.619 -126.745 3.336 5384.70
62.619 -124.790 3.346 33880.45
62.619 -122.834 3.374 28835.15
62.619 -120.879 3.457 7510.25
62.619 -118.923 3.517 4542.32
62.619 -116.968 3.555 4818.50
62.619 -115.012 3.577 5939.97
62.619 -113.057 3.611 4612.89
62.619 -111.101 3.627 5206.99
62.619 -109.146 3.468 5074.07
62.619 -107.190 3.390 3601.44
62.619 -105.235 3.486 3154.82
62.619 -103.279 3.594 2413.52
62.619 -101.324 3.589 2355.55
62.619 -99.368 3.413 3939.74
62.619 -97.413 3.332 3107.80
62.619 -95.457 3.485 4263.48
62.619 -93.502 3.661 3044.25
62.619 -91.546 3.587 6180.91
62.619 -89.591 3.494 1379.34
62.619 -87.635 3.407 823.23
62.619 -85.680 3.360 2834.60
62.619 -83.724 3.459 1123.81
62.619 -81.769 3.352 1176.72
62.619 -79.813 3.366 534.94
62.619 -77.858 3.475 1606.84
62.619 -75.902 3.525 1185.73
62.619 -73.946 3.486 1197.73
62.619 -71.991 3.483 312.70
62.619 -70.035 3.517 437.50
62.619 -68.080 3.492 435.58
62.619 -66.124 3.466 180.82
62.619 -64.169 3.456 61.94
62.619 -62.213 3.442 80.93
62.619 -60.258 3.429 20.98
62.619 -58.302 3.424 0.00
62.619 -56.347 3.429 0.00
62.619 -54.391 3.442 124.14
62.619 -52.436 3.452 126.85
62.619 -50.480 3.456 133.84
62.619 -48.525 3.452 33.96
62.619 -46.569 3.448 0.00
62.619 -44.614 3.443 51.95
63.518 -155.841 3.428 179.81
63.518 -153.824 3.423 320.65
63.518 -151.807 3.424 1513.92
63.518 -149.790 3.411 2498.50
63.518 -147.773 3.370 2969.85
63.518 -145.757 3.376 3814.80
63.518 -143.740 3.435 3357.13
63.518 -141.723 3.482 2491.83
63.518 -139.706 3.453 4442.10
63.518 -137.689 3.417 4964.17
63.518 -135.672 3.326 5046.24
63.518 -133.655 3.270 6940.77
63.518 -131.638 3.336 7103.10
63.518 -129.622 3.412 6749.87
63.518 -127.605 3.460 9314.06
63.518 -125.588 3.428 35866.76
63.518 -123.571 3.462 8014.96
63.518 -121.554 3.514 4877.43
63.518 -119.537 3.534 4502.66
63.518 -117.520 3.572 4576.18
63.518 -115.503 3.608 3415.42
63.518 -113.486 3.611 2706.30
63.518 -111.470 3.595 4045.56
63.518 -109.453 3.482 5031.38
63.518 -107.436 3.393 3538.89
63.518 -105.419 3.433 2140.04
63.518 -103.402 3.526 2000.96
63.518 -101.385 3.562 1882.02
63.518 -99.368 3.459 2983.00
63.518 -97.351 3.267 3739.21
63.518 -95.334 3.355 4149.00
63.518 -93.318 3.698 3940.92
63.518 -91.301 3.670 4587.20
63.518 -89.284 3.465 4150.28
63.518 -87.267 3.347 2237.21
63.518 -85.250 3.407 1978.67
63.518 -83.233 3.454 732.49
63.518 -81.216 3.307 906.02
63.518 -79.199 3.333 637.97
63.518 -77.182 3.475 1387.94
63.518 -75.166 3.524 882.37
63.518 -73.149 3.490 1117.45
63.518 -71.132 3.517 838.48
63.518 -69.115 3.534 1024.46
63.518 -67.098 3.495 290.72
63.518 -65.081 3.468 103.89
63.518 -63.064 3.448 54.96
63.518 -61.047 3.432 47.96
63.518 -59.030 3.422 0.00
63.518 -57.014 3.418 0.00
63.518 -54.997 3.423 0.00
63.518 -52.980 3.434 0.00
63.518 -50.963 3.439 0.00
63.518 -48.946 3.436 0.00
63.518 -46.929 3.429 0.00
63.518 -44.912 3.421 0.00
63.518 -42.895 3.418 15.98
64.418 -157.686 3.413 352.61
64.418 -155.603 3.420 30.97
64.418 -153.520 3.432 31.96
64.418 -151.437 3.434 963.57
64.418 -149.355 3.408 1976.57
64.418 -147.272 3.385 3387.94
64.418 -145.189 3.427 3857.29
64.418 -143.106 3.480 3319.70
64.418 -141.023 3.480 4473.76
64.418 -138.941 3.439 5492.23
64.418 -136.858 3.373 6494.94
64.418 -134.775 3.344 7504.77
64.418 -132.692 3.428 7048.02
64.418 -130.610 3.547 6691.37
64.418 -128.527 3.639 12801.08
64.418 -126.444 3.650 7154.44
64.418 -124.361 3.629 5260.57
64.418 -122.279 3.599 4979.73
64.418 -120.196 3.584 3916.95
64.418 -118.113 3.557 2424.01
64.418 -116.030 3.578 2493.37
64.418 -113.948 3.638 2530.52
64.418 -111.865 3.626 3191.30
64.418 -109.782 3.510 4211.93
64.418 -107.699 3.459 2733.13
64.418 -105.616 3.457 2241.08
64.418 -103.534 3.493 2151.50
64.418 -101.451 3.537 2284.29
64.418 -99.368 3.495 2171.12
64.418 -97.285 3.306 4237.33
64.418 -95.203 3.230 3578.48
64.418 -93.120 3.509 4113.08
64.418 -91.037 3.647 2641.38
64.418 -88.954 3.579 8524.51
64.418 -86.872 3.451 3919.27
64.418 -84.789 3.498 1111.21
64.418 -82.706 3.459 538.43
64.418 -80.623 3.285 1122.83
64.418 -78.541 3.331 879.07
64.418 -76.458 3.477 1176.80
64.418 -74.375 3.500 1173.80
64.418 -72.292 3.468 778.22
64.418 -70.210 3.482 281.72
64.418 -68.127 3.491 654.36
64.418 -66.044 3.476 202.15
64.418 -63.961 3.454 37.97
64.418 -61.878 3.434 72.94
64.418 -59.796 3.423 0.00
64.418 -57.713 3.417 0.00
64.418 -55.630 3.414 0.00
64.418 -53.547 3.416 0.00
64.418 -51.465 3.420 0.00
64.418 -49.382 3.422 0.00
64.418 -47.299 3.419 0.00
64.418 -45.216 3.414 7.89
64.418 -43.134 3.407 402.93
64.418 -41.051 3.408 146.97
65.317 -159.670 3.408 0.00
65.317 -157.516 3.413 45.96
65.317 -155.363 3.423 73.93
65.317 -153.209 3.430 0.00
65.317 -151.055 3.428 566.70
65.317 -148.902 3.405 1278.47
65.317 -146.748 3.392 2409.37
65.317 -144.595 3.394 3609.84
65.317 -142.441 3.379 3472.61
65.317 -140.287 3.388 4719.88
65.317 -138.134 3.431 4964.15
65.317 -135.980 3.457 2872.43
65.317 -133.826 3.522 5797.65
65.317 -131.673 3.580 4950.70
65.317 -129.519 3.631 5905.52
65.317 -127.365 3.591 3144.11
65.317 -125.212 3.559 2450.68
65.317 -123.058 3.574 2891.63
65.317 -120.905 3.556 3251.14
65.317 -118.751 3.526 2896.61
65.317 -116.597 3.538 1836.35
65.317 -114.444 3.582 1791.04
65.317 -112.290 3.614 2567.42
65.317 -110.136 3.545 2070.53
65.317 -107.983 3.503 2138.76
65.317 -105.829 3.479 2423.51
65.317 -103.675 3.455 1779.22
65.317 -101.522 3.500 1730.34
65.317 -99.368 3.531 1919.01
65.317 -97.215 3.432 2742.23
65.317 -95.061 3.233 3671.21
65.317 -92.907 3.310 4289.97
65.317 -90.754 3.613 2825.46
65.317 -88.600 3.783 1335.20
65.317 -86.446 3.794 1003.00
65.317 -84.293 3.660 937.05
65.317 -82.139 3.447 318.78
65.317 -79.985 3.267 1065.88
65.317 -77.832 3.341 1190.77
65.317 -75.678 3.468 1216.75
65.317 -73.525 3.464 1170.77
65.317 -71.371 3.445 404.62
65.317 -69.217 3.463 544.46
65.317 -67.064 3.472 257.75
65.317 -64.910 3.464 81.26
65.317 -62.756 3.441 97.92
65.317 -60.603 3.424 0.00
65.317 -58.449 3.419 0.00
65.317 -56.295 3.418 0.00
65.317 -54.142 3.417 0.00
65.317 -51.988 3.416 0.00
65.317 -49.835 3.416 0.00
65.317 -47.681 3.416 0.00
65.317 -45.527 3.418 0.00
65.317 -43.374 3.421 0.00
65.317 -41.220 3.424 140.91
65.317 -39.066 3.420 392.39
66.216 -161.810 3.405 488.85
66.216 -159.580 3.402 128.83
66.216 -157.350 3.402 134.72
66.216 -155.120 3.405 212.99
66.216 -152.890 3.414 182.37
66.216 -150.660 3.407 435.86
66.216 -148.430 3.379 1070.93
66.216 -146.200 3.357 906.27
66.216 -143.970 3.340 3138.09
66.216 -141.740 3.365 9560.46
66.216 -139.510 3.473 5590.98
66.216 -137.279 3.568 5021.44
66.216 -135.049 3.623 7238.40
66.216 -132.819 3.555 5203.94
66.216 -130.589 3.554 4807.82
66.216 -128.359 3.552 3644.32
66.216 -126.129 3.557 3403.45
66.216 -123.899 3.533 2364.85
66.216 -121.669 3.503 1703.25
66.216 -119.439 3.487 2346.73
66.216 -117.209 3.483 2617.95
66.216 -114.979 3.509 1831.89
66.216 -112.749 3.544 1541.93
66.216 -110.519 3.534 1394.47
66.216 -108.288 3.508 2041.98
