49.129 -96.619 3.124 10743.84
49.129 -95.245 3.110 9357.06
49.129 -93.871 3.131 2872.20
49.129 -92.496 3.141 2914.53
49.129 -91.122 3.105 3730.84
49.129 -89.747 3.085 3859.33
49.129 -88.373 3.124 3881.83
49.129 -86.999 3.117 4431.23
49.129 -85.624 3.136 3634.38
49.129 -84.250 3.134 2887.66
49.129 -82.875 3.113 3729.15
49.129 -81.501 3.095 2958.53
49.129 -80.127 3.112 4041.48
49.129 -78.752 3.166 2711.00
49.129 -77.378 3.192 1938.34
49.129 -76.003 3.208 1778.85
49.129 -74.629 3.126 1359.62
49.129 -73.255 3.096 939.21
49.129 -71.880 3.098 831.17
49.129 -70.506 3.089 511.56
49.129 -69.131 3.070 332.95
49.129 -67.757 3.050 644.55
49.129 -66.383 3.027 241.55
49.129 -65.008 3.015 162.21
49.129 -63.634 3.017 105.67
49.129 -62.259 3.068 128.32
49.129 -60.885 3.232 217.16
50.028 -138.567 3.494 251.94
50.028 -137.167 3.462 375.80
50.028 -135.767 3.378 415.56
50.028 -134.367 3.514 526.44
50.028 -132.967 3.923 311.70
50.028 -131.567 4.448 609.35
50.028 -130.167 4.294 892.69
50.028 -128.767 3.716 3135.76
50.028 -127.368 3.428 14456.82
50.028 -125.968 3.097 17806.62
50.028 -124.568 3.061 14141.40
50.028 -123.168 3.046 11156.74
50.028 -121.768 2.964 11564.28
50.028 -120.368 2.955 9984.12
50.028 -118.968 2.996 8289.57
50.028 -117.568 2.981 8656.24
50.028 -116.168 2.922 7564.59
50.028 -114.768 2.863 7888.09
50.028 -113.368 2.929 7760.36
50.028 -111.968 3.005 7707.22
50.028 -110.568 2.999 6321.27
50.028 -109.168 2.965 7470.27
50.028 -107.768 3.069 8651.18
50.028 -106.368 3.152 9502.39
50.028 -104.968 3.063 9233.08
50.028 -103.568 3.081 13693.04
50.028 -102.168 3.088 9118.49
50.028 -100.768 3.083 8110.83
50.028 -99.368 3.095 6818.93
50.028 -97.968 3.090 6111.32
50.028 -96.568 3.088 7894.45
50.028 -95.168 3.084 3572.77
50.028 -93.768 3.086 2599.84
50.028 -92.368 3.064 2111.37
50.028 -90.968 3.039 4243.30
50.028 -89.568 3.037 3269.30
50.028 -88.168 3.091 3488.23
50.028 -86.769 3.095 2694.32
50.028 -85.369 3.120 2372.35
50.028 -83.969 3.098 2689.33
50.028 -82.569 3.094 2986.34
50.028 -81.169 3.117 3422.02
50.028 -79.769 3.142 2221.47
50.028 -78.369 3.106 1283.08
50.028 -76.969 3.104 1631.54
50.028 -75.569 3.130 2022.35
50.028 -74.169 3.139 1517.12
50.028 -72.769 3.109 483.85
50.028 -71.369 3.061 253.66
50.028 -69.969 3.030 320.55
50.028 -68.569 3.024 259.88
50.028 -67.169 3.030 480.38
50.028 -65.769 3.044 97.79
50.028 -64.369 3.068 135.75
50.028 -62.969 3.129 52.51
50.028 -61.569 3.246 157.92
50.028 -60.169 3.406 98.46
50.927 -139.320 3.653 885.51
50.927 -137.893 3.625 627.15
50.927 -136.466 3.425 285.70
50.927 -135.040 3.505 2.00
50.927 -133.613 3.888 547.45
50.927 -132.186 4.095 279.69
50.927 -130.759 3.789 1565.07
50.927 -129.332 3.428 19181.89
50.927 -127.905 3.419 24087.64
50.927 -126.478 3.107 14694.47
50.927 -125.052 2.948 14321.78
50.927 -123.625 2.955 11680.38
50.927 -122.198 2.861 10554.17
50.927 -120.771 2.877 7807.21
50.927 -119.344 2.889 8840.86
50.927 -117.917 2.899 9896.20
50.927 -116.490 2.849 7112.73
50.927 -115.064 2.840 6803.31
50.927 -113.637 2.842 6362.12
50.927 -112.210 2.963 6748.10
50.927 -110.783 2.975 5098.62
50.927 -109.356 2.928 6384.86
50.927 -107.929 3.031 7643.72
50.927 -106.502 3.164 9020.12
50.927 -105.076 3.136 9872.98
50.927 -103.649 3.071 12409.13
50.927 -102.222 3.049 10966.51
50.927 -100.795 3.052 6697.34
50.927 -99.368 3.064 5498.05
50.927 -97.941 3.066 4859.59
50.927 -96.514 3.087 3031.85
50.927 -95.088 3.076 3019.94
50.927 -93.661 3.061 2591.61
50.927 -92.234 3.043 3041.85
50.927 -90.807 3.056 4079.10
50.927 -89.380 3.067 2395.81
50.927 -87.953 3.078 2768.14
50.927 -86.526 3.074 3241.15
50.927 -85.100 3.101 2780.69
50.927 -83.673 3.096 1575.86
50.927 -82.246 3.117 2967.02
50.927 -80.819 3.144 2878.10
50.927 -79.392 3.135 1210.78
50.927 -77.965 3.075 1733.22
50.927 -76.538 3.048 1466.52
50.927 -75.112 3.093 1571.39
50.927 -73.685 3.178 1433.49
50.927 -72.258 3.163 293.75
50.927 -70.831 3.076 387.99
50.927 -69.404 3.028 361.72
50.927 -67.977 3.054 336.50
50.927 -66.550 3.119 85.41
50.927 -65.124 3.198 140.87
50.927 -63.697 3.290 91.32
50.927 -62.270 3.377 303.52
50.927 -60.843 3.451 402.59
50.927 -59.416 3.524 720.41
51.827 -140.113 3.528 792.52
51.827 -138.658 3.496 79.92
51.827 -137.203 3.328 0.00
51.827 -135.747 3.427 0.00
51.827 -134.292 3.795 670.32
51.827 -132.837 3.885 439.31
51.827 -131.382 3.568 27256.01
51.827 -129.927 3.453 37605.44
51.827 -128.472 3.393 17929.11
51.827 -127.016 3.111 13167.91
51.827 -125.561 2.920 11266.23
51.827 -124.106 2.913 10069.45
51.827 -122.651 2.866 8528.00
51.827 -121.196 2.888 6340.70
51.827 -119.741 2.887 6351.67
51.827 -118.285 2.895 5695.87
51.827 -116.830 2.855 4886.08
51.827 -115.375 2.840 3979.40
51.827 -113.920 2.850 4817.82
51.827 -112.465 2.934 6009.17
51.827 -111.010 2.994 5786.16
51.827 -109.554 2.987 6590.95
51.827 -108.099 3.031 7827.98
51.827 -106.644 3.154 10991.70
51.827 -105.189 3.183 11171.39
51.827 -103.734 3.055 10920.22
51.827 -102.279 3.058 11987.27
51.827 -100.823 3.077 7045.45
51.827 -99.368 3.077 4886.33
51.827 -97.913 3.089 4624.15
51.827 -96.458 3.086 2227.84
51.827 -95.003 3.074 3025.53
51.827 -93.548 3.072 2866.92
51.827 -92.092 3.078 2646.15
51.827 -90.637 3.113 3367.57
51.827 -89.182 3.105 2582.09
51.827 -87.727 3.078 3214.19
51.827 -86.272 3.080 2994.04
51.827 -84.817 3.098 2228.81
51.827 -83.361 3.115 2249.78
51.827 -81.906 3.152 2039.95
51.827 -80.451 3.157 1596.32
51.827 -78.996 3.128 1836.20
51.827 -77.541 3.104 1982.87
51.827 -76.085 3.102 1394.61
51.827 -74.630 3.176 1035.20
51.827 -73.175 3.307 976.76
51.827 -71.720 3.369 689.59
51.827 -70.265 3.280 499.09
51.827 -68.810 3.218 274.03
51.827 -67.354 3.251 199.79
51.827 -65.899 3.349 213.80
51.827 -64.444 3.450 550.38
51.827 -62.989 3.521 611.65
51.827 -61.534 3.549 541.23
51.827 -60.079 3.530 667.97
51.827 -58.623 3.422 267.75
52.726 -140.948 3.241 83.92
52.726 -139.463 3.216 0.00
52.726 -137.978 3.230 0.79
52.726 -136.493 3.487 426.36
52.726 -135.008 3.851 321.76
52.726 -133.523 3.910 736.99
52.726 -132.038 3.663 2955.80
52.726 -130.553 3.539 5023.02
52.726 -129.068 3.507 3981.48
52.726 -127.583 3.219 3644.73
52.726 -126.098 2.968 4759.33
52.726 -124.613 2.965 6370.69
52.726 -123.128 2.993 4289.69
52.726 -121.643 2.979 4589.99
52.726 -120.158 2.911 5425.00
52.726 -118.673 2.908 5517.84
52.726 -117.188 2.937 4635.72
52.726 -115.703 2.914 3979.50
52.726 -114.218 2.897 4339.67
52.726 -112.733 2.929 7403.17
52.726 -111.248 3.004 7239.06
52.726 -109.763 3.036 7387.47
52.726 -108.278 3.041 9370.96
52.726 -106.793 3.167 12783.25
52.726 -105.308 3.166 11730.26
52.726 -103.823 3.063 11140.17
52.726 -102.338 3.097 10797.57
52.726 -100.853 3.122 8465.27
52.726 -99.368 3.135 4524.37
52.726 -97.883 3.131 3495.56
52.726 -96.398 3.095 2009.90
52.726 -94.913 3.056 3119.05
52.726 -93.428 3.076 2252.56
52.726 -91.943 3.119 2511.87
52.726 -90.458 3.136 2973.49
52.726 -88.973 3.133 2162.73
52.726 -87.488 3.089 2697.61
52.726 -86.003 3.096 3423.04
52.726 -84.518 3.115 2395.86
52.726 -83.033 3.128 1997.57
52.726 -81.548 3.139 1412.51
52.726 -80.063 3.144 1682.61
52.726 -78.578 3.167 2131.34
52.726 -77.093 3.183 1523.96
52.726 -75.608 3.209 1427.95
52.726 -74.123 3.308 1474.44
52.726 -72.638 3.460 862.18
52.726 -71.153 3.587 1297.72
52.726 -69.668 3.582 668.45
52.726 -68.183 3.503 628.79
52.726 -66.698 3.480 556.14
52.726 -65.213 3.507 665.52
52.726 -63.728 3.521 470.11
52.726 -62.243 3.501 519.96
52.726 -60.758 3.443 420.89
52.726 -59.273 3.322 0.00
52.726 -57.788 3.196 22.24
53.625 -141.829 3.057 60.10
53.625 -140.313 3.066 30.71
53.625 -138.796 3.276 30.45
53.625 -137.280 3.629 634.35
53.625 -135.763 3.868 195.80
53.625 -134.247 3.902 1127.03
53.625 -132.730 3.849 1281.37
53.625 -131.214 3.699 1508.64
53.625 -129.697 3.576 2488.36
53.625 -128.181 3.200 2886.90
53.625 -126.665 2.969 3410.16
53.625 -125.148 3.036 4824.72
53.625 -123.632 3.130 3053.59
53.625 -122.115 3.064 3512.62
53.625 -120.599 2.933 5505.61
53.625 -119.082 2.900 4574.77
53.625 -117.566 2.990 4656.10
53.625 -116.049 2.985 3687.46
53.625 -114.533 2.939 5258.90
53.625 -113.016 2.941 6189.55
53.625 -111.500 2.959 7680.26
53.625 -109.983 3.017 9234.50
53.625 -108.467 3.068 10617.59
53.625 -106.951 3.149 13350.95
53.625 -105.434 3.135 11937.32
53.625 -103.918 3.129 8569.21
53.625 -102.401 3.125 8651.18
53.625 -100.885 3.146 9335.63
53.625 -99.368 3.174 4139.99
53.625 -97.852 3.172 2938.86
53.625 -96.335 3.111 2236.38
53.625 -94.819 3.074 2265.66
53.625 -93.302 3.109 2098.81
53.625 -91.786 3.118 2515.46
53.625 -90.269 3.118 2191.74
53.625 -88.753 3.130 2659.45
53.625 -87.237 3.088 3421.62
53.625 -85.720 3.102 2764.13
53.625 -84.204 3.099 1500.48
53.625 -82.687 3.095 1255.73
53.625 -81.171 3.104 1388.52
53.625 -79.654 3.109 2085.83
53.625 -78.138 3.140 1702.56
53.625 -76.621 3.165 1335.58
53.625 -75.105 3.200 1198.73
53.625 -73.588 3.277 1606.40
53.625 -72.072 3.399 826.12
53.625 -70.555 3.505 1138.03
53.625 -69.039 3.612 1003.25
53.625 -67.523 3.570 713.98
53.625 -66.006 3.488 450.34
53.625 -64.490 3.400 366.69
53.625 -62.973 3.336 324.84
53.625 -61.457 3.266 161.64
53.625 -59.940 3.166 28.33
53.625 -58.424 3.072 28.86
53.625 -56.907 3.026 7.15
54.525 -142.759 3.052 0.00
54.525 -141.209 3.096 0.00
54.525 -139.660 3.433 394.58
54.525 -138.110 3.739 317.70
54.525 -136.560 3.809 444.51
54.525 -135.011 3.818 1129.07
54.525 -133.461 3.912 877.71
54.525 -131.911 3.716 1059.58
54.525 -130.362 3.490 2332.93
54.525 -128.812 3.146 2940.79
54.525 -127.262 2.943 3455.22
54.525 -125.713 3.013 4255.69
54.525 -124.163 3.169 3461.50
54.525 -122.613 3.088 3163.18
54.525 -121.064 2.939 4956.17
54.525 -119.514 2.894 4171.64
54.525 -117.964 2.990 4004.16
54.525 -116.415 3.020 3949.77
54.525 -114.865 2.984 4297.82
54.525 -113.315 3.002 5609.00
54.525 -111.766 3.027 8541.18
54.525 -110.216 2.982 10318.24
54.525 -108.666 3.092 11955.77
54.525 -107.117 3.145 13065.42
54.525 -105.567 3.179 10168.44
54.525 -104.017 3.204 7417.08
54.525 -102.468 3.116 7594.37
54.525 -100.918 3.121 7123.24
54.525 -99.368 3.139 5582.19
54.525 -97.819 3.157 2873.80
54.525 -96.269 3.137 2287.55
54.525 -94.719 3.122 2442.48
54.525 -93.170 3.144 2647.27
54.525 -91.620 3.134 1914.02
54.525 -90.070 3.103 2989.95
54.525 -88.520 3.097 2865.15
54.525 -86.971 3.082 2738.25
54.525 -85.421 3.082 1844.54
54.525 -83.871 3.067 1408.55
54.525 -82.322 3.081 1146.81
54.525 -80.772 3.089 1422.51
54.525 -79.222 3.085 2042.92
54.525 -77.673 3.095 1328.61
54.525 -76.123 3.099 802.20
54.525 -74.573 3.105 1274.01
54.525 -73.024 3.136 1040.06
54.525 -71.474 3.185 598.92
54.525 -69.924 3.238 620.01
54.525 -68.375 3.313 1153.83
54.525 -66.825 3.305 1003.93
54.525 -65.275 3.256 271.04
54.525 -63.726 3.196 292.49
54.525 -62.176 3.123 108.74
54.525 -60.626 3.063 0.00
54.525 -59.077 3.018 0.00
54.525 -57.527 2.981 0.00
54.525 -55.977 3.012 0.00
55.424 -143.742 3.170 0.00
55.424 -142.157 3.228 39.96
55.424 -140.572 3.534 564.41
55.424 -138.988 3.753 179.83
55.424 -137.403 3.790 609.32
55.424 -135.818 3.820 1191.13
55.424 -134.233 3.872 642.36
55.424 -132.648 3.591 1579.65
55.424 -131.064 3.390 2287.58
55.424 -129.479 3.155 2774.94
55.424 -127.894 2.929 2853.93
55.424 -126.309 2.963 4134.86
55.424 -124.725 3.153 4196.27
55.424 -123.140 3.051 2908.23
55.424 -121.555 2.924 4575.78
55.424 -119.970 2.913 5905.17
55.424 -118.385 2.958 5201.85
55.424 -116.801 2.995 3768.26
55.424 -115.216 3.040 4962.17
55.424 -113.631 3.070 6412.55
55.424 -112.046 3.088 10128.93
55.424 -110.462 3.041 13340.07
55.424 -108.877 3.006 13094.96
55.424 -107.292 3.120 10906.26
55.424 -105.707 3.169 8986.71
55.424 -104.123 3.193 6550.19
55.424 -102.538 3.136 4902.57
55.424 -100.953 3.103 6636.52
55.424 -99.368 3.110 8223.78
55.424 -97.783 3.144 2521.30
55.424 -96.199 3.160 2864.10
55.424 -94.614 3.141 1650.31
55.424 -93.029 3.155 2583.38
55.424 -91.444 3.120 2098.91
55.424 -89.860 3.078 2929.07
55.424 -88.275 3.084 2176.77
55.424 -86.690 3.066 2496.52
55.424 -85.105 3.046 1528.36
55.424 -83.520 3.057 1640.29
55.424 -81.936 3.077 1133.81
55.424 -80.351 3.075 2061.86
55.424 -78.766 3.079 1791.60
55.424 -77.181 3.077 1313.07
55.424 -75.597 3.057 837.16
55.424 -74.012 3.060 1291.59
55.424 -72.427 3.086 540.46
55.424 -70.842 3.078 454.47
55.424 -69.257 3.070 658.83
55.424 -67.673 3.093 1002.21
55.424 -66.088 3.099 407.64
55.424 -64.503 3.096 332.68
55.424 -62.918 3.063 100.88
55.424 -61.334 3.030 0.00
55.424 -59.749 3.012 0.00
55.424 -58.164 3.000 0.00
55.424 -56.579 2.989 0.00
55.424 -54.995 3.073 0.00
56.324 -144.782 3.327 0.00
56.324 -143.160 3.389 453.52
56.324 -141.538 3.547 169.82
56.324 -139.916 3.723 423.57
56.324 -138.294 3.822 964.96
56.324 -136.672 3.872 860.54
56.324 -135.050 3.767 752.08
56.324 -133.428 3.408 1595.22
56.324 -131.806 3.312 2621.12
56.324 -130.184 3.154 2666.33
56.324 -128.563 2.951 2909.72
56.324 -126.941 2.975 3141.05
56.324 -125.319 3.126 5084.73
56.324 -123.697 3.002 4425.64
56.324 -122.075 2.895 4596.97
56.324 -120.453 2.917 4778.79
56.324 -118.831 2.963 5017.47
56.324 -117.209 2.976 4253.74
56.324 -115.587 3.040 5256.60
56.324 -113.965 3.088 8441.34
56.324 -112.343 3.099 12667.89
56.324 -110.722 3.094 15106.99
56.324 -109.100 2.985 11226.03
56.324 -107.478 3.048 9547.19
56.324 -105.856 3.089 5799.43
56.324 -104.234 3.113 7047.68
56.324 -102.612 3.164 5554.77
56.324 -100.990 3.121 7129.26
56.324 -99.368 3.118 6205.63
56.324 -97.746 3.113 4213.51
56.324 -96.124 3.139 1776.20
56.324 -94.502 3.139 1923.94
56.324 -92.881 3.143 3652.42
56.324 -91.259 3.114 1912.07
56.324 -89.637 3.075 1872.11
56.324 -88.015 3.065 2174.80
56.324 -86.393 3.033 2134.86
56.324 -84.771 2.999 1472.39
56.324 -83.149 3.013 1615.38
56.324 -81.527 3.032 1450.48
56.324 -79.905 3.054 2055.50
56.324 -78.283 3.096 1295.72
56.324 -76.661 3.095 665.12
56.324 -75.040 3.062 958.98
56.324 -73.418 3.060 1224.67
56.324 -71.796 3.080 310.68
56.324 -70.174 3.058 552.43
56.324 -68.552 3.035 537.00
56.324 -66.930 3.043 504.36
56.324 -65.308 3.031 351.02
56.324 -63.686 3.023 203.95
56.324 -62.064 3.016 87.93
56.324 -60.442 3.010 66.94
56.324 -58.820 3.013 0.00
56.324 -57.199 3.009 55.33
56.324 -55.577 3.007 0.00
56.324 -53.955 3.130 0.00
57.223 -145.883 3.475 144.85
57.223 -144.222 3.520 501.47
57.223 -142.561 3.583 22.97
57.223 -140.899 3.731 666.30
57.223 -139.238 3.895 978.87
57.223 -137.577 3.898 975.54
57.223 -135.916 3.600 993.76
57.223 -134.254 3.255 1258.24
57.223 -132.593 3.247 2947.92
57.223 -130.932 3.145 2324.99
57.223 -129.271 3.008 3162.75
57.223 -127.609 3.056 3452.99
57.223 -125.948 3.141 4989.16
57.223 -124.287 2.938 4910.20
57.223 -122.626 2.870 3769.54
57.223 -120.964 2.930 3560.04
57.223 -119.303 2.994 3509.42
57.223 -117.642 2.998 4268.50
57.223 -115.981 3.006 6325.86
57.223 -114.319 3.033 11428.09
57.223 -112.658 3.083 15340.90
57.223 -110.997 3.069 14341.78
57.223 -109.336 2.977 9785.85
57.223 -107.674 2.936 7415.55
57.223 -106.013 2.963 5927.88
57.223 -104.352 3.029 5909.55
57.223 -102.691 3.132 6707.76
57.223 -101.029 3.123 4755.23
57.223 -99.368 3.116 4870.22
57.223 -97.707 3.066 6413.50
57.223 -96.046 3.100 3242.75
57.223 -94.384 3.122 2657.33
57.223 -92.723 3.140 2901.10
57.223 -91.062 3.120 1595.38
57.223 -89.401 3.072 2200.70
57.223 -87.739 3.036 1959.96
57.223 -86.078 3.002 1742.27
57.223 -84.417 2.984 2054.84
57.223 -82.756 3.011 1590.39
57.223 -81.094 3.031 1705.24
57.223 -79.433 3.068 1587.38
57.223 -77.772 3.113 1001.94
57.223 -76.111 3.100 799.18
57.223 -74.449 3.066 1139.86
57.223 -72.788 3.068 948.99
57.223 -71.127 3.071 519.49
57.223 -69.466 3.053 185.35
57.223 -67.805 3.039 573.44
57.223 -66.143 3.049 232.78
57.223 -64.482 3.037 126.88
57.223 -62.821 3.023 134.54
57.223 -61.160 3.006 109.73
57.223 -59.498 3.001 111.06
57.223 -57.837 3.007 96.24
57.223 -56.176 3.000 97.35
57.223 -54.515 3.010 121.38
57.223 -52.853 3.166 2.18
58.122 -147.051 3.597 590.38
58.122 -145.348 3.621 84.91
58.122 -143.645 3.683 260.72
58.122 -141.942 3.823 777.17
58.122 -140.239 3.973 951.57
58.122 -138.537 3.853 1152.80
58.122 -136.834 3.420 198.81
58.122 -135.131 3.134 1794.68
58.122 -133.428 3.177 3857.95
58.122 -131.725 3.126 2817.14
58.122 -130.022 3.065 4520.71
58.122 -128.319 3.098 2761.65
58.122 -126.616 3.132 4659.62
58.122 -124.913 2.921 5257.82
58.122 -123.210 2.868 3223.42
58.122 -121.507 2.894 4173.53
58.122 -119.804 2.966 3335.58
58.122 -118.101 2.983 5911.53
58.122 -116.398 2.977 9854.96
58.122 -114.695 3.029 16543.68
58.122 -112.992 3.089 15243.53
58.122 -111.289 3.121 11964.76
58.122 -109.586 3.047 6743.14
58.122 -107.883 2.952 6242.70
58.122 -106.180 2.902 5483.45
58.122 -104.477 2.998 5025.80
58.122 -102.774 3.117 6146.60
58.122 -101.071 3.140 4267.50
58.122 -99.368 3.080 5148.53
58.122 -97.665 3.062 7046.71
58.122 -95.962 3.099 4602.96
58.122 -94.259 3.159 3161.95
58.122 -92.556 3.171 1774.27
58.122 -90.853 3.146 1773.11
58.122 -89.150 3.084 1730.17
58.122 -87.447 3.031 2176.73
58.122 -85.744 3.001 1935.08
58.122 -84.041 2.996 2341.63
58.122 -82.339 3.023 1691.26
58.122 -80.636 3.056 1144.82
58.122 -78.933 3.099 1235.72
58.122 -77.230 3.124 812.17
58.122 -75.527 3.088 1286.73
58.122 -73.824 3.052 1343.55
58.122 -72.121 3.064 389.65
58.122 -70.418 3.059 360.64
58.122 -68.715 3.049 231.03
58.122 -67.012 3.050 445.57
58.122 -65.309 3.051 132.87
58.122 -63.606 3.036 100.89
58.122 -61.903 3.027 0.00
58.122 -60.200 3.020 56.96
58.122 -58.497 3.016 73.95
58.122 -56.794 3.004 81.77
58.122 -55.091 2.985 111.39
58.122 -53.388 3.001 120.18
58.122 -51.685 3.165 199.13
59.022 -148.292 3.609 744.90
59.022 -146.545 3.651 18.73
59.022 -144.798 3.779 645.32
59.022 -143.050 3.928 955.99
59.022 -141.303 3.978 1140.46
59.022 -139.556 3.696 467.53
59.022 -137.808 3.267 245.12
59.022 -136.061 3.047 4018.37
59.022 -134.314 3.106 5675.55
59.022 -132.567 3.099 3015.73
59.022 -130.819 3.071 4511.10
59.022 -129.072 3.093 2885.25
59.022 -127.325 3.099 5288.67
59.022 -125.577 2.960 5888.20
59.022 -123.830 2.927 4040.89
59.022 -122.083 2.917 3814.58
59.022 -120.336 2.954 3982.57
59.022 -118.588 2.953 8012.59
59.022 -116.841 2.990 16354.93
59.022 -115.094 3.042 18930.03
59.022 -113.346 3.126 12662.60
59.022 -111.599 3.175 7701.20
59.022 -109.852 3.097 4989.82
59.022 -108.105 2.993 5513.36
59.022 -106.357 2.914 3769.51
59.022 -104.610 2.970 4950.48
59.022 -102.863 3.079 5413.54
59.022 -101.115 3.122 4980.80
59.022 -99.368 3.035 5898.46
59.022 -97.621 3.058 4394.03
59.022 -95.874 3.073 6236.75
59.022 -94.126 3.149 3134.92
59.022 -92.379 3.152 1268.72
59.022 -90.632 3.117 1035.92
59.022 -88.884 3.055 1462.49
59.022 -87.137 3.022 2774.21
59.022 -85.390 3.008 2075.89
59.022 -83.643 3.024 2317.62
59.022 -81.895 3.050 1559.39
59.022 -80.148 3.085 857.14
59.022 -78.401 3.124 1435.52
59.022 -76.654 3.116 1104.88
59.022 -74.906 3.060 892.10
59.022 -73.159 3.040 1145.32
59.022 -71.412 3.060 472.27
59.022 -69.664 3.060 108.64
59.022 -67.917 3.059 369.64
59.022 -66.170 3.053 229.63
59.022 -64.423 3.043 104.89
59.022 -62.675 3.029 11.99
59.022 -60.928 3.024 0.00
59.022 -59.181 3.023 0.00
59.022 -57.433 3.024 1.00
59.022 -55.686 3.019 74.95
59.022 -53.939 3.005 56.96
59.022 -52.192 3.012 64.15
59.022 -50.444 3.132 107.72
59.921 -149.612 3.445 809.08
59.921 -147.818 3.516 193.98
59.921 -146.023 3.720 686.32
59.921 -144.229 3.869 1351.59
59.921 -142.434 3.798 720.04
59.921 -140.640 3.459 381.86
59.921 -138.845 3.143 1200.90
59.921 -137.051 3.043 2987.67
59.921 -135.257 3.108 4064.27
59.921 -133.462 3.088 3819.66
59.921 -131.668 3.059 4299.18
59.921 -129.873 3.093 3199.06
59.921 -128.079 3.117 4570.50
59.921 -126.284 3.040 6268.74
59.921 -124.490 2.965 6033.42
59.921 -122.696 2.970 3197.13
59.921 -120.901 2.991 4828.41
59.921 -119.107 2.979 13660.02
59.921 -117.312 2.961 22224.31
59.921 -115.518 2.997 14128.53
59.921 -113.724 3.107 7666.81
59.921 -111.929 3.197 5944.37
59.921 -110.135 3.176 4979.31
59.921 -108.340 3.093 4028.17
59.921 -106.546 2.980 3629.41
59.921 -104.751 2.915 5689.68
59.921 -102.957 2.971 5685.66
59.921 -101.163 3.070 5651.86
59.921 -99.368 3.077 4098.69
59.921 -97.574 3.062 5538.15
59.921 -95.779 3.042 5885.59
59.921 -93.985 3.074 2712.86
59.921 -92.191 3.085 1042.76
59.921 -90.396 3.080 1317.65
59.921 -88.602 3.035 1293.69
59.921 -86.807 3.010 2402.54
59.921 -85.013 3.008 2458.56
59.921 -83.218 3.041 2733.18
59.921 -81.424 3.081 1494.42
59.921 -79.630 3.112 1178.76
59.921 -77.835 3.132 1203.81
59.921 -76.041 3.083 737.27
59.921 -74.246 3.034 1331.40
59.921 -72.452 3.044 633.85
59.921 -70.657 3.070 303.66
59.921 -68.863 3.068 172.82
59.921 -67.069 3.062 344.67
59.921 -65.274 3.049 120.88
59.921 -63.480 3.033 64.93
59.921 -61.685 3.022 0.00
59.921 -59.891 3.020 0.00
59.921 -58.097 3.021 0.00
59.921 -56.302 3.024 0.00
59.921 -54.508 3.025 0.00
59.921 -52.713 3.024 18.99
59.921 -50.919 3.036 75.95
59.921 -49.124 3.105 201.86
60.820 -151.018 3.241 202.75
60.820 -149.173 3.286 1284.47
60.820 -147.329 3.488 1208.66
60.820 -145.484 3.593 1828.98
60.820 -143.639 3.496 1077.39
60.820 -141.795 3.204 317.09
60.820 -139.950 3.035 1242.88
60.820 -138.106 3.051 1585.69
60.820 -136.261 3.111 2855.26
60.820 -134.416 3.101 4515.68
60.820 -132.572 3.040 4063.99
60.820 -130.727 3.095 3395.26
60.820 -128.882 3.129 3381.85
60.820 -127.038 3.083 7543.84
60.820 -125.193 2.944 5374.09
60.820 -123.348 2.982 3245.47
60.820 -121.504 3.015 9868.84
60.820 -119.659 3.020 26073.89
60.820 -117.815 2.953 16998.94
60.820 -115.970 2.955 7159.43
60.820 -114.125 3.041 7078.21
60.820 -112.281 3.144 4927.54
60.820 -110.436 3.245 4509.76
60.820 -108.591 3.218 4713.70
60.820 -106.747 3.063 5334.29
60.820 -104.902 2.956 4174.74
60.820 -103.057 2.927 3589.32
60.820 -101.213 3.012 5632.33
60.820 -99.368 3.108 4745.13
60.820 -97.524 3.051 5035.70
60.820 -95.679 3.002 3966.52
60.820 -93.834 2.989 6101.21
60.820 -91.990 3.043 1166.33
60.820 -90.145 3.066 1401.61
60.820 -88.300 3.020 1377.58
60.820 -86.456 2.985 2764.18
60.820 -84.611 2.992 3314.65
60.820 -82.766 3.038 2531.35
60.820 -80.922 3.090 735.25
60.820 -79.077 3.126 1459.76
60.820 -77.233 3.117 1170.36
60.820 -75.388 3.049 932.10
60.820 -73.543 3.026 1098.09
60.820 -71.699 3.065 406.55
60.820 -69.854 3.084 207.76
60.820 -68.009 3.072 426.59
60.820 -66.165 3.054 175.83
60.820 -64.320 3.039 100.89
60.820 -62.475 3.026 0.00
60.820 -60.631 3.020 0.00
60.820 -58.786 3.020 0.00
60.820 -56.942 3.020 0.00
60.820 -55.097 3.021 0.00
60.820 -53.252 3.021 0.00
60.820 -51.408 3.024 0.00
60.820 -49.563 3.035 0.00
60.820 -47.718 3.072 35.98
61.720 -152.518 3.130 103.94
61.720 -150.620 3.154 524.26
61.720 -148.722 3.288 2371.90
61.720 -146.824 3.350 2224.22
61.720 -144.926 3.242 2378.15
61.720 -143.027 3.028 1777.16
61.720 -141.129 2.954 1458.49
61.720 -139.231 3.005 1577.43
61.720 -137.333 3.053 3020.18
61.720 -135.434 3.076 5251.50
61.720 -133.536 3.055 3613.67
61.720 -131.638 3.086 5400.72
61.720 -129.740 3.091 3152.99
61.720 -127.842 3.059 7544.02
61.720 -125.943 2.945 4780.37
61.720 -124.045 2.974 5730.57
61.720 -122.147 3.009 30621.33
61.720 -120.249 3.001 21564.61
61.720 -118.350 2.965 7015.85
61.720 -116.452 2.969 5198.97
61.720 -114.554 3.037 5777.71
61.720 -112.656 3.113 5620.98
61.720 -110.758 3.247 5509.27
61.720 -108.859 3.262 4891.11
61.720 -106.961 3.142 3973.03
61.720 -105.063 3.037 3094.20
61.720 -103.165 2.965 3332.53
61.720 -101.266 2.948 3931.04
61.720 -99.368 3.054 5433.47
61.720 -97.470 3.055 4711.25
61.720 -95.572 3.029 4049.84
61.720 -93.674 2.983 5157.54
61.720 -91.775 3.033 3081.33
61.720 -89.877 3.061 1546.44
61.720 -87.979 3.005 1956.99
61.720 -86.081 2.973 3166.79
61.720 -84.182 2.981 2995.97
61.720 -82.284 3.030 1386.57
61.720 -80.386 3.088 881.11
61.720 -78.488 3.116 1607.93
61.720 -76.590 3.090 912.82
61.720 -74.691 3.042 853.14
61.720 -72.793 3.048 817.12
61.720 -70.895 3.086 412.65
61.720 -68.997 3.086 318.67
61.720 -67.098 3.064 313.70
61.720 -65.200 3.045 130.87
61.720 -63.302 3.031 13.99
61.720 -61.404 3.021 0.00
61.720 -59.505 3.020 0.00
61.720 -57.607 3.021 0.00
61.720 -55.709 3.021 0.00
61.720 -53.811 3.021 0.00
61.720 -51.913 3.020 0.00
61.720 -50.014 3.018 0.00
61.720 -48.116 3.021 0.00
61.720 -46.218 3.034 0.00
62.619 -154.123 3.055 107.64
62.619 -152.167 3.063 405.38
62.619 -150.212 3.158 542.39
62.619 -148.256 3.203 1546.27
62.619 -146.301 3.124 2105.54
62.619 -144.345 2.973 3201.16
62.619 -142.390 2.928 2291.06
62.619 -140.434 2.961 2992.12
62.619 -138.479 2.992 4913.69
62.619 -136.523 3.054 5234.14
62.619 -134.567 3.085 4493.82
62.619 -132.612 3.050 5391.32
62.619 -130.656 2.987 5216.76
62.619 -128.701 2.939 6868.94
62.619 -126.745 2.903 4683.72
62.619 -124.790 2.950 33915.80
62.619 -122.834 2.947 29266.71
62.619 -120.879 2.961 7345.19
62.619 -118.923 3.003 4977.65
62.619 -116.968 3.023 5735.61
62.619 -115.012 3.069 6582.21
62.619 -113.057 3.137 5021.63
62.619 -111.101 3.230 4958.66
62.619 -109.146 3.278 4967.23
62.619 -107.190 3.149 3733.66
62.619 -105.235 3.040 3193.83
62.619 -103.279 2.989 2530.46
62.619 -101.324 2.944 2825.11
62.619 -99.368 2.934 4353.64
62.619 -97.413 3.033 3804.20
62.619 -95.457 3.061 5224.70
62.619 -93.502 3.020 3466.24
62.619 -91.546 3.005 7048.22
62.619 -89.591 3.037 1589.08
62.619 -87.635 3.007 2586.37
62.619 -85.680 2.993 3679.30
62.619 -83.724 2.985 2167.80
62.619 -81.769 3.022 1466.77
62.619 -79.813 3.073 815.69
62.619 -77.858 3.100 1319.40
62.619 -75.902 3.076 938.02
62.619 -73.946 3.050 1273.69
62.619 -71.991 3.079 356.62
62.619 -70.035 3.107 379.57
62.619 -68.080 3.086 435.58
62.619 -66.124 3.054 180.82
62.619 -64.169 3.035 61.94
62.619 -62.213 3.023 0.00
62.619 -60.258 3.019 0.00
62.619 -58.302 3.020 0.00
62.619 -56.347 3.021 0.00
62.619 -54.391 3.021 0.00
62.619 -52.436 3.021 0.00
62.619 -50.480 3.021 0.00
62.619 -48.525 3.020 0.00
62.619 -46.569 3.018 0.00
62.619 -44.614 3.017 0.00
63.518 -155.841 3.013 38.96
63.518 -153.824 3.012 94.45
63.518 -151.807 3.060 1237.60
63.518 -149.790 3.076 3003.57
63.518 -147.773 3.013 3139.96
63.518 -145.757 2.933 3145.36
63.518 -143.740 2.909 3132.82
63.518 -141.723 2.936 3397.25
63.518 -139.706 2.990 5365.37
63.518 -137.689 3.072 6984.18
63.518 -135.672 3.099 6630.44
63.518 -133.655 3.009 7827.04
63.518 -131.638 2.881 7740.48
63.518 -129.622 2.818 8270.70
63.518 -127.605 2.865 8218.35
63.518 -125.588 2.898 36831.25
63.518 -123.571 2.921 8894.41
63.518 -121.554 2.970 5767.11
63.518 -119.537 3.025 5533.74
63.518 -117.520 3.061 5021.35
63.518 -115.503 3.095 3818.45
63.518 -113.486 3.129 3087.70
63.518 -111.470 3.201 4369.72
63.518 -109.453 3.243 4931.18
63.518 -107.436 3.127 2733.30
63.518 -105.419 3.011 2231.86
63.518 -103.402 2.964 2356.59
63.518 -101.385 2.941 2133.77
63.518 -99.368 2.901 2972.03
63.518 -97.351 2.973 4251.72
63.518 -95.334 3.029 4699.29
63.518 -93.318 3.031 3729.16
63.518 -91.301 2.975 6146.37
63.518 -89.284 2.998 5707.76
63.518 -87.267 3.023 4482.49
63.518 -85.250 3.041 3160.07
63.518 -83.233 3.022 1644.96
63.518 -81.216 3.049 1331.12
63.518 -79.199 3.098 829.15
63.518 -77.182 3.119 1476.45
63.518 -75.166 3.078 1043.93
63.518 -73.149 3.073 1215.71
63.518 -71.132 3.116 774.24
63.518 -69.115 3.123 911.23
63.518 -67.098 3.079 290.72
63.518 -65.081 3.045 103.89
63.518 -63.064 3.027 0.00
63.518 -61.047 3.019 0.00
63.518 -59.030 3.019 0.00
63.518 -57.014 3.021 0.00
63.518 -54.997 3.021 0.00
63.518 -52.980 3.021 0.00
63.518 -50.963 3.021 0.00
63.518 -48.946 3.022 0.00
63.518 -46.929 3.021 0.00
63.518 -44.912 3.020 0.00
63.518 -42.895 3.017 0.00
64.418 -157.686 3.009 0.00
64.418 -155.603 3.008 0.00
64.418 -153.520 3.017 46.23
64.418 -151.437 3.006 1205.14
64.418 -149.355 2.972 2784.47
64.418 -147.272 2.924 3657.50
64.418 -145.189 2.897 3835.57
64.418 -143.106 2.914 3719.92
64.418 -141.023 2.992 4972.23
64.418 -138.941 3.062 8472.61
64.418 -136.858 3.061 7712.92
64.418 -134.775 3.027 9080.93
64.418 -132.692 2.970 8474.37
64.418 -130.610 2.887 8386.68
64.418 -128.527 2.936 11925.09
64.418 -126.444 2.923 8402.48
64.418 -124.361 2.958 6092.13
64.418 -122.279 3.007 5802.97
64.418 -120.196 3.021 4198.10
64.418 -118.113 3.048 2700.96
64.418 -116.030 3.089 3016.02
64.418 -113.948 3.130 2812.25
64.418 -111.865 3.163 3440.88
64.418 -109.782 3.158 3985.61
64.418 -107.699 3.082 2051.84
64.418 -105.616 3.009 2016.97
64.418 -103.534 2.975 2557.63
64.418 -101.451 2.980 2646.45
64.418 -99.368 2.974 2523.56
64.418 -97.285 2.922 4575.50
64.418 -95.203 2.958 3745.93
64.418 -93.120 2.981 4190.73
64.418 -91.037 2.928 3136.07
64.418 -88.954 2.940 10736.74
64.418 -86.872 3.096 8911.11
64.418 -84.789 3.087 2041.81
64.418 -82.706 3.059 1426.66
64.418 -80.623 3.092 1385.66
64.418 -78.541 3.133 989.06
64.418 -76.458 3.140 1272.79
64.418 -74.375 3.102 1388.69
64.418 -72.292 3.110 1032.03
64.418 -70.210 3.126 496.55
64.418 -68.127 3.103 579.44
64.418 -66.044 3.060 202.15
64.418 -63.961 3.033 8.99
64.418 -61.878 3.019 0.00
64.418 -59.796 3.017 0.00
64.418 -57.713 3.020 0.00
64.418 -55.630 3.021 0.00
64.418 -53.547 3.021 0.00
64.418 -51.465 3.021 0.00
64.418 -49.382 3.021 0.00
64.418 -47.299 3.021 0.00
64.418 -45.216 3.020 12.72
64.418 -43.134 3.019 408.16
64.418 -41.051 3.018 19.98
65.317 -159.670 3.015 0.00
65.317 -157.516 3.017 0.00
65.317 -155.363 3.016 0.00
65.317 -153.209 3.003 2.45
65.317 -151.055 2.984 570.87
65.317 -148.902 2.956 1401.18
65.317 -146.748 2.925 3137.75
65.317 -144.595 2.942 4806.16
65.317 -142.441 3.020 4700.65
65.317 -140.287 3.066 9361.33
65.317 -138.134 3.039 5486.07
65.317 -135.980 3.089 3881.84
65.317 -133.826 3.083 7873.42
65.317 -131.673 2.966 5804.60
65.317 -129.519 2.952 6644.76
65.317 -127.365 2.943 3520.67
65.317 -125.212 2.952 3083.09
65.317 -123.058 2.979 3415.72
65.317 -120.905 2.989 3470.11
65.317 -118.751 2.998 3123.45
65.317 -116.597 3.039 2032.18
65.317 -114.444 3.108 2227.16
65.317 -112.290 3.154 3038.72
65.317 -110.136 3.141 2201.08
65.317 -107.983 3.077 1973.34
65.317 -105.829 3.040 1957.99
65.317 -103.675 3.002 1740.29
65.317 -101.522 2.993 2127.94
65.317 -99.368 3.001 2400.50
65.317 -97.215 2.960 2983.94
65.317 -95.061 2.935 4396.46
65.317 -92.907 2.945 5326.52
65.317 -90.754 2.973 3552.64
65.317 -88.600 3.014 2790.47
65.317 -86.446 3.098 1539.47
65.317 -84.293 3.090 1170.81
65.317 -82.139 3.060 1209.76
65.317 -79.985 3.094 1166.79
65.317 -77.832 3.136 1190.77
65.317 -75.678 3.126 1303.67
65.317 -73.525 3.096 1463.50
65.317 -71.371 3.106 505.47
65.317 -69.217 3.110 443.57
65.317 -67.064 3.074 257.75
65.317 -64.910 3.042 76.26
65.317 -62.756 3.023 0.00
65.317 -60.603 3.017 0.00
65.317 -58.449 3.019 0.00
65.317 -56.295 3.022 0.00
65.317 -54.142 3.022 0.00
65.317 -51.988 3.021 0.00
65.317 -49.835 3.021 0.00
65.317 -47.681 3.021 0.00
65.317 -45.527 3.021 0.00
65.317 -43.374 3.020 0.00
65.317 -41.220 3.018 76.68
65.317 -39.066 3.017 473.43
66.216 -161.810 3.017 865.10
66.216 -159.580 3.019 353.68
66.216 -157.350 3.021 361.67
66.216 -155.120 3.019 372.66
66.216 -152.890 3.009 333.68
66.216 -150.660 2.991 679.21
66.216 -148.430 2.965 1276.83
66.216 -146.200 2.977 831.34
66.216 -143.970 3.033 4084.85
66.216 -141.740 3.017 12833.02
66.216 -139.510 2.998 6503.55
66.216 -137.279 3.055 6253.50
66.216 -135.049 3.066 10305.38
66.216 -132.819 2.946 5847.53
66.216 -130.589 2.933 5133.61
66.216 -128.359 2.963 4316.30
66.216 -126.129 2.985 4138.35
66.216 -123.899 2.987 2952.97
66.216 -121.669 2.978 2769.88
66.216 -119.439 2.980 3147.34
66.216 -117.209 3.004 3102.30
66.216 -114.979 3.066 2346.24
66.216 -112.749 3.129 2094.01
66.216 -110.519 3.130 1696.81
66.216 -108.288 3.095 2185.61
66.216 -106.058 3.073 2350.64
66.216 -103.828 3.042 2307.59
66.216 -101.598 3.001 2605.39
66.216 -99.368 3.020 2828.12
66.216 -97.138 3.045 3476.36
66.216 -94.908 3.009 5348.09
66.216 -92.678 2.988 5181.37
66.216 -90.448 3.023 2978.30
66.216 -88.218 3.062 963.08
66.216 -85.988 3.099 1050.76
66.216 -83.758 3.084 1279.70
66.216 -81.528 3.059 1650.36
66.216 -79.298 3.097 1177.79
66.216 -77.067 3.138 1673.31
66.216 -74.837 3.112 1208.76
66.216 -72.607 3.101 947.99
66.216 -70.377 3.108 476.49
66.216 -68.147 3.094 551.48
66.216 -65.917 3.060 206.80
66.216 -63.687 3.038 20.98
66.216 -61.457 3.028 0.00
66.216 -59.227 3.028 0.00
66.216 -56.997 3.031 0.00
66.216 -54.767 3.032 0.00
66.216 -52.537 3.028 0.00
66.216 -50.307 3.023 0.00
66.216 -48.077 3.021 0.00
66.216 -45.846 3.021 0.00
66.216 -43.616 3.021 0.00
66.216 -41.386 3.021 0.00
66.216 -39.156 3.020 0.00
66.216 -36.926 3.018 0.00
67.116 -164.125 3.015 149.04
67.116 -161.812 3.015 170.71
67.116 -159.499 3.018 148.04
67.116 -157.186 3.020 0.00
67.116 -154.874 3.017 49.97
67.116 -152.561 3.008 95.93
67.116 -150.248 2.990 890.91
67.116 -147.935 2.994 2172.01
67.116 -145.623 3.018 1138.46
67.116 -143.310 2.915 1347.45
67.116 -140.997 2.857 2544.03
67.116 -138.685 2.887 3353.80
67.116 -136.372 2.938 2661.48
67.116 -134.059 2.874 3846.88
67.116 -131.746 2.889 3420.39
67.116 -129.434 2.957 1879.82
67.116 -127.121 3.020 1805.57
67.116 -124.808 3.030 1428.77
67.116 -122.495 3.023 1298.45
67.116 -120.183 3.017 1121.30
67.116 -117.870 3.013 1158.87
67.116 -115.557 3.027 1182.83
67.116 -113.245 3.076 1159.83
67.116 -110.932 3.125 1587.43
67.116 -108.619 3.129 1647.17
67.116 -106.306 3.125 2253.50
67.116 -103.994 3.105 2481.79
67.116 -101.681 3.055 2196.05
67.116 -99.368 3.026 2792.63
67.116 -97.055 3.071 2679.64
67.116 -94.743 3.102 2925.78
67.116 -92.430 3.095 3700.05
67.116 -90.117 3.058 4014.39
67.116 -87.805 3.063 1425.39
67.116 -85.492 3.064 996.28
67.116 -83.179 3.041 1190.78
67.116 -80.866 3.038 1555.42
67.116 -78.554 3.082 878.07
67.116 -76.241 3.121 1695.28
67.116 -73.928 3.108 1690.27
67.116 -71.615 3.118 710.27
67.116 -69.303 3.119 648.37
67.116 -66.990 3.086 315.70
67.116 -64.677 3.060 103.90
67.116 -62.365 3.046 100.91
67.116 -60.052 3.043 98.91
67.116 -57.739 3.046 95.91
67.116 -55.426 3.048 94.91
67.116 -53.114 3.047 163.83
67.116 -50.801 3.038 114.79
67.116 -48.488 3.027 0.00
67.116 -46.176 3.022 0.00
67.116 -43.863 3.021 0.00
67.116 -41.550 3.022 0.00
67.116 -39.237 3.023 0.00
67.116 -36.925 3.021 0.00
67.116 -34.612 3.018 0.00
68.015 -166.634 3.015 0.00
68.015 -164.232 3.018 0.00
68.015 -161.829 3.019 24.67
68.015 -159.427 3.018 177.04
68.015 -157.025 3.016 177.71
68.015 -154.622 3.013 156.05
68.015 -152.220 3.006 0.00
68.015 -149.818 3.005 269.59
68.015 -147.415 2.999 1318.99
68.015 -145.013 2.882 1194.73
68.015 -142.611 2.789 2454.80
68.015 -140.208 2.812 2544.31
68.015 -137.806 2.882 1818.34
68.015 -135.404 2.873 4090.96
68.015 -133.001 2.910 2150.67
68.015 -130.599 2.990 1238.04
68.015 -128.196 3.042 695.37
68.015 -125.794 3.068 898.20
68.015 -123.392 3.071 780.84
68.015 -120.989 3.052 783.72
68.015 -118.587 3.029 987.23
68.015 -116.185 3.016 963.11
68.015 -113.782 3.033 1204.09
68.015 -111.380 3.076 1211.07
68.015 -108.978 3.118 1356.05
68.015 -106.575 3.134 1286.55
68.015 -104.173 3.143 1986.02
68.015 -101.771 3.104 1700.26
68.015 -99.368 3.055 1701.29
68.015 -96.966 3.075 2169.89
68.015 -94.563 3.158 2619.29
68.015 -92.161 3.170 4524.41
68.015 -89.759 3.106 4349.50
68.015 -87.356 3.025 2384.96
68.015 -84.954 3.001 1435.54
68.015 -82.552 2.990 1034.93
68.015 -80.149 3.014 1764.20
68.015 -77.747 3.067 868.08
68.015 -75.345 3.105 1655.30
68.015 -72.942 3.103 1331.61
68.015 -70.540 3.108 541.43
68.015 -68.138 3.092 424.60
68.015 -65.735 3.058 41.96
68.015 -63.333 3.038 0.00
68.015 -60.931 3.032 0.00
68.015 -58.528 3.036 49.94
68.015 -56.126 3.039 82.90
68.015 -53.723 3.039 80.91
68.015 -51.321 3.035 8.99
68.015 -48.919 3.029 0.00
68.015 -46.516 3.023 0.00
68.015 -44.114 3.021 0.00
68.015 -41.712 3.021 0.00
68.015 -39.309 3.022 0.00
68.015 -36.907 3.020 0.00
68.015 -34.505 3.015 0.00
68.015 -32.102 3.008 0.00
68.915 -169.364 3.004 0.00
68.915 -166.864 3.007 0.00
68.915 -164.364 3.011 0.00
68.915 -161.865 3.011 0.00
68.915 -159.365 3.010 0.00
68.915 -156.865 3.007 26.00
68.915 -154.365 3.001 184.71
68.915 -151.865 2.996 270.96
68.915 -149.365 2.975 502.23
68.915 -146.865 2.885 1251.59
68.915 -144.366 2.804 3551.97
68.915 -141.866 2.828 2982.06
68.915 -139.366 2.916 346.74
68.915 -136.866 2.944 354.26
68.915 -134.366 2.963 381.70
68.915 -131.866 2.994 610.41
68.915 -129.366 3.013 723.37
68.915 -126.867 3.030 307.76
68.915 -124.367 3.050 362.41
68.915 -121.867 3.062 657.90
68.915 -119.367 3.052 600.25
68.915 -116.867 3.026 728.26
68.915 -114.367 3.010 676.39
68.915 -111.867 3.018 734.34
68.915 -109.368 3.060 701.30
68.915 -106.868 3.122 1003.13
68.915 -104.368 3.159 1030.87
68.915 -101.868 3.159 1881.08
68.915 -99.368 3.109 1665.20
68.915 -96.868 3.075 1871.10
68.915 -94.368 3.145 2505.46
68.915 -91.869 3.218 3416.37
68.915 -89.369 3.161 4988.84
68.915 -86.869 3.041 3222.06
68.915 -84.369 2.950 1927.46
68.915 -81.869 2.945 1084.33
68.915 -79.369 2.991 1701.25
68.915 -76.870 3.064 1328.62
68.915 -74.370 3.109 1819.13
68.915 -71.870 3.112 838.11
68.915 -69.370 3.103 692.32
68.915 -66.870 3.067 113.89
68.915 -64.370 3.038 65.92
68.915 -61.870 3.027 85.90
68.915 -59.371 3.026 85.90
68.915 -56.871 3.028 33.96
68.915 -54.371 3.026 0.00
68.915 -51.871 3.025 0.00
68.915 -49.371 3.023 0.00
68.915 -46.871 3.022 0.00
68.915 -44.371 3.020 0.00
68.915 -41.872 3.021 0.00
68.915 -39.372 3.021 0.00
68.915 -36.872 3.021 0.00
68.915 -34.372 3.017 0.00
68.915 -31.872 3.007 85.92
68.915 -29.372 2.996 163.85
69.814 -172.344 2.983 281.72
69.814 -169.737 2.984 96.90
69.814 -167.131 2.992 100.89
69.814 -164.525 2.994 105.89
69.814 -161.919 2.993 111.88
69.814 -159.312 2.991 117.88
69.814 -156.706 2.988 124.87
69.814 -154.100 2.988 112.89
69.814 -151.494 2.978 125.88
69.814 -148.887 2.922 354.03
69.814 -146.281 2.865 2517.96
69.814 -143.675 2.906 1278.00
69.814 -141.069 2.963 20.86
69.814 -138.462 2.989 0.00
69.814 -135.856 2.994 26.97
69.814 -133.250 2.984 123.89
69.814 -130.643 2.972 355.65
69.814 -128.037 2.972 609.41
69.814 -125.431 2.993 410.65
69.814 -122.825 3.023 139.86
69.814 -120.218 3.046 379.81
69.814 -117.612 3.038 480.30
69.814 -115.006 3.003 411.13
69.814 -112.400 2.983 412.16
69.814 -109.793 2.998 774.78
69.814 -107.187 3.058 556.03
69.814 -104.581 3.131 658.37
69.814 -101.974 3.178 1061.83
69.814 -99.368 3.160 1882.05
69.814 -96.762 3.114 1738.64
69.814 -94.156 3.115 2304.25
69.814 -91.549 3.213 2912.60
69.814 -88.943 3.221 5057.37
69.814 -86.337 3.126 5094.46
69.814 -83.731 2.996 1502.82
69.814 -81.124 2.965 1169.21
69.814 -78.518 3.004 1851.09
69.814 -75.912 3.078 1793.15
69.814 -73.306 3.124 1946.96
69.814 -70.699 3.124 735.25
69.814 -68.093 3.092 490.49
69.814 -65.487 3.050 88.90
69.814 -62.880 3.026 22.97
69.814 -60.274 3.021 0.00
69.814 -57.668 3.023 0.00
69.814 -55.062 3.023 0.00
69.814 -52.455 3.021 0.00
69.814 -49.849 3.020 0.00
69.814 -47.243 3.020 0.00
69.814 -44.637 3.020 0.00
69.814 -42.030 3.021 0.00
69.814 -39.424 3.021 0.00
69.814 -36.818 3.022 0.00
69.814 -34.211 3.022 0.00
69.814 -31.605 3.020 0.00
69.814 -28.999 3.014 0.00
69.814 -26.393 3.004 0.00
70.713 -175.608 2.989 65.94
70.713 -172.885 2.987 88.92
70.713 -170.162 2.991 92.91
70.713 -167.439 2.991 96.91
70.713 -164.717 2.989 100.91
70.713 -161.994 2.988 106.90
70.713 -159.271 2.991 112.89
70.713 -156.548 3.000 57.95
70.713 -153.825 3.010 0.00
70.713 -151.102 2.993 0.00
70.713 -148.379 2.962 0.00
70.713 -145.657 2.972 32.22
70.713 -142.934 2.983 86.24
70.713 -140.211 2.991 85.07
70.713 -137.488 2.989 41.96
70.713 -134.765 2.977 0.00
70.713 -132.042 2.959 49.95
70.713 -129.320 2.950 219.80
70.713 -126.597 2.957 478.52
70.713 -123.874 2.975 511.53
70.713 -121.151 2.996 168.87
70.713 -118.428 3.006 158.27
70.713 -115.705 2.999 743.27
70.713 -112.982 2.986 649.38
70.713 -110.260 2.989 336.68
70.713 -107.537 3.015 430.60
70.713 -104.814 3.059 633.48
70.713 -102.091 3.119 743.70
70.713 -99.368 3.148 1004.57
70.713 -96.645 3.130 1973.05
70.713 -93.923 3.113 2101.79
70.713 -91.200 3.138 3130.92
70.713 -88.477 3.229 4298.53
70.713 -85.754 3.240 6402.66
70.713 -83.031 3.134 2082.99
70.713 -80.308 3.045 1580.76
70.713 -77.585 3.041 2173.75
70.713 -74.863 3.087 2434.49
70.713 -72.140 3.128 1611.32
70.713 -69.417 3.118 723.58
70.713 -66.694 3.064 26.97
70.713 -63.971 3.027 0.00
70.713 -61.248 3.017 0.00
70.713 -58.525 3.019 0.00
70.713 -55.803 3.021 0.00
70.713 -53.080 3.021 0.00
70.713 -50.357 3.020 0.00
70.713 -47.634 3.021 0.00
70.713 -44.911 3.021 0.00
70.713 -42.188 3.021 0.00
70.713 -39.466 3.021 0.00
70.713 -36.743 3.021 0.00
70.713 -34.020 3.021 0.00
70.713 -31.297 3.022 0.00
70.713 -28.574 3.022 0.00
70.713 -25.851 3.021 0.00
70.713 -23.128 3.017 0.00
71.613 -179.198 3.011 0.00
71.613 -176.347 3.013 0.00
71.613 -173.496 3.013 0.00
71.613 -170.645 3.012 0.00
71.613 -167.794 3.010 0.00
71.613 -164.943 3.010 0.00
71.613 -162.092 3.011 0.00
71.613 -159.241 3.017 0.00
71.613 -156.390 3.026 0.00
71.613 -153.539 3.028 0.00
71.613 -150.688 3.018 0.00
71.613 -147.837 3.016 0.00
71.613 -144.985 3.012 0.00
71.613 -142.134 3.004 2.25
71.613 -139.283 2.990 46.36
71.613 -136.432 2.976 89.55
71.613 -133.581 2.965 88.92
71.613 -130.730 2.953 89.92
71.613 -127.879 2.945 84.92
71.613 -125.028 2.940 347.67
71.613 -122.177 2.936 617.39
71.613 -119.326 2.933 633.31
71.613 -116.475 2.955 255.41
71.613 -113.624 2.988 413.58
71.613 -110.773 3.002 453.55
71.613 -107.921 2.994 374.64
71.613 -105.070 2.996 407.62
71.613 -102.219 3.020 678.03
71.613 -99.368 3.072 791.19
71.613 -96.517 3.117 1045.93
71.613 -93.666 3.133 2462.48
71.613 -90.815 3.152 2682.23
71.613 -87.964 3.225 3473.45
71.613 -85.113 3.302 5919.20
71.613 -82.262 3.256 4883.13
71.613 -79.411 3.119 1532.97
71.613 -76.560 3.068 2179.73
71.613 -73.708 3.084 3175.73
71.613 -70.857 3.119 951.05
71.613 -68.006 3.100 115.88
71.613 -65.155 3.037 0.00
71.613 -62.304 3.013 0.00
71.613 -59.453 3.015 0.00
71.613 -56.602 3.020 0.00
71.613 -53.751 3.021 0.00
71.613 -50.900 3.021 0.00
71.613 -48.049 3.022 0.00
71.613 -45.198 3.023 0.00
71.613 -42.347 3.023 0.00
71.613 -39.496 3.022 0.00
71.613 -36.644 3.021 0.00
71.613 -33.793 3.021 0.00
71.613 -30.942 3.021 0.00
71.613 -28.091 3.021 0.00
71.613 -25.240 3.022 0.00
71.613 -22.389 3.022 0.00
71.613 -19.538 3.022 0.00
72.512 -177.180 3.023 0.00
72.512 -174.187 3.022 0.00
72.512 -171.194 3.022 0.00
72.512 -168.202 3.022 0.00
72.512 -165.209 3.021 0.00
72.512 -162.216 3.022 0.00
72.512 -159.223 3.024 0.00
72.512 -156.231 3.027 0.00
72.512 -153.238 3.027 0.00
72.512 -150.245 3.025 0.00
72.512 -147.252 3.023 0.00
72.512 -144.260 3.019 0.00
72.512 -141.267 3.012 0.00
72.512 -138.274 3.007 1.84
72.512 -135.281 3.003 3.52
72.512 -132.289 2.992 2.95
72.512 -129.296 2.968 75.93
72.512 -126.303 2.943 93.91
72.512 -123.310 2.915 183.83
72.512 -120.318 2.898 553.46
72.512 -117.325 2.904 805.11
72.512 -114.332 2.929 509.28
72.512 -111.339 2.959 377.65
72.512 -108.346 2.977 687.32
72.512 -105.354 2.965 571.45
72.512 -102.361 2.972 537.50
72.512 -99.368 3.025 733.35
72.512 -96.375 3.101 674.34
72.512 -93.383 3.176 1464.57
72.512 -90.390 3.192 2754.15
72.512 -87.397 3.225 3018.83
72.512 -84.404 3.320 4821.42
72.512 -81.412 3.373 8628.50
72.512 -78.419 3.253 2057.97
72.512 -75.426 3.130 3335.55
72.512 -72.433 3.089 2781.13
72.512 -69.441 3.098 474.54
72.512 -66.448 3.065 0.00
72.512 -63.455 3.017 0.00
72.512 -60.462 3.011 0.00
72.512 -57.470 3.019 0.00
72.512 -54.477 3.022 0.00
72.512 -51.484 3.023 0.00
72.512 -48.491 3.024 0.00
72.512 -45.499 3.026 0.00
72.512 -42.506 3.027 23.97
72.512 -39.513 3.026 55.99
72.512 -36.520 3.023 0.00
72.512 -33.527 3.021 0.00
72.512 -30.535 3.021 0.00
72.512 -27.542 3.021 0.00
72.512 -24.549 3.021 0.00
72.512 -21.556 3.021 0.00
72.512 -18.564 3.021 0.00
72.512 -15.571 3.022 0.00
73.411 -178.120 3.022 0.00
73.411 -174.970 3.022 0.00
73.411 -171.820 3.022 0.00
73.411 -168.670 3.022 0.00
73.411 -165.520 3.022 0.00
73.411 -162.370 3.021 0.00
73.411 -159.220 3.021 0.00
73.411 -156.070 3.022 0.00
73.411 -152.919 3.023 0.00
73.411 -149.769 3.023 0.00
73.411 -146.619 3.023 0.00
73.411 -143.469 3.022 0.00
73.411 -140.319 3.022 0.00
73.411 -137.169 3.023 0.00
73.411 -134.019 3.021 0.61
73.411 -130.869 3.012 3.65
73.411 -127.719 3.000 3.69
73.411 -124.569 2.984 2.25
73.411 -121.419 2.965 0.00
73.411 -118.269 2.948 101.90
73.411 -115.119 2.941 498.39
73.411 -111.969 2.948 794.01
73.411 -108.818 2.965 508.56
73.411 -105.668 2.982 603.45
73.411 -102.518 2.993 722.29
73.411 -99.368 3.006 535.89
73.411 -96.218 3.061 629.27
73.411 -93.068 3.122 1545.54
73.411 -89.918 3.164 1109.89
73.411 -86.768 3.211 2574.33
73.411 -83.618 3.307 4324.87
73.411 -80.468 3.467 8987.67
73.411 -77.318 3.426 6308.94
73.411 -74.168 3.246 5321.50
73.411 -71.018 3.130 1657.31
73.411 -67.867 3.092 4.99
73.411 -64.717 3.024 0.00
73.411 -61.567 3.006 0.00
73.411 -58.417 3.019 0.00
73.411 -55.267 3.026 0.00
73.411 -52.117 3.026 0.00
73.411 -48.967 3.027 7.99
73.411 -45.817 3.030 76.91
73.411 -42.667 3.030 74.91
73.411 -39.517 3.028 49.94
73.411 -36.367 3.025 0.00
73.411 -33.217 3.022 0.00
73.411 -30.067 3.021 0.00
73.411 -26.916 3.021 0.00
73.411 -23.766 3.021 0.00
73.411 -20.616 3.021 0.00
73.411 -17.466 3.021 0.00
73.411 -14.316 3.021 0.00
73.411 -11.166 3.021 0.00
74.311 -179.185 3.021 0.00
74.311 -175.860 3.021 0.00
74.311 -172.534 3.021 0.00
74.311 -169.208 3.021 0.00
74.311 -165.882 3.021 0.00
74.311 -162.557 3.021 0.00
74.311 -159.231 3.021 0.00
74.311 -155.905 3.021 0.00
74.311 -152.580 3.021 0.00
74.311 -149.254 3.022 0.00
74.311 -145.928 3.022 0.00
74.311 -142.602 3.023 0.00
74.311 -139.277 3.024 0.00
74.311 -135.951 3.025 0.00
74.311 -132.625 3.024 0.00
74.311 -129.300 3.025 0.00
74.311 -125.974 3.025 1.52
74.311 -122.648 3.020 3.85
74.311 -119.322 3.007 3.89
74.311 -115.997 2.991 3.93
74.311 -112.671 2.976 46.78
74.311 -109.345 2.963 415.75
74.311 -106.020 2.962 741.29
74.311 -102.694 2.968 812.27
74.311 -99.368 2.994 1177.92
74.311 -96.042 3.029 1803.53
74.311 -92.717 3.055 779.24
74.311 -89.391 3.078 617.43
74.311 -86.065 3.121 1117.94
74.311 -82.740 3.242 2612.76
74.311 -79.414 3.448 6666.07
74.311 -76.088 3.470 15693.11
74.311 -72.763 3.304 7161.57
74.311 -69.437 3.169 191.81
74.311 -66.111 3.090 0.00
74.311 -62.785 3.010 0.00
74.311 -59.460 3.011 0.00
74.311 -56.134 3.029 38.95
74.311 -52.808 3.032 81.90
74.311 -49.483 3.031 80.90
74.311 -46.157 3.029 69.92
74.311 -42.831 3.027 0.00
74.311 -39.505 3.025 0.00
74.311 -36.180 3.024 0.00
74.311 -32.854 3.022 0.00
74.311 -29.528 3.021 0.00
74.311 -26.203 3.021 0.00
74.311 -22.877 3.021 0.00
74.311 -19.551 3.021 0.00
74.311 -16.225 3.021 0.00
74.311 -12.900 3.021 0.00
74.311 -9.574 3.021 0.00
74.311 -6.248 3.021 0.00
75.210 -176.874 3.021 0.00
75.210 -173.351 3.021 0.00
75.210 -169.828 3.021 0.00
75.210 -166.305 3.021 0.00
75.210 -162.782 3.021 0.00
75.210 -159.259 3.021 0.00
75.210 -155.736 3.021 0.00
75.210 -152.213 3.021 0.00
75.210 -148.690 3.021 0.00
75.210 -145.167 3.021 0.00
75.210 -141.644 3.021 0.00
75.210 -138.121 3.022 0.00
75.210 -134.598 3.022 0.00
75.210 -131.075 3.024 0.00
75.210 -127.552 3.026 0.00
75.210 -124.029 3.028 0.00
75.210 -120.506 3.027 0.00
75.210 -116.983 3.023 0.00
75.210 -113.460 3.013 0.00
75.210 -109.937 2.998 8.53
75.210 -106.414 2.987 4.30
75.210 -102.891 2.983 150.96
75.210 -99.368 2.990 371.73
75.210 -95.845 3.003 416.56
75.210 -92.322 3.012 446.54
75.210 -88.799 3.031 625.35
75.210 -85.276 3.070 698.29
75.210 -81.753 3.155 981.44
75.210 -78.230 3.271 1818.20
75.210 -74.707 3.353 11108.25
75.210 -71.184 3.241 10354.44
75.210 -67.661 3.158 94.89
75.210 -64.138 3.060 92.89
75.210 -60.615 3.010 89.89
75.210 -57.092 3.025 87.90
75.210 -53.569 3.031 45.95
75.210 -50.046 3.027 0.00
75.210 -46.523 3.025 0.00
75.210 -43.000 3.024 0.00
75.210 -39.477 3.022 0.00
75.210 -35.954 3.021 0.00
75.210 -32.431 3.021 0.00
75.210 -28.908 3.021 0.00
75.210 -25.385 3.021 0.00
75.210 -21.862 3.021 0.00
75.210 -18.339 3.021 0.00
75.210 -14.816 3.021 0.00
75.210 -11.293 3.021 0.00
75.210 -7.770 3.021 0.00
75.210 -4.247 3.021 0.00
75.210 -0.724 3.021 0.00
76.109 -178.038 3.021 0.00
76.109 -174.292 3.021 0.00
76.109 -170.545 3.021 0.00
76.109 -166.799 3.021 0.00
76.109 -163.053 3.021 0.00
76.109 -159.307 3.021 0.00
76.109 -155.561 3.021 0.00
76.109 -151.815 3.021 0.00
76.109 -148.068 3.021 0.00
76.109 -144.322 3.021 0.00
76.109 -140.576 3.021 0.00
76.109 -136.830 3.021 0.00
76.109 -133.084 3.021 0.00
76.109 -129.338 3.021 0.00
76.109 -125.591 3.022 0.00
76.109 -121.845 3.024 0.00
