41.934 -69.145 3.751 0.00
41.934 -67.936 3.746 0.00
41.934 -66.727 3.750 0.00
41.934 -65.518 3.752 0.00
42.833 -133.707 3.750 0.00
42.833 -132.481 3.748 0.00
42.833 -131.254 3.759 0.00
42.833 -130.028 3.794 0.00
42.833 -128.802 3.789 7.99
42.833 -127.575 3.679 305.70
42.833 -126.349 3.516 11094.92
42.833 -125.122 3.476 15635.00
42.833 -123.896 3.554 10521.29
42.833 -122.670 3.616 18157.12
42.833 -121.443 3.500 19562.51
42.833 -120.217 3.441 22257.33
42.833 -118.990 3.480 25221.02
42.833 -117.764 3.576 29101.35
42.833 -116.538 3.615 35007.11
42.833 -115.311 3.543 34020.88
42.833 -114.085 3.516 37012.13
42.833 -112.858 3.471 37584.82
42.833 -111.632 3.442 43846.14
42.833 -110.406 3.572 40252.09
42.833 -109.179 3.719 37542.60
42.833 -107.953 3.729 33351.39
42.833 -106.727 3.677 31584.37
42.833 -105.500 3.644 29447.52
42.833 -104.274 3.739 28941.53
42.833 -103.047 3.784 24244.10
42.833 -101.821 3.814 23265.81
42.833 -100.595 3.860 23055.60
42.833 -99.368 3.927 23026.65
42.833 -98.142 3.918 23616.39
42.833 -96.915 3.865 22250.58
42.833 -95.689 3.790 21741.15
42.833 -94.463 3.773 20823.99
42.833 -93.236 3.824 18005.44
42.833 -92.010 3.876 16366.50
42.833 -90.783 3.876 17302.47
42.833 -89.557 3.865 13404.71
42.833 -88.331 3.921 13471.91
42.833 -87.104 3.983 11647.75
42.833 -85.878 3.967 10298.00
42.833 -84.652 3.884 9721.82
42.833 -83.425 3.795 7224.85
42.833 -82.199 3.745 6918.15
42.833 -80.972 3.779 6604.32
42.833 -79.746 3.838 6277.57
42.833 -78.520 3.845 5838.25
42.833 -77.293 3.846 5942.89
42.833 -76.067 3.914 5270.01
42.833 -74.840 3.979 4204.03
42.833 -73.614 3.953 2816.84
42.833 -72.388 3.917 2353.13
42.833 -71.161 3.858 1047.97
42.833 -69.935 3.796 45.95
42.833 -68.708 3.762 0.00
42.833 -67.482 3.752 0.00
42.833 -66.256 3.748 0.00
42.833 -65.029 3.749 0.00
43.732 -134.219 3.745 0.00
43.732 -132.974 3.746 0.00
43.732 -131.729 3.769 0.00
43.732 -130.485 3.820 0.00
43.732 -129.240 3.783 283.72
43.732 -127.995 3.495 199.81
43.732 -126.751 3.146 43976.25
43.732 -125.506 3.099 23991.82
43.732 -124.261 3.203 15782.32
43.732 -123.017 3.371 15778.26
43.732 -121.772 3.404 16651.86
43.732 -120.527 3.383 19425.01
43.732 -119.283 3.409 21116.58
43.732 -118.038 3.587 25419.72
43.732 -116.793 3.559 30350.88
43.732 -115.549 3.425 27513.82
43.732 -114.304 3.379 29288.18
43.732 -113.059 3.393 25442.59
43.732 -111.815 3.379 27214.63
43.732 -110.570 3.495 32832.24
43.732 -109.325 3.701 27868.04
43.732 -108.081 3.856 29806.14
43.732 -106.836 3.881 29867.79
43.732 -105.591 3.804 25454.01
43.732 -104.347 3.762 28059.91
43.732 -103.102 3.760 26498.16
43.732 -101.858 3.777 25846.41
43.732 -100.613 3.817 25047.89
43.732 -99.368 3.932 25227.56
43.732 -98.124 3.979 22866.95
43.732 -96.879 3.898 22903.14
43.732 -95.634 3.866 21496.86
43.732 -94.390 3.833 19566.09
43.732 -93.145 3.876 17882.55
43.732 -91.900 3.940 16049.66
43.732 -90.656 3.956 16205.13
43.732 -89.411 3.945 13978.95
43.732 -88.166 3.959 12178.71
43.732 -86.922 3.976 11781.10
43.732 -85.677 3.986 9614.92
43.732 -84.432 3.939 6894.83
43.732 -83.188 3.920 7253.96
43.732 -81.943 3.886 6912.25
43.732 -80.698 3.876 7021.98
43.732 -79.454 3.866 5747.00
43.732 -78.209 3.835 5565.86
43.732 -76.964 3.834 5096.76
43.732 -75.720 3.867 4775.76
43.732 -74.475 3.906 5537.15
43.732 -73.230 3.914 3639.94
43.732 -71.986 3.902 1736.77
43.732 -70.741 3.858 289.70
43.732 -69.496 3.823 213.78
43.732 -68.252 3.791 26.97
43.732 -67.007 3.776 0.00
43.732 -65.763 3.766 0.00
43.732 -64.518 3.758 0.00
44.632 -134.754 3.749 0.00
44.632 -133.490 3.753 0.00
44.632 -132.227 3.801 0.00
44.632 -130.963 3.864 215.79
44.632 -129.699 3.800 194.81
44.632 -128.435 3.501 170.85
44.632 -127.172 3.121 2978.40
44.632 -125.908 3.000 10097.10
44.632 -124.644 2.995 11340.99
44.632 -123.380 3.203 14863.12
44.632 -122.116 3.427 14874.46
44.632 -120.853 3.455 15502.00
44.632 -119.589 3.534 17094.74
44.632 -118.325 3.679 25758.20
44.632 -117.061 3.633 27110.74
44.632 -115.797 3.571 24033.12
44.632 -114.534 3.539 23465.30
44.632 -113.270 3.476 21813.12
44.632 -112.006 3.396 21562.97
44.632 -110.742 3.456 24150.73
44.632 -109.479 3.622 23349.72
44.632 -108.215 3.849 21418.14
44.632 -106.951 3.925 22991.55
44.632 -105.687 3.901 21880.04
44.632 -104.423 3.816 20933.96
44.632 -103.160 3.732 21709.45
44.632 -101.896 3.728 21264.21
44.632 -100.632 3.807 19625.24
44.632 -99.368 3.977 19230.82
44.632 -98.104 4.036 18755.00
44.632 -96.841 3.889 18571.36
44.632 -95.577 3.824 18537.30
44.632 -94.313 3.787 17907.79
44.632 -93.049 3.867 15230.86
44.632 -91.785 3.958 14191.82
44.632 -90.522 3.983 13058.94
44.632 -89.258 3.986 13710.16
44.632 -87.994 4.032 11683.96
44.632 -86.730 4.030 10803.80
44.632 -85.467 3.967 9801.16
44.632 -84.203 3.943 8060.79
44.632 -82.939 3.946 7001.34
44.632 -81.675 3.931 6762.32
44.632 -80.411 3.912 6930.76
44.632 -79.148 3.907 7888.98
44.632 -77.884 3.860 8325.84
44.632 -76.620 3.829 7005.58
44.632 -75.356 3.850 8292.03
44.632 -74.092 3.818 6112.36
44.632 -72.829 3.852 2434.71
44.632 -71.565 3.870 1794.93
44.632 -70.301 3.848 1086.59
44.632 -69.037 3.821 842.23
44.632 -67.773 3.821 862.56
44.632 -66.510 3.825 127.88
44.632 -65.246 3.815 112.89
44.632 -63.982 3.796 91.02
45.531 -135.316 3.777 0.00
45.531 -134.032 3.778 0.00
45.531 -132.748 3.819 148.86
45.531 -131.464 3.896 211.79
45.531 -130.180 3.900 106.90
45.531 -128.897 3.690 255.76
45.531 -127.613 3.412 1396.04
45.531 -126.329 3.315 2386.72
45.531 -125.045 3.211 3677.82
45.531 -123.761 3.332 9105.91
45.531 -122.477 3.559 12447.80
45.531 -121.193 3.616 14537.28
45.531 -119.910 3.689 18509.45
45.531 -118.626 3.736 25528.29
45.531 -117.342 3.729 23525.60
45.531 -116.058 3.714 19916.38
45.531 -114.774 3.690 21739.04
45.531 -113.490 3.611 19538.18
45.531 -112.207 3.451 21707.98
45.531 -110.923 3.523 20946.64
45.531 -109.639 3.666 18682.81
45.531 -108.355 3.839 17629.14
45.531 -107.071 3.946 19829.53
45.531 -105.787 3.963 19609.27
45.531 -104.504 3.870 15975.61
45.531 -103.220 3.775 16209.86
45.531 -101.936 3.730 17107.74
45.531 -100.652 3.811 17537.17
45.531 -99.368 3.959 16177.19
45.531 -98.084 4.036 16832.23
45.531 -96.801 3.966 17173.12
45.531 -95.517 3.952 15594.31
45.531 -94.233 3.928 13539.80
45.531 -92.949 3.900 13181.51
45.531 -91.665 3.898 11822.55
45.531 -90.381 3.906 11339.89
45.531 -89.097 3.924 10950.91
45.531 -87.814 3.950 9134.90
45.531 -86.530 3.924 8009.43
45.531 -85.246 3.926 6779.22
45.531 -83.962 3.958 5933.61
45.531 -82.678 3.956 6397.21
45.531 -81.394 3.957 6241.89
45.531 -80.111 3.962 6424.15
45.531 -78.827 3.925 6428.77
45.531 -77.543 3.871 7498.10
45.531 -76.259 3.855 6474.25
45.531 -74.975 3.894 2815.30
45.531 -73.691 3.869 2563.08
45.531 -72.408 3.882 1672.70
45.531 -71.124 3.896 1691.36
45.531 -69.840 3.867 2004.34
45.531 -68.556 3.822 376.95
45.531 -67.272 3.829 530.85
45.531 -65.988 3.863 482.69
45.531 -64.705 3.858 218.31
45.531 -63.421 3.839 263.73
46.431 -135.904 3.819 346.90
46.431 -134.600 3.822 103.64
46.431 -133.295 3.831 234.78
46.431 -131.990 3.850 152.86
46.431 -130.685 3.885 51.95
46.431 -129.380 3.850 328.67
46.431 -128.075 3.771 1295.68
46.431 -126.770 3.754 2037.96
46.431 -125.466 3.577 2913.19
46.431 -124.161 3.530 5189.11
46.431 -122.856 3.663 9536.19
46.431 -121.551 3.690 13812.42
46.431 -120.246 3.653 19779.01
46.431 -118.941 3.671 21248.30
46.431 -117.636 3.744 17328.53
46.431 -116.331 3.778 15780.23
46.431 -115.027 3.718 17180.84
46.431 -113.722 3.647 20132.26
46.431 -112.417 3.671 17142.49
46.431 -111.112 3.812 13344.61
46.431 -109.807 3.950 14552.07
46.431 -108.502 4.019 14898.10
46.431 -107.197 4.044 15115.34
46.431 -105.893 4.017 19991.20
46.431 -104.588 3.821 14616.54
46.431 -103.283 3.737 13511.52
46.431 -101.978 3.719 12403.78
46.431 -100.673 3.767 11450.84
46.431 -99.368 3.860 12222.24
46.431 -98.063 3.938 13410.45
46.431 -96.758 3.959 11677.44
46.431 -95.454 3.961 13433.68
46.431 -94.149 3.955 11506.61
46.431 -92.844 3.941 11381.86
46.431 -91.539 3.933 9130.29
46.431 -90.234 3.915 8069.60
46.431 -88.929 3.889 8032.31
46.431 -87.624 3.880 4823.56
46.431 -86.320 3.843 5157.78
46.431 -85.015 3.904 4470.11
46.431 -83.710 3.964 3644.07
46.431 -82.405 3.965 3447.15
46.431 -81.100 3.988 3885.59
46.431 -79.795 4.060 3729.72
46.431 -78.490 4.034 2888.76
46.431 -77.185 3.993 2713.16
46.431 -75.881 3.991 2478.41
46.431 -74.576 4.021 1748.23
46.431 -73.271 4.021 1295.62
46.431 -71.966 4.006 708.24
46.431 -70.661 3.980 618.34
46.431 -69.356 3.926 580.38
46.431 -68.051 3.878 334.58
46.431 -66.747 3.860 309.66
46.431 -65.442 3.852 268.71
46.431 -64.137 3.848 405.56
46.431 -62.832 3.836 223.74
47.330 -136.522 3.845 283.68
47.330 -135.195 3.848 404.60
47.330 -133.868 3.847 144.86
47.330 -132.541 3.844 10.99
47.330 -131.214 3.863 141.86
47.330 -129.887 3.866 419.58
47.330 -128.561 3.891 1583.42
47.330 -127.234 3.936 2459.32
47.330 -125.907 3.759 2628.98
47.330 -124.580 3.662 4266.88
47.330 -123.253 3.678 11178.21
47.330 -121.926 3.635 15494.75
47.330 -120.599 3.583 17722.87
47.330 -119.272 3.604 14927.49
47.330 -117.945 3.695 12444.82
47.330 -116.618 3.799 13447.02
47.330 -115.291 3.713 15505.25
47.330 -113.964 3.686 13945.19
47.330 -112.637 3.759 13496.62
47.330 -111.311 3.847 11016.54
47.330 -109.984 3.920 11570.28
47.330 -108.657 4.000 12356.94
47.330 -107.330 4.062 12263.54
47.330 -106.003 4.049 13803.92
47.330 -104.676 3.891 13337.58
47.330 -103.349 3.806 10253.42
47.330 -102.022 3.793 11214.35
47.330 -100.695 3.779 10873.24
47.330 -99.368 3.841 11239.82
47.330 -98.041 3.952 10299.07
47.330 -96.714 3.945 8886.25
47.330 -95.387 3.965 8211.26
47.330 -94.061 3.968 7288.37
47.330 -92.734 3.932 6429.20
47.330 -91.407 3.925 5105.67
47.330 -90.080 3.940 4280.12
47.330 -88.753 3.900 5227.45
47.330 -87.426 3.853 3909.50
47.330 -86.099 3.828 3660.93
47.330 -84.772 3.929 2881.14
47.330 -83.445 4.009 2655.42
47.330 -82.118 4.017 2563.37
47.330 -80.791 4.016 2884.10
47.330 -79.464 4.078 3073.01
47.330 -78.137 4.103 2162.33
47.330 -76.811 4.053 1633.33
47.330 -75.484 4.003 1241.76
47.330 -74.157 3.988 1626.26
47.330 -72.830 3.992 1404.58
47.330 -71.503 3.971 1613.25
47.330 -70.176 3.928 850.68
47.330 -68.849 3.880 214.75
47.330 -67.522 3.843 329.63
47.330 -66.195 3.817 300.83
47.330 -64.868 3.805 215.80
47.330 -63.541 3.808 186.80
47.330 -62.214 3.831 254.70
48.229 -137.170 3.888 374.65
48.229 -135.820 3.882 100.91
48.229 -134.470 3.877 173.81
48.229 -133.120 3.894 257.73
48.229 -131.770 3.901 299.68
48.229 -130.420 3.880 959.00
48.229 -129.070 3.866 1817.51
48.229 -127.720 3.902 2228.41
48.229 -126.370 3.768 2796.97
48.229 -125.020 3.695 6132.38
48.229 -123.670 3.662 14878.69
48.229 -122.320 3.625 15287.88
48.229 -120.969 3.609 14200.81
48.229 -119.619 3.634 9960.43
48.229 -118.269 3.726 10496.35
48.229 -116.919 3.811 13013.05
48.229 -115.569 3.773 11163.21
48.229 -114.219 3.761 11133.98
48.229 -112.869 3.804 9737.66
48.229 -111.519 3.793 8012.29
48.229 -110.169 3.782 8630.54
48.229 -108.819 3.885 9769.09
48.229 -107.469 4.026 11434.88
48.229 -106.119 3.953 8749.19
48.229 -104.769 3.825 13737.86
48.229 -103.418 3.820 10438.83
48.229 -102.068 3.823 9868.25
48.229 -100.718 3.811 10392.03
48.229 -99.368 3.856 9538.33
48.229 -98.018 3.896 7090.12
48.229 -96.668 3.895 6116.71
48.229 -95.318 3.945 5314.50
48.229 -93.968 3.957 4748.22
48.229 -92.618 3.969 4041.50
48.229 -91.268 4.028 3254.44
48.229 -89.918 4.084 2317.85
48.229 -88.568 4.036 3032.99
48.229 -87.217 3.983 2231.67
48.229 -85.867 3.939 2100.69
48.229 -84.517 4.001 1962.43
48.229 -83.167 4.041 1673.07
48.229 -81.817 4.017 2004.93
48.229 -80.467 3.985 2049.80
48.229 -79.117 3.995 1823.57
48.229 -77.767 3.988 1933.33
48.229 -76.417 3.913 1260.74
48.229 -75.067 3.859 930.06
48.229 -73.717 3.854 1162.38
48.229 -72.367 3.887 917.32
48.229 -71.017 3.879 596.71
48.229 -69.666 3.837 185.81
48.229 -68.316 3.802 82.90
48.229 -66.966 3.788 229.73
48.229 -65.616 3.781 258.73
48.229 -64.266 3.786 368.63
48.229 -62.916 3.797 226.76
48.229 -61.566 3.850 228.76
49.129 -137.851 3.975 576.42
49.129 -136.477 3.965 167.83
49.129 -135.103 3.927 148.85
49.129 -133.728 3.927 405.59
49.129 -132.354 3.915 672.32
49.129 -130.979 3.878 1154.77
49.129 -129.605 3.816 1063.77
49.129 -128.231 3.795 2630.59
49.129 -126.856 3.698 4351.79
49.129 -125.482 3.675 13772.76
49.129 -124.107 3.649 16690.83
49.129 -122.733 3.662 12882.72
49.129 -121.359 3.678 10793.90
49.129 -119.984 3.654 10934.13
49.129 -118.610 3.701 8657.17
49.129 -117.235 3.743 8661.79
49.129 -115.861 3.731 6719.23
49.129 -114.487 3.782 7437.60
49.129 -113.112 3.841 7998.81
49.129 -111.738 3.836 6306.22
49.129 -110.363 3.803 6353.37
49.129 -108.989 3.830 7201.80
49.129 -107.615 3.905 7592.04
49.129 -106.240 3.837 8075.52
49.129 -104.866 3.788 10016.26
49.129 -103.491 3.822 11794.79
49.129 -102.117 3.842 9324.84
49.129 -100.743 3.885 9347.18
49.129 -99.368 3.892 7320.29
49.129 -97.994 3.892 6285.75
49.129 -96.619 3.895 4990.28
49.129 -95.245 3.936 3750.21
49.129 -93.871 3.926 2072.18
49.129 -92.496 3.933 1417.23
49.129 -91.122 3.970 2004.95
49.129 -89.747 4.022 2141.81
49.129 -88.373 4.059 2899.67
49.129 -86.999 4.070 2234.08
49.129 -85.624 4.013 2410.43
49.129 -84.250 4.031 2111.65
49.129 -82.875 4.030 2059.15
49.129 -81.501 4.006 1451.47
49.129 -80.127 3.975 2085.83
49.129 -78.752 3.950 1494.46
49.129 -77.378 3.920 499.48
49.129 -76.003 3.896 661.35
49.129 -74.629 3.850 380.60
49.129 -73.255 3.828 686.26
49.129 -71.880 3.825 517.51
49.129 -70.506 3.802 326.64
49.129 -69.131 3.768 300.72
49.129 -67.757 3.750 277.78
49.129 -66.383 3.754 143.85
49.129 -65.008 3.767 144.87
49.129 -63.634 3.784 79.93
49.129 -62.259 3.816 140.84
49.129 -60.885 3.911 466.54
50.028 -138.567 4.055 625.39
50.028 -137.167 4.051 590.73
50.028 -135.767 3.965 567.42
50.028 -134.367 3.906 526.44
50.028 -132.967 3.880 311.70
50.028 -131.567 3.832 937.98
50.028 -130.167 3.754 1120.97
50.028 -128.767 3.694 3897.48
50.028 -127.368 3.633 14815.48
50.028 -125.968 3.632 18153.94
50.028 -124.568 3.665 15333.74
50.028 -123.168 3.610 12552.46
50.028 -121.768 3.557 11412.26
50.028 -120.368 3.570 9042.61
50.028 -118.968 3.622 7554.11
50.028 -117.568 3.635 8339.68
50.028 -116.168 3.671 6533.69
50.028 -114.768 3.833 7269.83
50.028 -113.368 3.949 6786.07
50.028 -111.968 3.933 5619.43
50.028 -110.568 3.850 5086.59
50.028 -109.168 3.826 6502.89
50.028 -107.768 3.828 5992.06
50.028 -106.368 3.803 6972.43
50.028 -104.968 3.775 8444.36
50.028 -103.568 3.814 12241.98
50.028 -102.168 3.850 8776.02
50.028 -100.768 3.910 7793.91
50.028 -99.368 3.932 5616.62
50.028 -97.968 3.911 4433.20
50.028 -96.568 3.919 5309.77
50.028 -95.168 3.956 2622.33
50.028 -93.768 3.958 1868.82
50.028 -92.368 3.954 1598.32
50.028 -90.968 3.928 1897.62
50.028 -89.568 3.971 2182.12
50.028 -88.168 4.027 2155.90
50.028 -86.769 4.015 1350.59
50.028 -85.369 3.970 1565.42
50.028 -83.969 4.013 1737.21
50.028 -82.569 3.994 1606.35
50.028 -81.169 3.985 1914.64
50.028 -79.769 3.965 1377.44
50.028 -78.369 3.925 723.26
50.028 -76.969 3.907 501.07
50.028 -75.569 3.902 671.37
50.028 -74.169 3.865 776.91
50.028 -72.769 3.828 199.78
50.028 -71.369 3.805 337.69
50.028 -69.969 3.772 285.66
50.028 -68.569 3.749 132.88
50.028 -67.169 3.751 345.65
50.028 -65.769 3.774 72.93
50.028 -64.369 3.802 127.88
50.028 -62.969 3.831 163.84
50.028 -61.569 3.878 525.50
50.028 -60.169 3.951 151.86
50.927 -139.320 4.043 814.22
50.927 -137.893 4.032 740.29
50.927 -136.466 3.922 350.64
50.927 -135.040 3.870 2.00
50.927 -133.613 3.853 734.24
50.927 -132.186 3.787 587.37
50.927 -130.759 3.708 1944.53
50.927 -129.332 3.641 19161.38
50.927 -127.905 3.602 25078.65
50.927 -126.478 3.667 17052.90
50.927 -125.052 3.609 15615.03
50.927 -123.625 3.481 12395.12
50.927 -122.198 3.452 9938.25
50.927 -120.771 3.532 8570.30
50.927 -119.344 3.604 8190.45
50.927 -117.917 3.642 7980.69
50.927 -116.490 3.721 5863.88
50.927 -115.064 3.885 5720.65
50.927 -113.637 4.009 5462.87
50.927 -112.210 4.028 4981.72
50.927 -110.783 3.955 4352.72
50.927 -109.356 3.903 4458.53
50.927 -107.929 3.841 6706.71
50.927 -106.502 3.801 6917.99
50.927 -105.076 3.764 9329.49
50.927 -103.649 3.827 11205.15
50.927 -102.222 3.871 10365.14
50.927 -100.795 3.887 6969.46
50.927 -99.368 3.930 4792.08
50.927 -97.941 3.940 3414.63
50.927 -96.514 3.976 2563.39
50.927 -95.088 3.990 1993.19
50.927 -93.661 4.030 2043.82
50.927 -92.234 3.993 1865.38
50.927 -90.807 3.950 2373.75
50.927 -89.380 4.015 1761.41
50.927 -87.953 4.035 1265.78
50.927 -86.526 3.971 1620.28
50.927 -85.100 3.906 1942.03
50.927 -83.673 3.948 1265.72
50.927 -82.246 3.945 1594.32
50.927 -80.819 3.952 1375.52
50.927 -79.392 3.930 573.41
50.927 -77.965 3.910 310.67
50.927 -76.538 3.896 443.58
50.927 -75.112 3.892 501.51
50.927 -73.685 3.882 714.23
50.927 -72.258 3.846 255.74
50.927 -70.831 3.805 385.59
50.927 -69.404 3.774 224.79
50.927 -67.977 3.773 297.71
50.927 -66.550 3.804 198.80
50.927 -65.124 3.849 259.76
50.927 -63.697 3.888 306.71
50.927 -62.270 3.911 479.53
50.927 -60.843 3.932 311.71
50.927 -59.416 3.956 651.39
51.827 -140.113 3.962 890.17
51.827 -138.658 3.950 218.79
51.827 -137.203 3.864 21.97
51.827 -135.747 3.849 155.82
51.827 -134.292 3.838 959.02
51.827 -132.837 3.736 486.50
51.827 -131.382 3.639 28593.15
51.827 -129.927 3.616 40114.95
51.827 -128.472 3.612 19595.80
51.827 -127.016 3.620 14800.08
51.827 -125.561 3.533 11858.55
51.827 -124.106 3.442 10821.75
51.827 -122.651 3.536 7904.90
51.827 -121.196 3.695 6263.75
51.827 -119.741 3.758 4979.94
51.827 -118.285 3.813 5095.64
51.827 -116.830 3.896 4080.62
51.827 -115.375 3.998 3992.55
51.827 -113.920 4.071 3854.34
51.827 -112.465 4.070 3745.53
51.827 -111.010 3.985 4924.37
51.827 -109.554 3.942 5250.03
51.827 -108.099 3.873 6454.55
51.827 -106.644 3.855 9177.24
51.827 -105.189 3.843 9482.79
51.827 -103.734 3.859 10207.61
51.827 -102.279 3.906 11139.07
51.827 -100.823 3.923 6515.91
51.827 -99.368 3.972 4343.86
51.827 -97.913 3.969 2823.10
51.827 -96.458 3.942 1570.80
51.827 -95.003 3.958 2203.91
51.827 -93.548 4.000 1845.09
51.827 -92.092 3.992 1623.34
51.827 -90.637 4.005 2054.00
51.827 -89.182 4.059 1714.14
51.827 -87.727 4.042 1873.01
51.827 -86.272 3.961 1750.17
51.827 -84.817 3.898 1608.41
51.827 -83.361 3.941 1478.49
51.827 -81.906 3.929 1328.91
51.827 -80.451 3.921 927.99
51.827 -78.996 3.925 733.29
51.827 -77.541 3.915 429.56
51.827 -76.085 3.902 643.38
51.827 -74.630 3.898 496.51
51.827 -73.175 3.908 718.23
51.827 -71.720 3.902 512.52
51.827 -70.265 3.860 488.50
51.827 -68.810 3.837 231.80
51.827 -67.354 3.847 200.79
51.827 -65.899 3.884 194.82
51.827 -64.444 3.928 637.41
51.827 -62.989 3.941 673.35
51.827 -61.534 3.937 509.52
51.827 -60.079 3.916 615.43
51.827 -58.623 3.894 338.68
52.726 -140.948 3.900 278.74
52.726 -139.463 3.874 91.89
52.726 -137.978 3.837 132.84
52.726 -136.493 3.853 582.41
52.726 -135.008 3.793 612.40
52.726 -133.523 3.657 346.64
52.726 -132.038 3.532 3609.39
52.726 -130.553 3.580 8457.99
52.726 -129.068 3.687 7348.31
52.726 -127.583 3.744 6757.91
52.726 -126.098 3.668 6251.10
52.726 -124.613 3.584 7048.03
52.726 -123.128 3.691 4881.60
52.726 -121.643 3.832 4697.25
52.726 -120.158 3.868 4164.82
52.726 -118.673 3.903 4556.82
52.726 -117.188 4.009 4230.06
52.726 -115.703 4.084 4291.20
52.726 -114.218 4.093 2923.04
52.726 -112.733 4.025 4735.92
52.726 -111.248 3.982 5566.29
52.726 -109.763 3.913 5840.88
52.726 -108.278 3.918 6859.27
52.726 -106.793 3.954 9259.68
52.726 -105.308 3.965 9752.21
52.726 -103.823 3.916 10064.97
52.726 -102.338 3.932 9928.26
52.726 -100.853 3.912 8257.31
52.726 -99.368 3.961 3471.42
52.726 -97.883 3.960 1653.33
52.726 -96.398 3.918 1615.35
52.726 -94.913 3.875 1715.24
52.726 -93.428 3.914 1385.55
52.726 -91.943 3.985 1460.47
52.726 -90.458 4.017 1989.87
52.726 -88.973 4.054 1569.28
52.726 -87.488 4.023 1710.28
52.726 -86.003 3.948 1588.35
52.726 -84.518 3.907 1541.47
52.726 -83.033 3.942 777.21
52.726 -81.548 3.925 782.15
52.726 -80.063 3.915 923.01
52.726 -78.578 3.912 866.13
52.726 -77.093 3.913 600.37
52.726 -75.608 3.901 715.31
52.726 -74.123 3.901 815.14
52.726 -72.638 3.936 808.23
52.726 -71.153 3.978 835.20
52.726 -69.668 3.966 445.56
52.726 -68.183 3.934 563.48
52.726 -66.698 3.920 534.49
52.726 -65.213 3.928 826.23
52.726 -63.728 3.927 533.50
52.726 -62.243 3.907 463.55
52.726 -60.758 3.879 396.63
52.726 -59.273 3.845 31.97
52.726 -57.788 3.840 68.94
53.625 -141.829 3.869 359.62
53.625 -140.313 3.852 58.93
53.625 -138.796 3.849 267.75
53.625 -137.280 3.862 780.21
53.625 -135.763 3.774 184.80
53.625 -134.247 3.680 357.63
53.625 -132.730 3.660 846.39
53.625 -131.214 3.795 2639.20
53.625 -129.697 3.867 3158.12
53.625 -128.181 3.809 3164.49
53.625 -126.665 3.715 3059.29
53.625 -125.148 3.624 3995.87
53.625 -123.632 3.701 2549.86
53.625 -122.115 3.813 2796.34
53.625 -120.599 3.840 2879.17
53.625 -119.082 3.851 3298.43
53.625 -117.566 3.999 4034.32
53.625 -116.049 4.091 3234.25
53.625 -114.533 4.072 3439.87
53.625 -113.016 3.964 4728.99
53.625 -111.500 3.901 5824.84
53.625 -109.983 3.848 6367.21
53.625 -108.467 3.904 8230.04
53.625 -106.951 3.962 9360.24
53.625 -105.434 3.990 9807.90
53.625 -103.918 3.926 8187.57
53.625 -102.401 3.870 7890.88
53.625 -100.885 3.842 8517.76
53.625 -99.368 3.926 3108.73
53.625 -97.852 3.960 1775.12
53.625 -96.335 3.910 1308.59
53.625 -94.819 3.843 1576.40
53.625 -93.302 3.919 1376.53
53.625 -91.786 3.988 1347.60
53.625 -90.269 3.985 1511.45
53.625 -88.753 4.023 1606.33
53.625 -87.237 3.973 1611.42
53.625 -85.720 3.907 1452.50
53.625 -84.204 3.880 851.14
53.625 -82.687 3.923 509.50
53.625 -81.171 3.928 926.98
53.625 -79.654 3.907 753.15
53.625 -78.138 3.898 576.41
53.625 -76.621 3.881 697.49
53.625 -75.105 3.862 960.06
53.625 -73.588 3.870 1327.12
53.625 -72.072 3.927 686.33
53.625 -70.555 4.002 600.39
53.625 -69.039 4.039 484.53
53.625 -67.523 3.997 844.19
53.625 -66.006 3.939 581.46
53.625 -64.490 3.903 339.68
53.625 -62.973 3.867 223.77
53.625 -61.457 3.838 131.88
53.625 -59.940 3.809 0.00
53.625 -58.424 3.802 134.87
53.625 -56.907 3.828 238.74
54.525 -142.759 3.861 258.74
54.525 -141.209 3.859 317.70
54.525 -139.660 3.863 452.53
54.525 -138.110 3.816 317.70
54.525 -136.560 3.740 217.74
54.525 -135.011 3.729 382.66
54.525 -133.461 3.802 710.80
54.525 -131.911 3.936 2608.04
54.525 -130.362 3.948 2876.81
54.525 -128.812 3.792 2849.04
54.525 -127.262 3.692 2792.22
54.525 -125.713 3.647 3159.86
54.525 -124.163 3.703 2251.09
54.525 -122.613 3.812 2177.17
54.525 -121.064 3.853 2135.96
54.525 -119.514 3.841 2567.52
54.525 -117.964 3.951 2786.30
54.525 -116.415 4.011 3000.90
54.525 -114.865 3.948 3682.22
54.525 -113.315 3.903 4260.69
54.525 -111.766 3.886 5558.16
54.525 -110.216 3.875 7901.79
54.525 -108.666 3.873 9123.14
54.525 -107.117 3.945 10017.40
54.525 -105.567 3.949 8279.43
54.525 -104.017 3.900 5919.84
54.525 -102.468 3.832 7160.60
54.525 -100.918 3.808 6028.14
54.525 -99.368 3.885 4162.87
54.525 -97.819 3.944 2319.49
54.525 -96.269 3.924 1293.61
54.525 -94.719 3.894 1800.18
54.525 -93.170 3.945 1154.79
54.525 -91.620 3.985 998.97
54.525 -90.070 3.964 2262.63
54.525 -88.520 3.979 1459.53
54.525 -86.971 3.939 1318.68
54.525 -85.421 3.884 770.16
54.525 -83.871 3.869 593.40
54.525 -82.322 3.907 524.45
54.525 -80.772 3.913 777.16
54.525 -79.222 3.883 750.21
54.525 -77.673 3.866 404.58
54.525 -76.123 3.852 715.30
54.525 -74.573 3.837 716.27
54.525 -73.024 3.843 804.12
54.525 -71.474 3.889 699.27
54.525 -69.924 3.951 739.09
54.525 -68.375 3.994 1277.62
54.525 -66.825 3.966 693.02
54.525 -65.275 3.901 250.77
54.525 -63.726 3.845 229.77
54.525 -62.176 3.801 121.87
54.525 -60.626 3.785 99.88
54.525 -59.077 3.800 231.75
54.525 -57.527 3.831 186.80
54.525 -55.977 3.847 112.89
55.424 -143.742 3.851 495.54
55.424 -142.157 3.852 39.96
55.424 -140.572 3.848 564.41
55.424 -138.988 3.764 226.78
55.424 -137.403 3.723 147.83
55.424 -135.818 3.773 641.42
55.424 -134.233 3.864 600.42
55.424 -132.648 3.947 2942.24
55.424 -131.064 3.850 2517.47
55.424 -129.479 3.709 2555.98
55.424 -127.894 3.640 2149.86
55.424 -126.309 3.631 2759.64
55.424 -124.725 3.686 2769.03
55.424 -123.140 3.788 1944.01
55.424 -121.555 3.832 2414.68
55.424 -119.970 3.862 3156.55
55.424 -118.385 3.917 3043.43
55.424 -116.801 3.893 3070.85
55.424 -115.216 3.840 4066.79
55.424 -113.631 3.887 4820.55
55.424 -112.046 3.935 6138.42
55.424 -110.462 3.947 9157.45
55.424 -108.877 3.926 10797.79
55.424 -107.292 3.913 8428.53
55.424 -105.707 3.919 7210.54
55.424 -104.123 3.894 4659.29
55.424 -102.538 3.853 4303.60
55.424 -100.953 3.849 4581.25
55.424 -99.368 3.814 7245.99
55.424 -97.783 3.871 2236.53
55.424 -96.199 3.935 1801.19
55.424 -94.614 3.930 1039.00
55.424 -93.029 3.939 1194.76
55.424 -91.444 3.965 1017.97
55.424 -89.860 3.926 2448.46
55.424 -88.275 3.953 779.18
55.424 -86.690 3.931 1026.98
55.424 -85.105 3.889 902.03
55.424 -83.520 3.883 699.27
55.424 -81.936 3.904 614.34
55.424 -80.351 3.887 988.91
55.424 -78.766 3.855 615.37
55.424 -77.181 3.836 430.55
55.424 -75.597 3.823 511.50
55.424 -74.012 3.820 676.25
55.424 -72.427 3.837 400.57
55.424 -70.842 3.851 520.40
55.424 -69.257 3.855 412.57
55.424 -67.673 3.858 644.36
55.424 -66.088 3.833 466.55
55.424 -64.503 3.804 405.39
55.424 -62.918 3.770 224.74
55.424 -61.334 3.760 127.85
55.424 -59.749 3.780 91.91
55.424 -58.164 3.831 117.89
55.424 -56.579 3.856 348.67
55.424 -54.995 3.841 293.73
56.324 -144.782 3.840 49.95
56.324 -143.160 3.845 453.52
56.324 -141.538 3.810 169.82
56.324 -139.916 3.743 255.75
56.324 -138.294 3.747 287.70
56.324 -136.672 3.815 775.26
56.324 -135.050 3.879 871.13
56.324 -133.428 3.896 2249.16
56.324 -131.806 3.778 2515.56
56.324 -130.184 3.695 2365.32
56.324 -128.563 3.654 1776.13
56.324 -126.941 3.642 1619.96
56.324 -125.319 3.693 3288.46
56.324 -123.697 3.764 2482.61
56.324 -122.075 3.816 2498.84
56.324 -120.453 3.895 2837.20
56.324 -118.831 3.906 3103.80
56.324 -117.209 3.838 2728.27
56.324 -115.587 3.811 4751.13
56.324 -113.965 3.878 6640.83
56.324 -112.343 3.982 9013.67
56.324 -110.722 4.007 10792.69
56.324 -109.100 3.984 9505.22
56.324 -107.478 3.938 7373.98
56.324 -105.856 3.909 4620.60
56.324 -104.234 3.930 4976.90
56.324 -102.612 3.952 3622.24
56.324 -100.990 3.886 4933.81
56.324 -99.368 3.772 6085.97
56.324 -97.746 3.795 4236.84
56.324 -96.124 3.903 1219.75
56.324 -94.502 3.962 1276.68
56.324 -92.881 3.955 1671.34
56.324 -91.259 3.957 1247.75
56.324 -89.637 3.914 1424.46
56.324 -88.015 3.944 574.42
56.324 -86.393 3.916 888.11
56.324 -84.771 3.864 620.32
56.324 -83.149 3.883 449.56
56.324 -81.527 3.881 757.21
56.324 -79.905 3.838 915.31
56.324 -78.283 3.816 467.54
56.324 -76.661 3.811 219.76
56.324 -75.040 3.805 496.62
56.324 -73.418 3.811 762.14
56.324 -71.796 3.826 416.57
56.324 -70.174 3.813 479.48
56.324 -68.552 3.787 355.62
56.324 -66.930 3.765 545.44
56.324 -65.308 3.739 328.70
56.324 -63.686 3.718 258.75
56.324 -62.064 3.720 110.91
56.324 -60.442 3.731 93.92
56.324 -58.820 3.766 74.93
56.324 -57.199 3.819 371.88
56.324 -55.577 3.819 61.94
56.324 -53.955 3.811 0.00
57.223 -145.883 3.846 144.85
57.223 -144.222 3.846 501.47
57.223 -142.561 3.785 0.00
57.223 -140.899 3.749 363.65
57.223 -139.238 3.781 562.42
57.223 -137.577 3.837 736.29
57.223 -135.916 3.861 1045.67
57.223 -134.254 3.845 1993.04
57.223 -132.593 3.780 1821.02
57.223 -130.932 3.738 2036.91
57.223 -129.271 3.665 1775.05
57.223 -127.609 3.646 1654.24
57.223 -125.948 3.707 3572.17
57.223 -124.287 3.777 3177.88
57.223 -122.626 3.828 2457.48
57.223 -120.964 3.951 1943.33
57.223 -119.303 3.948 2665.25
57.223 -117.642 3.862 3457.52
57.223 -115.981 3.826 5942.90
57.223 -114.319 3.890 9086.34
57.223 -112.658 3.997 12167.35
57.223 -110.997 4.033 10936.75
57.223 -109.336 3.994 7915.80
57.223 -107.674 3.946 5190.80
57.223 -106.013 3.922 4179.87
57.223 -104.352 4.003 4757.65
57.223 -102.691 4.046 3772.06
57.223 -101.029 3.910 3999.82
57.223 -99.368 3.782 4310.54
57.223 -97.707 3.753 5974.30
57.223 -96.046 3.865 2317.60
57.223 -94.384 3.950 1616.36
57.223 -92.723 3.977 1620.38
57.223 -91.062 3.997 653.31
57.223 -89.401 3.964 1373.55
57.223 -87.739 3.956 541.44
57.223 -86.078 3.905 689.31
57.223 -84.417 3.847 873.06
57.223 -82.756 3.880 562.42
57.223 -81.094 3.853 667.31
57.223 -79.433 3.810 598.34
57.223 -77.772 3.801 415.57
57.223 -76.111 3.798 338.65
57.223 -74.449 3.790 401.58
57.223 -72.788 3.799 534.45
57.223 -71.127 3.808 386.61
57.223 -69.466 3.787 18.98
57.223 -67.805 3.763 383.63
57.223 -66.143 3.744 300.71
57.223 -64.482 3.722 183.80
57.223 -62.821 3.708 153.84
57.223 -61.160 3.705 145.87
57.223 -59.498 3.708 249.78
57.223 -57.837 3.732 83.93
57.223 -56.176 3.759 67.94
57.223 -54.515 3.766 89.25
57.223 -52.853 3.785 9.99
58.122 -147.051 3.870 590.38
58.122 -145.348 3.850 84.91
58.122 -143.645 3.789 107.90
58.122 -141.942 3.776 645.35
58.122 -140.239 3.807 526.50
58.122 -138.537 3.843 875.09
58.122 -136.834 3.842 927.05
58.122 -135.131 3.852 1980.32
58.122 -133.428 3.869 2266.36
58.122 -131.725 3.798 2007.06
58.122 -130.022 3.701 2523.72
58.122 -128.319 3.680 2187.51
58.122 -126.616 3.746 3504.53
58.122 -124.913 3.799 2527.60
58.122 -123.210 3.878 2368.33
58.122 -121.507 4.028 2818.73
58.122 -119.804 3.994 2717.25
58.122 -118.101 3.878 4167.76
58.122 -116.398 3.861 7552.75
58.122 -114.695 3.939 13075.53
58.122 -112.992 3.997 13442.06
58.122 -111.289 3.996 9282.46
58.122 -109.586 3.932 5169.76
58.122 -107.883 3.890 4069.83
58.122 -106.180 3.939 3837.01
58.122 -104.477 4.009 3628.08
58.122 -102.774 4.025 4266.09
58.122 -101.071 3.952 4013.87
58.122 -99.368 3.871 4438.32
58.122 -97.665 3.791 6225.81
58.122 -95.962 3.813 3384.62
58.122 -94.259 3.902 1776.21
58.122 -92.556 3.987 1259.75
58.122 -90.853 4.047 1100.80
58.122 -89.150 4.005 1155.76
58.122 -87.447 3.975 616.35
58.122 -85.744 3.913 1025.97
58.122 -84.041 3.822 851.12
58.122 -82.339 3.845 224.75
58.122 -80.636 3.814 409.58
58.122 -78.933 3.787 626.33
58.122 -77.230 3.792 278.71
58.122 -75.527 3.790 486.52
58.122 -73.824 3.780 694.27
58.122 -72.121 3.789 200.81
58.122 -70.418 3.785 199.78
58.122 -68.715 3.765 138.85
58.122 -67.012 3.753 329.69
58.122 -65.309 3.748 144.86
58.122 -63.606 3.734 176.82
58.122 -61.903 3.729 87.90
58.122 -60.200 3.722 203.81
58.122 -58.497 3.720 77.93
58.122 -56.794 3.718 149.87
58.122 -55.091 3.722 98.92
58.122 -53.388 3.729 99.92
58.122 -51.685 3.769 151.85
59.022 -148.292 3.872 749.20
59.022 -146.545 3.849 86.37
59.022 -144.798 3.803 615.39
59.022 -143.050 3.809 321.66
59.022 -141.303 3.831 878.11
59.022 -139.556 3.826 674.31
59.022 -137.808 3.819 1298.65
59.022 -136.061 3.880 3078.89
59.022 -134.314 3.919 4486.55
59.022 -132.567 3.856 2456.58
59.022 -130.819 3.746 1742.08
59.022 -129.072 3.730 1504.49
59.022 -127.325 3.788 3290.77
59.022 -125.577 3.844 3105.88
59.022 -123.830 3.935 1932.43
59.022 -122.083 4.023 2338.25
59.022 -120.336 3.948 2701.28
59.022 -118.588 3.860 6352.09
59.022 -116.841 3.902 12714.99
59.022 -115.094 3.950 15556.95
59.022 -113.346 3.951 11505.04
59.022 -111.599 3.941 5888.08
59.022 -109.852 3.896 3780.20
59.022 -108.105 3.877 2898.95
59.022 -106.357 3.937 2929.93
59.022 -104.610 3.958 2765.14
59.022 -102.863 3.948 4416.41
59.022 -101.115 3.983 4039.83
59.022 -99.368 3.959 5092.70
59.022 -97.621 3.863 4168.70
59.022 -95.874 3.783 5703.56
59.022 -94.126 3.846 1320.59
59.022 -92.379 3.943 800.20
59.022 -90.632 4.001 1466.43
59.022 -88.884 3.996 929.05
59.022 -87.137 3.977 913.11
59.022 -85.390 3.903 730.27
59.022 -83.643 3.816 638.31
59.022 -81.895 3.821 115.88
59.022 -80.148 3.791 556.44
59.022 -78.401 3.781 682.28
59.022 -76.654 3.794 259.74
59.022 -74.906 3.783 455.55
59.022 -73.159 3.773 562.40
59.022 -71.412 3.781 323.67
59.022 -69.664 3.770 65.93
59.022 -67.917 3.753 369.64
59.022 -66.170 3.748 214.79
59.022 -64.423 3.745 104.89
59.022 -62.675 3.745 11.99
59.022 -60.928 3.744 117.90
59.022 -59.181 3.742 124.88
59.022 -57.433 3.737 103.89
59.022 -55.686 3.729 85.92
59.022 -53.939 3.725 76.93
59.022 -52.192 3.729 100.91
59.022 -50.444 3.761 81.93
59.921 -149.612 3.821 729.69
59.921 -147.818 3.811 230.76
59.921 -146.023 3.793 508.47
59.921 -144.229 3.821 590.35
59.921 -142.434 3.814 838.21
59.921 -140.640 3.761 380.82
59.921 -138.845 3.760 1432.84
59.921 -137.051 3.816 1191.49
59.921 -135.257 3.852 2616.77
59.921 -133.462 3.831 2399.85
59.921 -131.668 3.767 1621.32
59.921 -129.873 3.754 1510.49
59.921 -128.079 3.797 2240.79
59.921 -126.284 3.855 4136.84
59.921 -124.490 3.927 2477.55
59.921 -122.696 3.911 2398.43
59.921 -120.901 3.823 3891.13
59.921 -119.107 3.837 10863.07
59.921 -117.312 3.920 17538.87
59.921 -115.518 3.926 12505.15
59.921 -113.724 3.876 5804.18
59.921 -111.929 3.895 4578.22
59.921 -110.135 3.906 3289.57
59.921 -108.340 3.901 2541.32
59.921 -106.546 3.909 2656.32
59.921 -104.751 3.910 3569.28
59.921 -102.957 3.922 4237.71
59.921 -101.163 3.964 4600.88
59.921 -99.368 4.004 4216.67
59.921 -97.574 3.959 4321.53
59.921 -95.779 3.859 5067.02
59.921 -93.985 3.850 1923.69
59.921 -92.191 3.911 715.62
59.921 -90.396 3.959 1215.70
59.921 -88.602 3.968 882.12
59.921 -86.807 3.953 978.99
59.921 -85.013 3.907 881.11
59.921 -83.218 3.835 608.35
59.921 -81.424 3.825 190.81
59.921 -79.630 3.798 875.09
59.921 -77.835 3.789 452.53
59.921 -76.041 3.788 298.70
59.921 -74.246 3.772 567.40
59.921 -72.452 3.770 408.59
59.921 -70.657 3.775 225.75
59.921 -68.863 3.761 172.82
59.921 -67.069 3.751 344.67
59.921 -65.274 3.747 120.88
59.921 -63.480 3.743 64.93
59.921 -61.685 3.745 35.97
59.921 -59.891 3.749 65.95
59.921 -58.097 3.752 14.99
59.921 -56.302 3.750 75.93
59.921 -54.508 3.742 92.90
59.921 -52.713 3.737 112.88
59.921 -50.919 3.745 80.92
59.921 -49.124 3.769 259.84
60.820 -151.018 3.767 331.66
60.820 -149.173 3.761 596.88
60.820 -147.329 3.767 557.76
60.820 -145.484 3.788 951.72
60.820 -143.639 3.741 587.44
60.820 -141.795 3.686 759.15
60.820 -139.950 3.717 960.01
60.820 -138.106 3.758 599.73
60.820 -136.261 3.807 1355.67
60.820 -134.416 3.836 1525.93
60.820 -132.572 3.782 986.87
60.820 -130.727 3.754 926.36
60.820 -128.882 3.799 1319.66
60.820 -127.038 3.862 3840.27
60.820 -125.193 3.882 2585.41
60.820 -123.348 3.794 2637.46
60.820 -121.504 3.737 8208.30
60.820 -119.659 3.829 20928.72
60.820 -117.815 3.912 14710.82
60.820 -115.970 3.872 5721.20
60.820 -114.125 3.861 4177.75
60.820 -112.281 3.867 4105.67
60.820 -110.436 3.935 3357.41
60.820 -108.591 3.966 3080.89
60.820 -106.747 3.902 3116.77
60.820 -104.902 3.874 2934.02
60.820 -103.057 3.898 3009.87
60.820 -101.213 3.948 4597.21
60.820 -99.368 4.008 3575.51
60.820 -97.524 4.025 4669.16
60.820 -95.679 3.960 3702.18
60.820 -93.834 3.898 4962.16
60.820 -91.990 3.922 759.39
60.820 -90.145 3.926 1232.74
60.820 -88.300 3.935 408.57
60.820 -86.456 3.919 901.08
60.820 -84.611 3.904 1474.47
60.820 -82.766 3.848 1042.90
60.820 -80.922 3.829 350.63
60.820 -79.077 3.819 871.97
60.820 -77.233 3.805 406.58
60.820 -75.388 3.780 443.56
60.820 -73.543 3.760 605.35
60.820 -71.699 3.771 297.70
60.820 -69.854 3.770 103.89
60.820 -68.009 3.756 426.59
60.820 -66.165 3.749 175.83
60.820 -64.320 3.742 100.89
60.820 -62.475 3.743 6.99
60.820 -60.631 3.745 94.92
60.820 -58.786 3.751 0.00
60.820 -56.942 3.755 0.00
60.820 -55.097 3.755 0.00
60.820 -53.252 3.752 54.95
60.820 -51.408 3.749 94.90
60.820 -49.563 3.749 111.88
60.820 -47.718 3.757 199.78
61.720 -152.518 3.753 380.58
61.720 -150.620 3.756 46.96
61.720 -148.722 3.755 987.35
61.720 -146.824 3.740 1131.88
61.720 -144.926 3.689 990.76
61.720 -143.027 3.650 1052.85
61.720 -141.129 3.694 653.39
61.720 -139.231 3.716 521.97
61.720 -137.333 3.759 1051.33
61.720 -135.434 3.804 1232.34
61.720 -133.536 3.766 709.70
61.720 -131.638 3.738 1292.44
61.720 -129.740 3.806 1297.73
61.720 -127.842 3.871 3876.27
61.720 -125.943 3.866 2774.13
61.720 -124.045 3.746 4647.92
61.720 -122.147 3.761 24813.28
61.720 -120.249 3.864 18611.93
61.720 -118.350 3.856 5312.62
61.720 -116.452 3.852 3353.51
61.720 -114.554 3.858 3406.46
61.720 -112.656 3.952 4066.81
61.720 -110.758 4.000 3889.03
61.720 -108.859 3.950 2966.92
61.720 -106.961 3.885 2332.62
61.720 -105.063 3.844 2586.66
61.720 -103.165 3.882 2531.40
61.720 -101.266 3.960 3277.77
61.720 -99.368 4.005 4510.69
61.720 -97.470 4.028 4504.60
61.720 -95.572 4.038 3712.17
61.720 -93.674 3.991 4030.27
61.720 -91.775 3.928 2152.77
61.720 -89.877 3.896 1283.70
61.720 -87.979 3.918 441.52
61.720 -86.081 3.905 714.27
61.720 -84.182 3.886 818.15
61.720 -82.284 3.828 892.07
61.720 -80.386 3.816 828.13
61.720 -78.488 3.823 991.98
61.720 -76.590 3.812 341.65
61.720 -74.691 3.786 493.50
61.720 -72.793 3.772 618.35
61.720 -70.895 3.777 287.70
61.720 -68.997 3.763 246.75
61.720 -67.098 3.748 313.70
61.720 -65.200 3.743 130.87
61.720 -63.302 3.743 13.99
61.720 -61.404 3.744 101.92
61.720 -59.505 3.749 0.00
61.720 -57.607 3.754 0.00
61.720 -55.709 3.757 0.00
61.720 -53.811 3.759 0.00
61.720 -51.913 3.760 0.00
61.720 -50.014 3.759 123.86
61.720 -48.116 3.757 224.75
61.720 -46.218 3.753 178.80
62.619 -154.123 3.744 288.70
62.619 -152.167 3.753 248.53
62.619 -150.212 3.761 404.59
62.619 -148.256 3.737 621.39
62.619 -146.301 3.691 1030.68
62.619 -144.345 3.663 1174.49
62.619 -142.390 3.683 1355.25
62.619 -140.434 3.673 866.74
62.619 -138.479 3.691 1634.72
62.619 -136.523 3.730 1082.92
62.619 -134.567 3.712 815.09
62.619 -132.612 3.708 1278.41
62.619 -130.656 3.799 1592.88
62.619 -128.701 3.889 4043.10
62.619 -126.745 3.871 2845.59
62.619 -124.790 3.754 27473.97
62.619 -122.834 3.890 24901.97
62.619 -120.879 3.920 5336.50
62.619 -118.923 3.850 3410.48
62.619 -116.968 3.837 3213.75
62.619 -115.012 3.924 3507.30
62.619 -113.057 3.967 3213.72
62.619 -111.101 3.969 3765.12
62.619 -109.146 3.927 3031.84
62.619 -107.190 3.888 2366.69
62.619 -105.235 3.868 2038.01
62.619 -103.279 3.903 2021.93
62.619 -101.324 3.947 2048.87
62.619 -99.368 3.977 4296.69
62.619 -97.413 4.020 4137.08
62.619 -95.457 4.048 4851.34
62.619 -93.502 4.029 2968.96
62.619 -91.546 3.924 5191.00
62.619 -89.591 3.869 913.15
62.619 -87.635 3.914 329.66
62.619 -85.680 3.921 673.29
62.619 -83.724 3.887 890.07
62.619 -81.769 3.818 723.22
62.619 -79.813 3.791 251.72
62.619 -77.858 3.814 1103.25
62.619 -75.902 3.826 572.41
62.619 -73.946 3.817 926.04
62.619 -71.991 3.813 352.65
62.619 -70.035 3.800 155.83
62.619 -68.080 3.765 435.58
62.619 -66.124 3.744 180.82
62.619 -64.169 3.739 61.94
62.619 -62.213 3.743 80.93
62.619 -60.258 3.748 20.98
62.619 -58.302 3.753 0.00
62.619 -56.347 3.756 0.00
62.619 -54.391 3.759 124.14
62.619 -52.436 3.761 126.85
62.619 -50.480 3.762 133.84
62.619 -48.525 3.761 33.96
62.619 -46.569 3.759 0.00
62.619 -44.614 3.752 51.95
63.518 -155.841 3.732 295.68
63.518 -153.824 3.735 300.67
63.518 -151.807 3.741 479.15
63.518 -149.790 3.728 870.01
63.518 -147.773 3.717 1073.83
63.518 -145.757 3.723 1520.11
63.518 -143.740 3.731 1333.85
63.518 -141.723 3.714 951.22
63.518 -139.706 3.708 1867.71
63.518 -137.689 3.698 1988.78
63.518 -135.672 3.659 1392.21
63.518 -133.655 3.681 2168.57
63.518 -131.638 3.765 2586.91
63.518 -129.622 3.875 3370.84
63.518 -127.605 3.949 5003.59
63.518 -125.588 3.933 28986.97
63.518 -123.571 3.939 5291.65
63.518 -121.554 3.893 3322.64
63.518 -119.537 3.849 2768.30
63.518 -117.520 3.894 2886.10
63.518 -115.503 3.951 2474.43
63.518 -113.486 3.980 2130.87
63.518 -111.470 3.972 2637.44
63.518 -109.453 3.932 2323.79
63.518 -107.436 3.926 2614.37
63.518 -105.419 3.940 1907.18
63.518 -103.402 3.933 1647.32
63.518 -101.385 3.934 1901.97
63.518 -99.368 3.942 2673.30
63.518 -97.351 3.933 4226.68
63.518 -95.334 3.933 5165.12
63.518 -93.318 3.937 3935.55
63.518 -91.301 3.890 4329.21
63.518 -89.284 3.854 3031.01
63.518 -87.267 3.926 503.48
63.518 -85.250 3.940 747.22
63.518 -83.233 3.884 820.18
63.518 -81.216 3.810 713.26
63.518 -79.199 3.792 480.49
63.518 -77.182 3.833 904.04
63.518 -75.166 3.856 701.28
63.518 -73.149 3.856 944.99
63.518 -71.132 3.861 895.08
63.518 -69.115 3.826 717.77
63.518 -67.098 3.770 290.72
63.518 -65.081 3.742 103.89
63.518 -63.064 3.741 54.96
63.518 -61.047 3.746 47.96
63.518 -59.030 3.751 0.00
63.518 -57.014 3.754 0.00
63.518 -54.997 3.755 0.00
63.518 -52.980 3.756 0.00
63.518 -50.963 3.757 0.00
63.518 -48.946 3.757 0.00
63.518 -46.929 3.755 0.00
63.518 -44.912 3.753 0.00
63.518 -42.895 3.751 15.98
64.418 -157.686 3.738 352.61
64.418 -155.603 3.739 107.88
64.418 -153.520 3.736 153.84
64.418 -151.437 3.730 461.19
64.418 -149.355 3.736 448.69
64.418 -147.272 3.748 1178.94
64.418 -145.189 3.766 785.40
64.418 -143.106 3.775 583.89
64.418 -141.023 3.798 1513.53
64.418 -138.941 3.761 1127.12
64.418 -136.858 3.702 1382.26
64.418 -134.775 3.721 1849.47
64.418 -132.692 3.765 1674.26
64.418 -130.610 3.899 2818.50
64.418 -128.527 4.063 7641.56
64.418 -126.444 4.033 4787.61
64.418 -124.361 3.959 3528.14
64.418 -122.279 3.903 3610.53
64.418 -120.196 3.894 2857.68
64.418 -118.113 3.906 1432.80
64.418 -116.030 3.959 1304.75
64.418 -113.948 4.027 1070.01
64.418 -111.865 4.045 1648.42
64.418 -109.782 3.993 2526.57
64.418 -107.699 3.962 2041.87
64.418 -105.616 3.968 2006.93
64.418 -103.534 3.944 1953.16
64.418 -101.451 3.893 2080.94
64.418 -99.368 3.871 1957.04
64.418 -97.285 3.851 4165.84
64.418 -95.203 3.857 4516.73
64.418 -93.120 3.865 4635.21
64.418 -91.037 3.855 2384.67
64.418 -88.954 3.842 6650.83
64.418 -86.872 3.918 542.48
64.418 -84.789 3.924 834.12
64.418 -82.706 3.857 797.20
64.418 -80.623 3.782 711.26
64.418 -78.541 3.766 698.25
64.418 -76.458 3.811 605.39
64.418 -74.375 3.831 817.18
64.418 -72.292 3.836 787.21
64.418 -70.210 3.831 347.64
64.418 -68.127 3.797 562.46
64.418 -66.044 3.757 202.15
64.418 -63.961 3.743 37.97
64.418 -61.878 3.744 72.94
64.418 -59.796 3.750 0.00
64.418 -57.713 3.753 0.00
64.418 -55.630 3.753 0.00
64.418 -53.547 3.753 0.00
64.418 -51.465 3.753 0.00
64.418 -49.382 3.754 0.00
64.418 -47.299 3.753 0.00
64.418 -45.216 3.751 2.27
64.418 -43.134 3.746 292.63
64.418 -41.051 3.747 143.83
65.317 -159.670 3.745 0.00
65.317 -157.516 3.746 45.96
65.317 -155.363 3.741 107.89
65.317 -153.209 3.734 119.87
65.317 -151.055 3.736 305.69
65.317 -148.902 3.743 529.53
65.317 -146.748 3.759 466.49
65.317 -144.595 3.793 404.46
65.317 -142.441 3.827 561.56
65.317 -140.287 3.797 295.78
65.317 -138.134 3.782 1168.87
65.317 -135.980 3.793 901.24
65.317 -133.826 3.784 1449.74
65.317 -131.673 3.851 2518.58
65.317 -129.519 3.983 3506.44
65.317 -127.365 3.946 1481.14
65.317 -125.212 3.890 1268.96
65.317 -123.058 3.882 1038.49
65.317 -120.905 3.878 1550.59
65.317 -118.751 3.909 1692.46
65.317 -116.597 3.980 1114.02
65.317 -114.444 4.043 1112.03
65.317 -112.290 4.070 1385.47
65.317 -110.136 4.027 1474.23
65.317 -107.983 3.991 2016.90
65.317 -105.829 3.978 2290.64
65.317 -103.675 3.931 1830.14
65.317 -101.522 3.869 1649.38
65.317 -99.368 3.842 2129.75
65.317 -97.215 3.851 2828.12
65.317 -95.061 3.884 4427.44
65.317 -92.907 3.907 5506.28
65.317 -90.754 3.936 2709.61
65.317 -88.600 3.935 573.34
65.317 -86.446 3.968 786.19
65.317 -84.293 3.932 844.11
65.317 -82.139 3.844 663.34
65.317 -79.985 3.775 708.26
65.317 -77.832 3.766 845.10
65.317 -75.678 3.804 656.34
65.317 -73.525 3.813 969.99
65.317 -71.371 3.812 483.51
65.317 -69.217 3.798 443.57
65.317 -67.064 3.768 257.75
65.317 -64.910 3.747 81.26
65.317 -62.756 3.744 97.92
65.317 -60.603 3.749 0.00
65.317 -58.449 3.753 0.00
65.317 -56.295 3.754 0.00
65.317 -54.142 3.753 0.00
65.317 -51.988 3.752 0.00
65.317 -49.835 3.753 0.00
65.317 -47.681 3.753 0.00
65.317 -45.527 3.753 0.00
65.317 -43.374 3.754 0.00
65.317 -41.220 3.752 76.94
65.317 -39.066 3.749 216.82
66.216 -161.810 3.741 253.77
66.216 -159.580 3.740 88.91
66.216 -157.350 3.739 93.90
66.216 -155.120 3.736 170.83
66.216 -152.890 3.731 209.78
66.216 -150.660 3.729 316.68
66.216 -148.430 3.737 561.42
66.216 -146.200 3.764 729.33
66.216 -143.970 3.796 563.19
66.216 -141.740 3.790 1366.54
66.216 -139.510 3.813 1230.45
66.216 -137.279 3.871 1321.10
66.216 -135.049 3.849 1347.16
66.216 -132.819 3.854 2320.06
66.216 -130.589 3.921 1752.56
66.216 -128.359 3.861 1147.83
66.216 -126.129 3.859 1053.91
66.216 -123.899 3.876 801.71
66.216 -121.669 3.918 379.63
66.216 -119.439 3.962 867.19
66.216 -117.209 3.980 1245.78
66.216 -114.979 4.005 955.04
66.216 -112.749 4.033 1004.05
66.216 -110.519 4.010 1119.11
66.216 -108.288 3.959 1777.21
66.216 -106.058 3.924 1735.24
66.216 -103.828 3.900 2345.59
66.216 -101.598 3.876 1969.08
66.216 -99.368 3.846 1800.19
66.216 -97.138 3.864 2123.78
66.216 -94.908 3.884 4252.67
66.216 -92.678 3.921 5566.91
66.216 -90.448 3.964 4071.13
66.216 -88.218 3.990 752.70
66.216 -85.988 3.992 901.56
66.216 -83.758 3.930 924.06
66.216 -81.528 3.840 1001.02
66.216 -79.298 3.786 776.21
66.216 -77.067 3.795 1106.85
66.216 -74.837 3.820 609.38
66.216 -72.607 3.819 792.17
66.216 -70.377 3.806 387.60
66.216 -68.147 3.785 551.48
66.216 -65.917 3.760 206.80
66.216 -63.687 3.755 123.90
66.216 -61.457 3.758 0.00
66.216 -59.227 3.761 0.00
66.216 -56.997 3.762 0.00
66.216 -54.767 3.761 0.00
66.216 -52.537 3.758 0.00
66.216 -50.307 3.754 0.00
66.216 -48.077 3.753 0.00
66.216 -45.846 3.753 0.00
66.216 -43.616 3.753 0.00
66.216 -41.386 3.754 0.00
66.216 -39.156 3.755 0.00
66.216 -36.926 3.754 0.00
67.116 -164.125 3.754 182.85
67.116 -161.812 3.753 73.96
67.116 -159.499 3.751 65.96
67.116 -157.186 3.749 0.00
67.116 -154.874 3.744 34.97
67.116 -152.561 3.739 104.90
67.116 -150.248 3.742 308.33
67.116 -147.935 3.762 514.37
67.116 -145.623 3.786 623.11
67.116 -143.310 3.791 604.72
67.116 -140.997 3.841 886.73
67.116 -138.685 3.941 1164.19
67.116 -136.372 3.952 519.38
67.116 -134.059 3.964 2712.44
67.116 -131.746 3.950 2210.15
67.116 -129.434 3.918 924.05
67.116 -127.121 3.918 928.05
67.116 -124.808 3.955 832.36
67.116 -122.495 3.982 676.72
67.116 -120.183 3.976 411.57
67.116 -117.870 3.948 483.53
67.116 -115.557 3.922 743.28
67.116 -113.245 3.912 613.40
67.116 -110.932 3.908 704.33
67.116 -108.619 3.902 937.08
67.116 -106.306 3.883 1764.19
67.116 -103.994 3.885 2028.93
67.116 -101.681 3.890 2411.49
67.116 -99.368 3.882 2073.98
67.116 -97.055 3.876 2341.58
67.116 -94.743 3.888 2963.98
67.116 -92.430 3.908 4884.83
67.116 -90.117 3.980 5555.24
67.116 -87.805 4.015 1430.43
67.116 -85.492 3.988 682.32
67.116 -83.179 3.911 781.17
67.116 -80.866 3.814 868.13
67.116 -78.554 3.775 674.30
67.116 -76.241 3.798 974.00
67.116 -73.928 3.822 1123.85
67.116 -71.615 3.822 723.27
67.116 -69.303 3.799 615.41
67.116 -66.990 3.772 315.70
67.116 -64.677 3.766 187.83
67.116 -62.365 3.770 119.89
67.116 -60.052 3.773 98.91
67.116 -57.739 3.773 95.91
67.116 -55.426 3.772 94.91
67.116 -53.114 3.770 91.91
67.116 -50.801 3.764 60.95
67.116 -48.488 3.757 0.00
67.116 -46.176 3.754 0.00
67.116 -43.863 3.753 0.00
67.116 -41.550 3.753 0.00
67.116 -39.237 3.753 0.00
67.116 -36.925 3.754 0.00
67.116 -34.612 3.755 0.00
68.015 -166.634 3.760 15.99
68.015 -164.232 3.762 69.93
68.015 -161.829 3.760 42.96
68.015 -159.427 3.756 74.96
68.015 -157.025 3.753 76.96
68.015 -154.622 3.749 71.96
68.015 -152.220 3.749 65.94
68.015 -149.818 3.757 183.80
68.015 -147.415 3.773 523.47
68.015 -145.013 3.778 432.90
68.015 -142.611 3.835 1157.09
68.015 -140.208 3.950 1128.83
68.015 -137.806 3.963 475.27
68.015 -135.404 3.994 3066.70
68.015 -133.001 4.015 1849.49
68.015 -130.599 4.000 750.26
68.015 -128.196 3.978 253.73
68.015 -125.794 3.967 243.75
68.015 -123.392 3.936 413.31
68.015 -120.989 3.883 250.75
68.015 -118.587 3.847 188.82
68.015 -116.185 3.816 289.72
68.015 -113.782 3.804 510.50
68.015 -111.380 3.828 496.51
68.015 -108.978 3.861 600.43
68.015 -106.575 3.875 1251.72
68.015 -104.173 3.881 1578.38
68.015 -101.771 3.887 2150.79
68.015 -99.368 3.887 2511.45
68.015 -96.966 3.883 2143.91
68.015 -94.563 3.895 2675.21
68.015 -92.161 3.906 4994.91
68.015 -89.759 3.965 6043.72
68.015 -87.356 4.029 2907.93
68.015 -84.954 3.991 1026.95
68.015 -82.552 3.913 938.02
68.015 -80.149 3.793 1185.80
68.015 -77.747 3.767 547.42
68.015 -75.345 3.787 865.10
68.015 -72.942 3.797 995.96
68.015 -70.540 3.789 474.51
68.015 -68.138 3.765 424.60
68.015 -65.735 3.748 102.90
68.015 -63.333 3.753 41.96
68.015 -60.931 3.759 0.00
68.015 -58.528 3.762 0.00
68.015 -56.126 3.762 0.00
68.015 -53.723 3.761 0.00
68.015 -51.321 3.761 0.00
68.015 -48.919 3.758 0.00
68.015 -46.516 3.754 0.00
68.015 -44.114 3.753 0.00
68.015 -41.712 3.753 0.00
