38.336 -84.463 2.543 4664.42
38.336 -83.316 2.650 1627.28
38.336 -82.170 2.788 50.87
38.336 -81.023 2.865 7.53
38.336 -79.876 2.863 654.64
38.336 -78.730 2.866 101.60
38.336 -77.583 2.879 13.01
38.336 -76.437 2.888 0.00
38.336 -75.290 2.891 0.00
38.336 -74.143 2.889 0.00
38.336 -72.997 2.888 0.00
38.336 -71.850 2.888 0.00
38.336 -70.704 2.888 0.00
38.336 -69.557 2.889 0.00
38.336 -68.411 2.889 0.00
38.336 -67.264 2.889 0.00
39.236 -131.880 2.889 0.00
39.236 -130.719 2.889 0.00
39.236 -129.558 2.889 0.00
39.236 -128.397 2.889 0.00
39.236 -127.235 2.889 0.00
39.236 -126.074 2.889 0.00
39.236 -124.913 2.889 0.00
39.236 -123.752 2.889 0.00
39.236 -122.591 2.889 0.00
39.236 -121.430 2.889 0.00
39.236 -120.269 2.889 0.00
39.236 -119.107 2.889 0.00
39.236 -117.946 2.889 0.00
39.236 -116.785 2.889 0.00
39.236 -115.624 2.889 0.00
39.236 -114.463 2.889 0.00
39.236 -113.302 2.889 0.00
39.236 -112.141 2.889 0.00
39.236 -110.980 2.889 0.00
39.236 -109.818 2.889 0.00
39.236 -108.657 2.888 0.00
39.236 -107.496 2.888 0.00
39.236 -106.335 2.893 0.00
39.236 -105.174 2.902 0.00
39.236 -104.013 2.897 0.00
39.236 -102.852 2.880 0.00
39.236 -101.690 2.856 0.00
39.236 -100.529 2.820 0.00
39.236 -99.368 2.770 432.20
39.236 -98.207 2.731 108.03
39.236 -97.046 2.710 267.92
39.236 -95.885 2.747 1598.88
39.236 -94.724 2.846 7305.54
39.236 -93.563 2.956 18486.87
39.236 -92.401 2.976 23709.50
39.236 -91.240 2.896 26781.22
39.236 -90.079 2.775 11458.15
39.236 -88.918 2.569 9184.00
39.236 -87.757 2.417 11667.55
39.236 -86.596 2.384 5489.55
39.236 -85.435 2.415 5441.15
39.236 -84.273 2.515 4997.08
39.236 -83.112 2.672 1570.62
39.236 -81.951 2.823 421.26
39.236 -80.790 2.887 6.87
39.236 -79.629 2.881 149.83
39.236 -78.468 2.879 39.09
39.236 -77.307 2.882 0.00
39.236 -76.145 2.884 0.00
39.236 -74.984 2.884 0.00
39.236 -73.823 2.885 0.00
39.236 -72.662 2.888 0.00
39.236 -71.501 2.887 0.00
39.236 -70.340 2.887 0.00
39.236 -69.179 2.887 0.00
39.236 -68.018 2.889 0.00
39.236 -66.856 2.889 0.00
40.135 -132.306 2.889 0.00
40.135 -131.130 2.889 0.00
40.135 -129.954 2.889 0.00
40.135 -128.777 2.889 0.00
40.135 -127.601 2.889 0.00
40.135 -126.424 2.889 0.00
40.135 -125.248 2.889 0.00
40.135 -124.072 2.889 0.00
40.135 -122.895 2.889 0.00
40.135 -121.719 2.889 0.00
40.135 -120.543 2.889 0.00
40.135 -119.366 2.889 0.00
40.135 -118.190 2.889 0.00
40.135 -117.014 2.889 0.00
40.135 -115.837 2.888 0.00
40.135 -114.661 2.887 0.00
40.135 -113.484 2.887 0.00
40.135 -112.308 2.888 0.00
40.135 -111.132 2.889 0.00
40.135 -109.955 2.889 0.00
40.135 -108.779 2.889 0.00
40.135 -107.603 2.888 0.00
40.135 -106.426 2.888 0.00
40.135 -105.250 2.892 0.00
40.135 -104.074 2.899 0.00
40.135 -102.897 2.904 0.00
40.135 -101.721 2.908 0.00
40.135 -100.545 2.904 0.00
40.135 -99.368 2.894 7.05
40.135 -98.192 2.882 41.14
40.135 -97.015 2.848 0.00
40.135 -95.839 2.799 434.38
40.135 -94.663 2.782 1790.58
40.135 -93.486 2.790 10010.59
40.135 -92.310 2.785 12611.12
40.135 -91.134 2.726 14623.37
40.135 -89.957 2.635 4784.56
40.135 -88.781 2.545 2015.86
40.135 -87.605 2.476 2477.77
40.135 -86.428 2.454 2022.46
40.135 -85.252 2.479 6270.22
40.135 -84.076 2.582 4166.47
40.135 -82.899 2.750 741.94
40.135 -81.723 2.873 157.46
40.135 -80.546 2.898 1.31
40.135 -79.370 2.886 15.35
40.135 -78.194 2.876 103.56
40.135 -77.017 2.863 362.25
40.135 -75.841 2.856 548.15
40.135 -74.665 2.864 624.62
40.135 -73.488 2.886 70.06
40.135 -72.312 2.898 0.00
40.135 -71.136 2.891 0.00
40.135 -69.959 2.889 0.00
40.135 -68.783 2.887 0.00
40.135 -67.607 2.887 0.00
40.135 -66.430 2.889 0.00
41.034 -132.752 2.889 0.00
41.034 -131.560 2.889 0.00
41.034 -130.368 2.889 0.00
41.034 -129.175 2.889 0.00
41.034 -127.983 2.889 0.00
41.034 -126.791 2.889 0.00
41.034 -125.598 2.889 0.00
41.034 -124.406 2.889 0.00
41.034 -123.214 2.889 0.00
41.034 -122.022 2.889 0.00
41.034 -120.829 2.889 0.00
41.034 -119.637 2.889 0.00
41.034 -118.445 2.889 0.00
41.034 -117.252 2.889 0.00
41.034 -116.060 2.887 0.00
41.034 -114.868 2.885 87.11
41.034 -113.676 2.884 60.08
41.034 -112.483 2.886 0.00
41.034 -111.291 2.887 0.00
41.034 -110.099 2.889 0.00
41.034 -108.906 2.889 0.00
41.034 -107.714 2.889 0.00
41.034 -106.522 2.888 0.00
41.034 -105.330 2.888 0.00
41.034 -104.137 2.889 0.00
41.034 -102.945 2.892 0.00
41.034 -101.753 2.896 0.00
41.034 -100.560 2.898 0.00
41.034 -99.368 2.902 0.00
41.034 -98.176 2.910 0.00
41.034 -96.984 2.903 0.00
41.034 -95.791 2.859 202.53
41.034 -94.599 2.792 722.21
41.034 -93.407 2.725 2487.87
41.034 -92.215 2.684 8873.54
41.034 -91.022 2.661 10847.32
41.034 -89.830 2.637 3618.94
41.034 -88.638 2.600 2353.47
41.034 -87.445 2.571 1403.09
41.034 -86.253 2.530 1462.94
41.034 -85.061 2.524 5363.92
41.034 -83.869 2.635 1376.47
41.034 -82.676 2.829 1205.14
41.034 -81.484 2.914 344.10
41.034 -80.292 2.900 1.05
41.034 -79.099 2.873 4.51
41.034 -77.907 2.855 159.21
41.034 -76.715 2.839 465.25
41.034 -75.523 2.842 570.51
41.034 -74.330 2.868 1005.60
41.034 -73.138 2.904 1431.76
41.034 -71.946 2.917 519.20
41.034 -70.753 2.911 0.00
41.034 -69.561 2.892 0.00
41.034 -68.369 2.889 0.00
41.034 -67.177 2.888 0.00
41.034 -65.984 2.888 0.00
41.934 -133.219 2.889 0.00
41.934 -132.010 2.889 0.00
41.934 -130.801 2.889 0.00
41.934 -129.592 2.889 0.00
41.934 -128.383 2.889 0.00
41.934 -127.174 2.889 0.00
41.934 -125.965 2.889 0.00
41.934 -124.756 2.889 0.00
41.934 -123.547 2.889 0.00
41.934 -122.338 2.889 0.00
41.934 -121.129 2.889 0.00
41.934 -119.920 2.889 0.00
41.934 -118.711 2.889 0.00
41.934 -117.502 2.889 0.00
41.934 -116.293 2.888 0.00
41.934 -115.085 2.886 0.00
41.934 -113.876 2.884 49.06
41.934 -112.667 2.883 109.14
41.934 -111.458 2.885 22.03
41.934 -110.249 2.888 1.70
41.934 -109.040 2.889 0.00
41.934 -107.831 2.889 0.00
41.934 -106.622 2.889 0.00
41.934 -105.413 2.888 0.00
41.934 -104.204 2.888 0.00
41.934 -102.995 2.888 0.00
41.934 -101.786 2.889 0.00
41.934 -100.577 2.889 0.00
41.934 -99.368 2.889 5.57
41.934 -98.159 2.896 0.00
41.934 -96.950 2.908 80.95
41.934 -95.741 2.903 275.70
41.934 -94.532 2.858 69.19
41.934 -93.323 2.783 87.60
41.934 -92.115 2.728 3353.78
41.934 -90.906 2.744 18245.40
41.934 -89.697 2.755 5480.70
41.934 -88.488 2.669 3278.30
41.934 -87.279 2.568 2416.08
41.934 -86.070 2.475 3787.37
41.934 -84.861 2.437 3328.79
41.934 -83.652 2.554 2524.21
41.934 -82.443 2.791 2566.87
41.934 -81.234 2.898 472.98
41.934 -80.025 2.894 430.32
41.934 -78.816 2.876 314.53
41.934 -77.607 2.865 21.62
41.934 -76.398 2.873 26.32
41.934 -75.189 2.887 317.85
41.934 -73.980 2.902 1179.82
41.934 -72.771 2.930 2445.71
41.934 -71.562 2.954 5676.98
41.934 -70.353 2.941 9452.65
41.934 -69.145 2.903 0.00
41.934 -67.936 2.885 0.00
41.934 -66.727 2.885 0.00
41.934 -65.518 2.889 0.00
42.833 -133.707 2.889 0.00
42.833 -132.481 2.889 0.00
42.833 -131.254 2.889 0.00
42.833 -130.028 2.889 0.00
42.833 -128.802 2.889 0.00
42.833 -127.575 2.889 0.00
42.833 -126.349 2.889 0.00
42.833 -125.122 2.889 0.00
42.833 -123.896 2.889 0.00
42.833 -122.670 2.889 0.00
42.833 -121.443 2.889 0.00
42.833 -120.217 2.889 0.00
42.833 -118.990 2.889 0.00
42.833 -117.764 2.889 0.00
42.833 -116.538 2.889 0.00
42.833 -115.311 2.888 0.00
42.833 -114.085 2.887 0.00
42.833 -112.858 2.886 0.00
42.833 -111.632 2.885 77.57
42.833 -110.406 2.887 0.55
42.833 -109.179 2.889 0.35
42.833 -107.953 2.889 0.00
42.833 -106.727 2.889 0.00
42.833 -105.500 2.889 0.00
42.833 -104.274 2.889 0.00
42.833 -103.047 2.889 0.00
42.833 -101.821 2.888 0.00
42.833 -100.595 2.887 0.00
42.833 -99.368 2.884 4.50
42.833 -98.142 2.888 128.29
42.833 -96.915 2.903 637.36
42.833 -95.689 2.908 65.98
42.833 -94.463 2.889 66.67
42.833 -93.236 2.849 381.39
42.833 -92.010 2.846 1253.16
42.833 -90.783 2.919 15391.23
42.833 -89.557 2.928 9562.88
42.833 -88.331 2.733 5197.03
42.833 -87.104 2.501 1372.66
42.833 -85.878 2.343 1820.33
42.833 -84.652 2.272 2965.19
42.833 -83.425 2.373 3468.91
42.833 -82.199 2.618 2849.36
42.833 -80.972 2.834 4251.30
42.833 -79.746 2.934 3569.75
42.833 -78.520 2.965 3399.94
42.833 -77.293 2.963 2315.39
42.833 -76.067 2.963 2504.89
42.833 -74.840 2.969 2794.67
42.833 -73.614 2.978 4426.17
42.833 -72.388 2.990 8761.43
42.833 -71.161 2.993 10325.16
42.833 -69.935 2.947 3192.04
42.833 -68.708 2.911 92.09
42.833 -67.482 2.891 0.00
42.833 -66.256 2.882 0.00
42.833 -65.029 2.886 0.00
43.732 -134.219 2.889 0.00
43.732 -132.974 2.889 0.00
43.732 -131.729 2.889 0.00
43.732 -130.485 2.889 0.00
43.732 -129.240 2.889 0.00
43.732 -127.995 2.889 0.00
43.732 -126.751 2.889 0.00
43.732 -125.506 2.889 0.00
43.732 -124.261 2.889 0.00
43.732 -123.017 2.889 0.00
43.732 -121.772 2.889 0.00
43.732 -120.527 2.889 0.00
43.732 -119.283 2.889 0.00
43.732 -118.038 2.889 0.00
43.732 -116.793 2.889 0.00
43.732 -115.549 2.889 0.00
43.732 -114.304 2.889 0.00
43.732 -113.059 2.888 0.00
43.732 -111.815 2.888 0.00
43.732 -110.570 2.888 0.72
43.732 -109.325 2.889 0.00
43.732 -108.081 2.889 0.00
43.732 -106.836 2.889 0.00
43.732 -105.591 2.889 0.00
43.732 -104.347 2.889 0.00
43.732 -103.102 2.889 0.00
43.732 -101.858 2.888 0.00
43.732 -100.613 2.885 0.00
43.732 -99.368 2.880 255.18
43.732 -98.124 2.887 691.48
43.732 -96.879 2.910 1346.90
43.732 -95.634 2.912 1019.61
43.732 -94.390 2.890 1147.63
43.732 -93.145 2.884 113.61
43.732 -91.900 2.951 906.50
43.732 -90.656 3.079 14100.61
43.732 -89.411 3.078 13742.10
43.732 -88.166 2.835 11923.30
43.732 -86.922 2.519 3625.35
43.732 -85.677 2.319 3215.57
43.732 -84.432 2.226 2399.51
43.732 -83.188 2.273 3420.55
43.732 -81.943 2.501 2611.31
43.732 -80.698 2.823 10436.88
43.732 -79.454 3.049 10792.46
43.732 -78.209 3.131 10013.91
43.732 -76.964 3.133 12226.36
43.732 -75.720 3.126 13314.91
43.732 -74.475 3.114 16396.16
43.732 -73.230 3.066 19528.30
43.732 -71.986 3.010 14586.03
43.732 -70.741 2.989 10504.32
43.732 -69.496 2.983 6449.66
43.732 -68.252 2.953 349.29
43.732 -67.007 2.901 0.00
43.732 -65.763 2.884 0.00
43.732 -64.518 2.886 0.00
44.632 -134.754 2.889 0.00
44.632 -133.490 2.889 0.00
44.632 -132.227 2.889 0.00
44.632 -130.963 2.889 0.00
44.632 -129.699 2.889 0.00
44.632 -128.435 2.889 0.00
44.632 -127.172 2.889 0.00
44.632 -125.908 2.889 0.00
44.632 -124.644 2.889 0.00
44.632 -123.380 2.889 0.00
44.632 -122.116 2.889 0.00
44.632 -120.853 2.889 0.00
44.632 -119.589 2.889 0.00
44.632 -118.325 2.889 0.00
44.632 -117.061 2.889 0.00
44.632 -115.797 2.889 0.00
44.632 -114.534 2.889 0.00
44.632 -113.270 2.889 0.00
44.632 -112.006 2.889 0.00
44.632 -110.742 2.889 0.00
44.632 -109.479 2.889 0.00
44.632 -108.215 2.889 0.00
44.632 -106.951 2.889 0.00
44.632 -105.687 2.889 0.00
44.632 -104.423 2.889 0.00
44.632 -103.160 2.889 0.00
44.632 -101.896 2.889 0.00
44.632 -100.632 2.887 0.00
44.632 -99.368 2.887 0.00
44.632 -98.104 2.903 233.85
44.632 -96.841 2.932 1023.69
44.632 -95.577 2.937 1400.68
44.632 -94.313 2.895 503.93
44.632 -93.049 2.881 17.57
44.632 -91.785 2.984 511.37
44.632 -90.522 3.149 10495.62
44.632 -89.258 3.185 13956.08
44.632 -87.994 3.004 13188.68
44.632 -86.730 2.713 2800.87
44.632 -85.467 2.540 1048.73
44.632 -84.203 2.451 1018.63
44.632 -82.939 2.482 2623.31
44.632 -81.675 2.678 1921.10
44.632 -80.411 2.948 3989.07
44.632 -79.148 3.144 7806.22
44.632 -77.884 3.214 12929.93
44.632 -76.620 3.212 13472.77
44.632 -75.356 3.151 14502.27
44.632 -74.092 3.047 15742.60
44.632 -72.829 2.950 11152.14
44.632 -71.565 2.932 10282.82
44.632 -70.301 2.986 10234.99
44.632 -69.037 3.052 7524.91
44.632 -67.773 2.999 6915.81
44.632 -66.510 2.918 0.00
44.632 -65.246 2.890 0.00
44.632 -63.982 2.887 0.00
45.531 -135.316 2.889 0.00
45.531 -134.032 2.889 0.00
45.531 -132.748 2.889 0.00
45.531 -131.464 2.889 0.00
45.531 -130.180 2.889 0.00
45.531 -128.897 2.889 0.00
45.531 -127.613 2.889 0.00
45.531 -126.329 2.889 0.00
45.531 -125.045 2.889 0.00
45.531 -123.761 2.889 0.00
45.531 -122.477 2.889 0.00
45.531 -121.193 2.889 0.00
45.531 -119.910 2.889 0.00
45.531 -118.626 2.889 0.00
45.531 -117.342 2.889 0.00
45.531 -116.058 2.889 0.00
45.531 -114.774 2.889 0.00
45.531 -113.490 2.889 0.00
45.531 -112.207 2.889 0.00
45.531 -110.923 2.889 0.00
45.531 -109.639 2.889 0.00
45.531 -108.355 2.889 0.00
45.531 -107.071 2.889 0.00
45.531 -105.787 2.889 0.00
45.531 -104.504 2.889 0.00
45.531 -103.220 2.889 0.00
45.531 -101.936 2.889 0.00
45.531 -100.652 2.888 0.00
45.531 -99.368 2.891 87.94
45.531 -98.084 2.908 140.86
45.531 -96.801 2.943 709.32
45.531 -95.517 2.958 1953.80
45.531 -94.233 2.902 1358.39
45.531 -92.949 2.856 691.55
45.531 -91.665 2.929 1046.74
45.531 -90.381 3.091 5986.34
45.531 -89.097 3.161 11711.78
45.531 -87.814 3.073 8778.85
45.531 -86.530 2.854 2079.09
45.531 -85.246 2.748 3657.39
45.531 -83.962 2.723 3811.18
45.531 -82.678 2.783 4539.12
45.531 -81.394 2.949 2819.11
45.531 -80.111 3.111 3988.61
45.531 -78.827 3.207 8322.68
45.531 -77.543 3.216 11730.67
45.531 -76.259 3.169 17193.92
45.531 -74.975 3.060 13378.35
45.531 -73.691 2.914 9577.95
45.531 -72.408 2.822 5606.52
45.531 -71.124 2.855 3726.82
45.531 -69.840 2.940 5729.67
45.531 -68.556 2.999 4455.05
45.531 -67.272 2.966 1639.87
45.531 -65.988 2.910 6.17
45.531 -64.705 2.888 0.00
45.531 -63.421 2.886 0.00
46.431 -135.904 2.889 0.00
46.431 -134.600 2.889 0.00
46.431 -133.295 2.889 0.00
46.431 -131.990 2.889 0.00
46.431 -130.685 2.889 0.00
46.431 -129.380 2.889 0.00
46.431 -128.075 2.889 0.00
46.431 -126.770 2.889 0.00
46.431 -125.466 2.889 0.00
46.431 -124.161 2.889 0.00
46.431 -122.856 2.889 0.00
46.431 -121.551 2.889 0.00
46.431 -120.246 2.889 0.00
46.431 -118.941 2.889 0.00
46.431 -117.636 2.889 0.00
46.431 -116.331 2.889 0.00
46.431 -115.027 2.889 0.00
46.431 -113.722 2.889 0.00
46.431 -112.417 2.889 0.00
46.431 -111.112 2.889 0.00
46.431 -109.807 2.889 0.00
46.431 -108.502 2.889 0.00
46.431 -107.197 2.889 0.00
46.431 -105.893 2.889 0.00
46.431 -104.588 2.889 0.00
46.431 -103.283 2.889 0.00
46.431 -101.978 2.888 0.00
46.431 -100.673 2.887 0.00
46.431 -99.368 2.888 0.00
46.431 -98.063 2.906 304.73
46.431 -96.758 2.956 885.14
46.431 -95.454 3.001 1566.32
46.431 -94.149 2.983 2096.46
46.431 -92.844 2.920 1012.19
46.431 -91.539 2.922 538.02
46.431 -90.234 3.006 1847.55
46.431 -88.929 3.047 1350.13
46.431 -87.624 3.000 4883.55
46.431 -86.320 2.874 782.53
46.431 -85.015 2.819 1338.25
46.431 -83.710 2.842 1974.98
46.431 -82.405 2.932 2536.32
46.431 -81.100 3.050 4682.56
46.431 -79.795 3.121 10276.38
46.431 -78.490 3.158 9537.43
46.431 -77.185 3.153 10187.50
46.431 -75.881 3.129 12429.42
46.431 -74.576 3.060 9012.17
46.431 -73.271 2.944 6704.28
46.431 -71.966 2.849 2230.82
46.431 -70.661 2.849 2434.78
46.431 -69.356 2.896 3331.66
46.431 -68.051 2.942 2062.51
46.431 -66.747 2.920 0.00
46.431 -65.442 2.891 0.00
46.431 -64.137 2.883 0.00
46.431 -62.832 2.886 0.00
47.330 -136.522 2.889 0.00
47.330 -135.195 2.889 0.00
47.330 -133.868 2.889 0.00
47.330 -132.541 2.889 0.00
47.330 -131.214 2.889 0.00
47.330 -129.887 2.889 0.00
47.330 -128.561 2.889 0.00
47.330 -127.234 2.889 0.00
47.330 -125.907 2.889 0.00
47.330 -124.580 2.889 0.00
47.330 -123.253 2.889 0.00
47.330 -121.926 2.889 0.00
47.330 -120.599 2.889 0.00
47.330 -119.272 2.889 0.00
47.330 -117.945 2.889 0.00
47.330 -116.618 2.889 0.00
47.330 -115.291 2.889 0.00
47.330 -113.964 2.889 0.00
47.330 -112.637 2.889 0.00
47.330 -111.311 2.889 0.00
47.330 -109.984 2.889 0.00
47.330 -108.657 2.889 0.00
47.330 -107.330 2.889 0.00
47.330 -106.003 2.889 0.00
47.330 -104.676 2.889 0.00
47.330 -103.349 2.889 0.00
47.330 -102.022 2.888 0.00
47.330 -100.695 2.886 0.00
47.330 -99.368 2.886 0.00
47.330 -98.041 2.913 194.97
47.330 -96.714 2.986 1087.92
47.330 -95.387 3.062 2233.05
47.330 -94.061 3.086 3163.36
47.330 -92.734 3.026 2350.14
47.330 -91.407 2.965 2768.79
47.330 -90.080 2.947 683.67
47.330 -88.753 2.942 19.01
47.330 -87.426 2.917 7.69
47.330 -86.099 2.877 0.00
47.330 -84.772 2.861 0.00
47.330 -83.445 2.886 112.75
47.330 -82.118 2.945 346.92
47.330 -80.791 3.006 653.67
47.330 -79.464 3.039 1358.94
47.330 -78.137 3.072 1973.34
47.330 -76.811 3.074 6308.15
47.330 -75.484 3.045 2993.17
47.330 -74.157 3.012 1596.10
47.330 -72.830 2.963 1368.59
47.330 -71.503 2.904 1208.82
47.330 -70.176 2.882 1810.35
47.330 -68.849 2.891 446.59
47.330 -67.522 2.903 77.56
47.330 -66.195 2.892 0.00
47.330 -64.868 2.884 0.00
47.330 -63.541 2.885 0.00
47.330 -62.214 2.889 0.00
48.229 -137.170 2.889 0.00
48.229 -135.820 2.889 0.00
48.229 -134.470 2.889 0.00
48.229 -133.120 2.889 0.00
48.229 -131.770 2.889 0.00
48.229 -130.420 2.889 0.00
48.229 -129.070 2.889 0.00
48.229 -127.720 2.889 0.00
48.229 -126.370 2.889 0.00
48.229 -125.020 2.889 0.00
48.229 -123.670 2.889 0.00
48.229 -122.320 2.889 0.00
48.229 -120.969 2.889 0.00
48.229 -119.619 2.889 0.00
48.229 -118.269 2.889 0.00
48.229 -116.919 2.889 0.00
48.229 -115.569 2.889 0.00
48.229 -114.219 2.889 0.00
48.229 -112.869 2.889 0.00
48.229 -111.519 2.889 0.00
48.229 -110.169 2.889 0.00
48.229 -108.819 2.889 0.00
48.229 -107.469 2.889 0.00
48.229 -106.119 2.889 0.00
48.229 -104.769 2.889 0.00
48.229 -103.418 2.889 0.00
48.229 -102.068 2.888 0.00
48.229 -100.718 2.886 0.00
48.229 -99.368 2.890 0.00
48.229 -98.018 2.924 381.47
48.229 -96.668 3.007 2020.25
48.229 -95.318 3.094 3795.50
48.229 -93.968 3.130 5216.50
48.229 -92.618 3.076 2061.53
48.229 -91.268 2.998 1228.94
48.229 -89.918 2.934 901.47
48.229 -88.568 2.900 12.70
48.229 -87.217 2.888 0.00
48.229 -85.867 2.884 0.00
48.229 -84.517 2.883 0.00
48.229 -83.167 2.887 0.00
48.229 -81.817 2.899 0.00
48.229 -80.467 2.915 0.00
48.229 -79.117 2.924 0.00
48.229 -77.767 2.935 0.00
48.229 -76.417 2.932 0.00
48.229 -75.067 2.922 0.00
48.229 -73.717 2.920 0.00
48.229 -72.367 2.910 0.00
48.229 -71.017 2.897 0.00
48.229 -69.666 2.890 0.00
48.229 -68.316 2.890 1.33
48.229 -66.966 2.890 6.14
48.229 -65.616 2.886 0.00
48.229 -64.266 2.886 0.00
48.229 -62.916 2.889 0.00
48.229 -61.566 2.889 0.00
49.129 -137.851 2.889 0.00
49.129 -136.477 2.889 0.00
49.129 -135.103 2.889 0.00
49.129 -133.728 2.889 0.00
49.129 -132.354 2.889 0.00
49.129 -130.979 2.889 0.00
49.129 -129.605 2.889 0.00
49.129 -128.231 2.889 0.00
49.129 -126.856 2.889 0.00
49.129 -125.482 2.889 0.00
49.129 -124.107 2.889 0.00
49.129 -122.733 2.889 0.00
49.129 -121.359 2.889 0.00
49.129 -119.984 2.889 0.00
49.129 -118.610 2.889 0.00
49.129 -117.235 2.889 0.00
49.129 -115.861 2.889 0.00
49.129 -114.487 2.889 0.00
49.129 -113.112 2.889 0.00
49.129 -111.738 2.889 0.00
49.129 -110.363 2.889 0.00
49.129 -108.989 2.889 0.00
49.129 -107.615 2.889 0.00
49.129 -106.240 2.889 0.00
49.129 -104.866 2.889 0.00
49.129 -103.491 2.889 0.00
49.129 -102.117 2.888 0.00
49.129 -100.743 2.887 0.00
49.129 -99.368 2.889 0.00
49.129 -97.994 2.912 305.40
49.129 -96.619 2.966 855.72
49.129 -95.245 3.015 2593.30
49.129 -93.871 3.011 101.35
49.129 -92.496 2.969 0.00
49.129 -91.122 2.930 0.00
49.129 -89.747 2.901 2.94
49.129 -88.373 2.885 7.12
49.129 -86.999 2.885 0.00
49.129 -85.624 2.887 0.00
49.129 -84.250 2.890 0.00
49.129 -82.875 2.888 0.00
49.129 -81.501 2.884 0.00
49.129 -80.127 2.879 0.00
49.129 -78.752 2.877 0.00
49.129 -77.378 2.879 0.00
49.129 -76.003 2.877 0.00
49.129 -74.629 2.877 0.00
49.129 -73.255 2.877 0.00
49.129 -71.880 2.883 0.00
49.129 -70.506 2.887 0.00
49.129 -69.131 2.889 0.00
49.129 -67.757 2.888 6.93
49.129 -66.383 2.888 0.00
49.129 -65.008 2.887 0.00
49.129 -63.634 2.888 0.00
49.129 -62.259 2.889 0.00
49.129 -60.885 2.889 0.00
50.028 -138.567 2.889 0.00
50.028 -137.167 2.889 0.00
50.028 -135.767 2.889 0.00
50.028 -134.367 2.889 0.00
50.028 -132.967 2.889 0.00
50.028 -131.567 2.889 0.00
50.028 -130.167 2.889 0.00
50.028 -128.767 2.889 0.00
50.028 -127.368 2.889 0.00
50.028 -125.968 2.889 0.00
50.028 -124.568 2.889 0.00
50.028 -123.168 2.889 0.00
50.028 -121.768 2.889 0.00
50.028 -120.368 2.889 0.00
50.028 -118.968 2.889 0.00
50.028 -117.568 2.889 0.00
50.028 -116.168 2.889 0.00
50.028 -114.768 2.889 0.00
50.028 -113.368 2.889 0.00
50.028 -111.968 2.889 0.00
50.028 -110.568 2.889 0.00
50.028 -109.168 2.889 0.00
50.028 -107.768 2.889 0.00
50.028 -106.368 2.889 0.00
50.028 -104.968 2.889 0.00
50.028 -103.568 2.889 0.00
50.028 -102.168 2.889 0.00
50.028 -100.768 2.888 0.00
50.028 -99.368 2.886 0.00
50.028 -97.968 2.891 0.00
50.028 -96.568 2.908 0.00
50.028 -95.168 2.919 0.00
50.028 -93.768 2.907 0.00
50.028 -92.368 2.888 0.00
50.028 -90.968 2.883 0.00
50.028 -89.568 2.885 10.25
50.028 -88.168 2.885 0.00
50.028 -86.769 2.887 0.00
50.028 -85.369 2.889 0.00
50.028 -83.969 2.889 0.00
50.028 -82.569 2.889 0.00
50.028 -81.169 2.887 0.00
50.028 -79.769 2.885 0.00
50.028 -78.369 2.882 0.00
50.028 -76.969 2.882 0.00
50.028 -75.569 2.883 0.00
50.028 -74.169 2.883 0.00
50.028 -72.769 2.883 0.00
50.028 -71.369 2.886 0.00
50.028 -69.969 2.888 0.00
50.028 -68.569 2.888 0.00
50.028 -67.169 2.888 0.00
50.028 -65.769 2.888 0.00
50.028 -64.369 2.889 0.00
50.028 -62.969 2.889 0.00
50.028 -61.569 2.889 0.00
50.028 -60.169 2.889 0.00
50.927 -139.320 2.889 0.00
50.927 -137.893 2.889 0.00
50.927 -136.466 2.889 0.00
50.927 -135.040 2.889 0.00
50.927 -133.613 2.889 0.00
50.927 -132.186 2.889 0.00
50.927 -130.759 2.889 0.00
50.927 -129.332 2.889 0.00
50.927 -127.905 2.889 0.00
50.927 -126.478 2.889 0.00
50.927 -125.052 2.889 0.00
50.927 -123.625 2.889 0.00
50.927 -122.198 2.889 0.00
50.927 -120.771 2.889 0.00
50.927 -119.344 2.889 0.00
50.927 -117.917 2.889 0.00
50.927 -116.490 2.889 0.00
50.927 -115.064 2.889 0.00
50.927 -113.637 2.889 0.00
50.927 -112.210 2.889 0.00
50.927 -110.783 2.889 0.00
50.927 -109.356 2.889 0.00
50.927 -107.929 2.889 0.00
50.927 -106.502 2.889 0.00
50.927 -105.076 2.889 0.00
50.927 -103.649 2.889 0.00
50.927 -102.222 2.889 0.00
50.927 -100.795 2.888 0.00
50.927 -99.368 2.887 0.00
50.927 -97.941 2.885 0.00
50.927 -96.514 2.887 0.00
50.927 -95.088 2.886 0.00
50.927 -93.661 2.881 0.00
50.927 -92.234 2.878 0.00
50.927 -90.807 2.883 3.70
50.927 -89.380 2.887 6.46
50.927 -87.953 2.888 0.00
50.927 -86.526 2.889 0.00
50.927 -85.100 2.889 0.00
50.927 -83.673 2.889 0.00
50.927 -82.246 2.889 0.00
50.927 -80.819 2.889 0.00
50.927 -79.392 2.889 0.00
50.927 -77.965 2.889 0.00
50.927 -76.538 2.888 0.00
50.927 -75.112 2.889 0.00
50.927 -73.685 2.889 0.00
50.927 -72.258 2.889 0.00
50.927 -70.831 2.889 0.00
50.927 -69.404 2.889 0.00
50.927 -67.977 2.889 0.00
50.927 -66.550 2.889 0.00
50.927 -65.124 2.889 0.00
50.927 -63.697 2.889 0.00
50.927 -62.270 2.889 0.00
50.927 -60.843 2.889 0.00
50.927 -59.416 2.889 0.00
51.827 -140.113 2.889 0.00
51.827 -138.658 2.889 0.00
51.827 -137.203 2.889 0.00
51.827 -135.747 2.889 0.00
51.827 -134.292 2.889 0.00
51.827 -132.837 2.889 0.00
51.827 -131.382 2.889 0.00
51.827 -129.927 2.889 0.00
51.827 -128.472 2.889 0.00
51.827 -127.016 2.889 0.00
51.827 -125.561 2.889 0.00
51.827 -124.106 2.889 0.00
51.827 -122.651 2.889 0.00
51.827 -121.196 2.889 0.00
51.827 -119.741 2.889 0.00
51.827 -118.285 2.889 0.00
51.827 -116.830 2.889 0.00
51.827 -115.375 2.889 0.00
51.827 -113.920 2.889 0.00
51.827 -112.465 2.889 0.00
51.827 -111.010 2.889 0.00
51.827 -109.554 2.889 0.00
51.827 -108.099 2.889 0.00
51.827 -106.644 2.889 0.00
51.827 -105.189 2.889 0.00
51.827 -103.734 2.889 0.00
51.827 -102.279 2.889 0.00
51.827 -100.823 2.889 0.00
51.827 -99.368 2.889 0.00
51.827 -97.913 2.887 0.00
51.827 -96.458 2.886 0.00
51.827 -95.003 2.886 0.00
51.827 -93.548 2.886 0.00
51.827 -92.092 2.887 0.00
51.827 -90.637 2.889 1.36
51.827 -89.182 2.889 0.00
51.827 -87.727 2.889 0.00
51.827 -86.272 2.889 0.00
51.827 -84.817 2.889 0.00
51.827 -83.361 2.889 0.00
51.827 -81.906 2.889 0.00
51.827 -80.451 2.889 0.00
51.827 -78.996 2.889 0.00
51.827 -77.541 2.889 0.00
51.827 -76.085 2.889 0.00
51.827 -74.630 2.889 0.00
51.827 -73.175 2.889 0.00
51.827 -71.720 2.889 0.00
51.827 -70.265 2.889 0.00
51.827 -68.810 2.889 0.00
51.827 -67.354 2.889 0.00
51.827 -65.899 2.889 0.00
51.827 -64.444 2.889 0.00
51.827 -62.989 2.889 0.00
51.827 -61.534 2.889 0.00
51.827 -60.079 2.889 0.00
51.827 -58.623 2.889 0.00
52.726 -140.948 2.889 0.00
52.726 -139.463 2.889 0.00
52.726 -137.978 2.889 0.00
52.726 -136.493 2.889 0.00
52.726 -135.008 2.889 0.00
52.726 -133.523 2.889 0.00
52.726 -132.038 2.889 0.00
52.726 -130.553 2.889 0.00
52.726 -129.068 2.889 0.00
52.726 -127.583 2.889 0.00
52.726 -126.098 2.889 0.00
52.726 -124.613 2.889 0.00
52.726 -123.128 2.889 0.00
52.726 -121.643 2.889 0.00
52.726 -120.158 2.889 0.00
52.726 -118.673 2.889 0.00
52.726 -117.188 2.889 0.00
52.726 -115.703 2.889 0.00
52.726 -114.218 2.889 0.00
52.726 -112.733 2.889 0.00
52.726 -111.248 2.889 0.00
52.726 -109.763 2.889 0.00
52.726 -108.278 2.889 0.00
52.726 -106.793 2.889 0.00
52.726 -105.308 2.889 0.00
52.726 -103.823 2.889 0.00
52.726 -102.338 2.889 0.00
52.726 -100.853 2.889 0.00
52.726 -99.368 2.889 0.00
52.726 -97.883 2.889 0.00
52.726 -96.398 2.888 0.00
52.726 -94.913 2.888 0.00
52.726 -93.428 2.889 0.00
52.726 -91.943 2.889 0.00
52.726 -90.458 2.889 0.00
52.726 -88.973 2.889 0.00
52.726 -87.488 2.889 0.00
52.726 -86.003 2.889 0.00
52.726 -84.518 2.889 0.00
52.726 -83.033 2.889 0.00
52.726 -81.548 2.889 0.00
52.726 -80.063 2.889 0.00
52.726 -78.578 2.889 0.00
52.726 -77.093 2.889 0.00
52.726 -75.608 2.889 0.00
52.726 -74.123 2.889 0.00
52.726 -72.638 2.889 0.00
52.726 -71.153 2.889 0.00
52.726 -69.668 2.889 0.00
52.726 -68.183 2.889 0.00
52.726 -66.698 2.889 0.00
52.726 -65.213 2.889 0.00
52.726 -63.728 2.889 0.00
52.726 -62.243 2.889 0.00
52.726 -60.758 2.889 0.00
52.726 -59.273 2.889 0.00
52.726 -57.788 2.889 0.00
53.625 -141.829 2.889 0.00
53.625 -140.313 2.889 0.00
53.625 -138.796 2.889 0.00
53.625 -137.280 2.889 0.00
53.625 -135.763 2.889 0.00
53.625 -134.247 2.889 0.00
53.625 -132.730 2.889 0.00
53.625 -131.214 2.889 0.00
53.625 -129.697 2.889 0.00
53.625 -128.181 2.889 0.00
53.625 -126.665 2.889 0.00
53.625 -125.148 2.889 0.00
53.625 -123.632 2.889 0.00
53.625 -122.115 2.889 0.00
53.625 -120.599 2.889 0.00
53.625 -119.082 2.889 0.00
53.625 -117.566 2.889 0.00
53.625 -116.049 2.889 0.00
53.625 -114.533 2.889 0.00
53.625 -113.016 2.889 0.00
53.625 -111.500 2.889 0.00
53.625 -109.983 2.889 0.00
53.625 -108.467 2.889 0.00
53.625 -106.951 2.889 0.00
53.625 -105.434 2.889 0.00
53.625 -103.918 2.889 0.00
53.625 -102.401 2.889 0.00
53.625 -100.885 2.889 0.00
53.625 -99.368 2.889 0.00
53.625 -97.852 2.889 0.00
53.625 -96.335 2.889 0.00
53.625 -94.819 2.889 0.00
53.625 -93.302 2.889 0.00
53.625 -91.786 2.889 0.00
53.625 -90.269 2.889 0.00
53.625 -88.753 2.889 0.00
53.625 -87.237 2.889 0.00
53.625 -85.720 2.889 0.00
53.625 -84.204 2.889 0.00
53.625 -82.687 2.889 0.00
53.625 -81.171 2.889 0.00
53.625 -79.654 2.889 0.00
53.625 -78.138 2.889 0.00
53.625 -76.621 2.889 0.00
53.625 -75.105 2.889 0.00
53.625 -73.588 2.889 0.00
53.625 -72.072 2.889 0.00
53.625 -70.555 2.889 0.00
53.625 -69.039 2.889 0.00
53.625 -67.523 2.889 0.00
53.625 -66.006 2.889 0.00
53.625 -64.490 2.889 0.00
53.625 -62.973 2.889 0.00
53.625 -61.457 2.889 0.00
53.625 -59.940 2.889 0.00
53.625 -58.424 2.889 0.00
53.625 -56.907 2.889 0.00
54.525 -142.759 2.889 0.00
54.525 -141.209 2.889 0.00
54.525 -139.660 2.889 0.00
54.525 -138.110 2.889 0.00
54.525 -136.560 2.889 0.00
54.525 -135.011 2.889 0.00
54.525 -133.461 2.889 0.00
54.525 -131.911 2.889 0.00
54.525 -130.362 2.889 0.00
54.525 -128.812 2.889 0.00
54.525 -127.262 2.889 0.00
54.525 -125.713 2.889 0.00
54.525 -124.163 2.889 0.00
54.525 -122.613 2.889 0.00
54.525 -121.064 2.889 0.00
54.525 -119.514 2.889 0.00
54.525 -117.964 2.889 0.00
54.525 -116.415 2.889 0.00
54.525 -114.865 2.889 0.00
54.525 -113.315 2.889 0.00
54.525 -111.766 2.889 0.00
54.525 -110.216 2.889 0.00
54.525 -108.666 2.889 0.00
54.525 -107.117 2.889 0.00
54.525 -105.567 2.889 0.00
54.525 -104.017 2.889 0.00
54.525 -102.468 2.889 0.00
54.525 -100.918 2.889 0.00
54.525 -99.368 2.889 0.00
54.525 -97.819 2.889 0.00
54.525 -96.269 2.889 0.00
54.525 -94.719 2.889 0.00
54.525 -93.170 2.889 0.00
54.525 -91.620 2.889 0.00
54.525 -90.070 2.889 0.00
54.525 -88.520 2.889 0.00
54.525 -86.971 2.889 0.00
54.525 -85.421 2.889 0.00
54.525 -83.871 2.889 0.00
54.525 -82.322 2.889 0.00
54.525 -80.772 2.889 0.00
54.525 -79.222 2.889 0.00
54.525 -77.673 2.889 0.00
54.525 -76.123 2.889 0.00
54.525 -74.573 2.889 0.00
54.525 -73.024 2.889 0.00
54.525 -71.474 2.889 0.00
54.525 -69.924 2.889 0.00
54.525 -68.375 2.889 0.00
54.525 -66.825 2.889 0.00
54.525 -65.275 2.889 0.00
54.525 -63.726 2.889 0.00
54.525 -62.176 2.889 0.00
54.525 -60.626 2.889 0.00
54.525 -59.077 2.889 0.00
54.525 -57.527 2.889 0.00
54.525 -55.977 2.889 0.00
55.424 -143.742 2.889 0.00
55.424 -142.157 2.889 0.00
55.424 -140.572 2.889 0.00
55.424 -138.988 2.889 0.00
55.424 -137.403 2.889 0.00
55.424 -135.818 2.889 0.00
55.424 -134.233 2.889 0.00
55.424 -132.648 2.889 0.00
55.424 -131.064 2.889 0.00
55.424 -129.479 2.889 0.00
55.424 -127.894 2.889 0.00
55.424 -126.309 2.889 0.00
55.424 -124.725 2.889 0.00
55.424 -123.140 2.889 0.00
55.424 -121.555 2.889 0.00
55.424 -119.970 2.889 0.00
55.424 -118.385 2.889 0.00
55.424 -116.801 2.889 0.00
55.424 -115.216 2.889 0.00
55.424 -113.631 2.889 0.00
55.424 -112.046 2.889 0.00
55.424 -110.462 2.889 0.00
55.424 -108.877 2.889 0.00
55.424 -107.292 2.889 0.00
55.424 -105.707 2.889 0.00
55.424 -104.123 2.889 0.00
55.424 -102.538 2.889 0.00
55.424 -100.953 2.889 0.00
55.424 -99.368 2.889 0.00
55.424 -97.783 2.889 0.00
55.424 -96.199 2.889 0.00
55.424 -94.614 2.889 0.00
55.424 -93.029 2.889 0.00
55.424 -91.444 2.889 0.00
55.424 -89.860 2.889 0.00
55.424 -88.275 2.889 0.00
55.424 -86.690 2.889 0.00
55.424 -85.105 2.889 0.00
55.424 -83.520 2.889 0.00
55.424 -81.936 2.889 0.00
55.424 -80.351 2.889 0.00
55.424 -78.766 2.889 0.00
55.424 -77.181 2.889 0.00
55.424 -75.597 2.889 0.00
55.424 -74.012 2.889 0.00
55.424 -72.427 2.889 0.00
55.424 -70.842 2.889 0.00
55.424 -69.257 2.889 0.00
55.424 -67.673 2.889 0.00
55.424 -66.088 2.889 0.00
55.424 -64.503 2.889 0.00
55.424 -62.918 2.889 0.00
55.424 -61.334 2.889 0.00
55.424 -59.749 2.889 0.00
55.424 -58.164 2.889 0.00
55.424 -56.579 2.889 0.00
55.424 -54.995 2.889 0.00
56.324 -144.782 2.889 0.00
56.324 -143.160 2.889 0.00
56.324 -141.538 2.889 0.00
56.324 -139.916 2.889 0.00
56.324 -138.294 2.889 0.00
56.324 -136.672 2.889 0.00
56.324 -135.050 2.889 0.00
56.324 -133.428 2.889 0.00
56.324 -131.806 2.889 0.00
56.324 -130.184 2.889 0.00
56.324 -128.563 2.889 0.00
56.324 -126.941 2.889 0.00
56.324 -125.319 2.889 0.00
56.324 -123.697 2.889 0.00
56.324 -122.075 2.889 0.00
56.324 -120.453 2.889 0.00
56.324 -118.831 2.889 0.00
56.324 -117.209 2.889 0.00
56.324 -115.587 2.889 0.00
56.324 -113.965 2.889 0.00
56.324 -112.343 2.889 0.00
56.324 -110.722 2.889 0.00
56.324 -109.100 2.889 0.00
56.324 -107.478 2.889 0.00
56.324 -105.856 2.889 0.00
56.324 -104.234 2.889 0.00
56.324 -102.612 2.889 0.00
56.324 -100.990 2.889 0.00
56.324 -99.368 2.889 0.00
56.324 -97.746 2.889 0.00
56.324 -96.124 2.889 0.00
56.324 -94.502 2.889 0.00
56.324 -92.881 2.889 0.00
56.324 -91.259 2.889 0.00
56.324 -89.637 2.889 0.00
56.324 -88.015 2.889 0.00
56.324 -86.393 2.889 0.00
56.324 -84.771 2.889 0.00
56.324 -83.149 2.889 0.00
56.324 -81.527 2.889 0.00
56.324 -79.905 2.889 0.00
56.324 -78.283 2.889 0.00
56.324 -76.661 2.889 0.00
56.324 -75.040 2.889 0.00
56.324 -73.418 2.889 0.00
56.324 -71.796 2.889 0.00
56.324 -70.174 2.889 0.00
56.324 -68.552 2.889 0.00
56.324 -66.930 2.889 0.00
56.324 -65.308 2.889 0.00
56.324 -63.686 2.889 0.00
56.324 -62.064 2.889 0.00
56.324 -60.442 2.889 0.00
56.324 -58.820 2.889 0.00
56.324 -57.199 2.889 0.00
56.324 -55.577 2.889 0.00
56.324 -53.955 2.889 0.00
57.223 -145.883 2.889 0.00
57.223 -144.222 2.889 0.00
57.223 -142.561 2.889 0.00
57.223 -140.899 2.889 0.00
57.223 -139.238 2.889 0.00
57.223 -137.577 2.889 0.00
57.223 -135.916 2.889 0.00
57.223 -134.254 2.889 0.00
57.223 -132.593 2.889 0.00
57.223 -130.932 2.889 0.00
57.223 -129.271 2.889 0.00
57.223 -127.609 2.889 0.00
57.223 -125.948 2.889 0.00
57.223 -124.287 2.889 0.00
57.223 -122.626 2.889 0.00
57.223 -120.964 2.889 0.00
57.223 -119.303 2.889 0.00
57.223 -117.642 2.889 0.00
57.223 -115.981 2.889 0.00
57.223 -114.319 2.889 0.00
57.223 -112.658 2.889 0.00
57.223 -110.997 2.889 0.00
57.223 -109.336 2.889 0.00
57.223 -107.674 2.889 0.00
57.223 -106.013 2.889 0.00
57.223 -104.352 2.889 0.00
57.223 -102.691 2.889 0.00
57.223 -101.029 2.889 0.00
57.223 -99.368 2.889 0.00
57.223 -97.707 2.889 0.00
57.223 -96.046 2.889 0.00
57.223 -94.384 2.889 0.00
57.223 -92.723 2.889 0.00
57.223 -91.062 2.889 0.00
57.223 -89.401 2.889 0.00
57.223 -87.739 2.889 0.00
57.223 -86.078 2.889 0.00
57.223 -84.417 2.889 0.00
57.223 -82.756 2.889 0.00
57.223 -81.094 2.889 0.00
57.223 -79.433 2.889 0.00
57.223 -77.772 2.889 0.00
57.223 -76.111 2.889 0.00
57.223 -74.449 2.889 0.00
57.223 -72.788 2.889 0.00
57.223 -71.127 2.889 0.00
57.223 -69.466 2.889 0.00
57.223 -67.805 2.889 0.00
57.223 -66.143 2.889 0.00
57.223 -64.482 2.889 0.00
57.223 -62.821 2.889 0.00
57.223 -61.160 2.889 0.00
57.223 -59.498 2.889 0.00
57.223 -57.837 2.889 0.00
57.223 -56.176 2.889 0.00
57.223 -54.515 2.889 0.00
57.223 -52.853 2.889 0.00
58.122 -147.051 2.889 0.00
58.122 -145.348 2.889 0.00
58.122 -143.645 2.889 0.00
58.122 -141.942 2.889 0.00
58.122 -140.239 2.889 0.00
58.122 -138.537 2.889 0.00
58.122 -136.834 2.889 0.00
58.122 -135.131 2.888 0.00
58.122 -133.428 2.888 0.00
58.122 -131.725 2.888 0.00
58.122 -130.022 2.889 0.00
58.122 -128.319 2.889 0.00
58.122 -126.616 2.889 0.00
58.122 -124.913 2.889 0.00
58.122 -123.210 2.889 0.00
58.122 -121.507 2.889 0.00
58.122 -119.804 2.889 0.00
58.122 -118.101 2.889 0.00
58.122 -116.398 2.889 0.00
58.122 -114.695 2.889 0.00
58.122 -112.992 2.889 0.00
58.122 -111.289 2.889 0.00
58.122 -109.586 2.889 0.00
58.122 -107.883 2.889 0.00
58.122 -106.180 2.889 0.00
58.122 -104.477 2.889 0.00
58.122 -102.774 2.889 0.00
58.122 -101.071 2.889 0.00
58.122 -99.368 2.889 0.00
58.122 -97.665 2.889 0.00
58.122 -95.962 2.889 0.00
58.122 -94.259 2.889 0.00
58.122 -92.556 2.889 0.00
58.122 -90.853 2.889 0.00
58.122 -89.150 2.889 0.00
58.122 -87.447 2.889 0.00
58.122 -85.744 2.889 0.00
58.122 -84.041 2.889 0.00
58.122 -82.339 2.889 0.00
58.122 -80.636 2.889 0.00
58.122 -78.933 2.889 0.00
58.122 -77.230 2.889 0.00
58.122 -75.527 2.889 0.00
58.122 -73.824 2.889 0.00
58.122 -72.121 2.889 0.00
58.122 -70.418 2.889 0.00
58.122 -68.715 2.889 0.00
58.122 -67.012 2.889 0.00
58.122 -65.309 2.889 0.00
58.122 -63.606 2.889 0.00
58.122 -61.903 2.889 0.00
58.122 -60.200 2.889 0.00
58.122 -58.497 2.889 0.00
58.122 -56.794 2.889 0.00
58.122 -55.091 2.889 0.00
58.122 -53.388 2.889 0.00
58.122 -51.685 2.889 0.00
59.022 -148.292 2.889 0.00
59.022 -146.545 2.889 0.00
59.022 -144.798 2.889 0.00
59.022 -143.050 2.889 0.00
59.022 -141.303 2.889 0.00
59.022 -139.556 2.889 0.00
59.022 -137.808 2.889 0.00
59.022 -136.061 2.888 0.00
59.022 -134.314 2.886 71.98
59.022 -132.567 2.887 0.00
59.022 -130.819 2.889 0.00
59.022 -129.072 2.889 0.00
59.022 -127.325 2.889 0.00
59.022 -125.577 2.889 0.00
59.022 -123.830 2.889 0.00
59.022 -122.083 2.889 0.00
59.022 -120.336 2.889 0.00
59.022 -118.588 2.889 0.00
59.022 -116.841 2.889 0.00
59.022 -115.094 2.889 0.00
59.022 -113.346 2.889 0.00
59.022 -111.599 2.889 0.00
59.022 -109.852 2.889 0.00
59.022 -108.105 2.889 0.00
59.022 -106.357 2.889 0.00
59.022 -104.610 2.889 0.00
59.022 -102.863 2.889 0.00
59.022 -101.115 2.889 0.00
59.022 -99.368 2.889 0.00
59.022 -97.621 2.889 0.00
59.022 -95.874 2.889 0.00
59.022 -94.126 2.889 0.00
59.022 -92.379 2.889 0.00
59.022 -90.632 2.889 0.00
59.022 -88.884 2.889 0.00
59.022 -87.137 2.889 0.00
59.022 -85.390 2.889 0.00
59.022 -83.643 2.889 0.00
59.022 -81.895 2.889 0.00
59.022 -80.148 2.889 0.00
59.022 -78.401 2.889 0.00
59.022 -76.654 2.889 0.00
59.022 -74.906 2.889 0.00
59.022 -73.159 2.889 0.00
59.022 -71.412 2.889 0.00
59.022 -69.664 2.889 0.00
59.022 -67.917 2.889 0.00
59.022 -66.170 2.889 0.00
59.022 -64.423 2.889 0.00
59.022 -62.675 2.889 0.00
59.022 -60.928 2.889 0.00
59.022 -59.181 2.889 0.00
59.022 -57.433 2.889 0.00
59.022 -55.686 2.889 0.00
59.022 -53.939 2.889 0.00
59.022 -52.192 2.889 0.00
59.022 -50.444 2.889 0.00
59.921 -149.612 2.889 0.00
59.921 -147.818 2.889 0.00
59.921 -146.023 2.889 0.00
59.921 -144.229 2.889 0.00
59.921 -142.434 2.889 0.00
59.921 -140.640 2.889 0.00
59.921 -138.845 2.889 0.00
59.921 -137.051 2.887 0.00
59.921 -135.257 2.885 98.97
59.921 -133.462 2.887 1.00
59.921 -131.668 2.888 0.00
59.921 -129.873 2.889 0.00
59.921 -128.079 2.889 0.00
59.921 -126.284 2.889 0.00
59.921 -124.490 2.889 0.00
59.921 -122.696 2.889 0.00
59.921 -120.901 2.889 0.00
59.921 -119.107 2.889 0.00
59.921 -117.312 2.889 0.00
59.921 -115.518 2.889 0.00
59.921 -113.724 2.889 0.00
59.921 -111.929 2.889 0.00
59.921 -110.135 2.889 0.00
59.921 -108.340 2.889 0.00
59.921 -106.546 2.889 0.00
59.921 -104.751 2.889 0.00
59.921 -102.957 2.889 0.00
59.921 -101.163 2.889 0.00
59.921 -99.368 2.889 0.00
59.921 -97.574 2.889 0.00
59.921 -95.779 2.889 0.00
59.921 -93.985 2.889 0.00
59.921 -92.191 2.889 0.00
59.921 -90.396 2.889 0.00
59.921 -88.602 2.889 0.00
59.921 -86.807 2.889 0.00
59.921 -85.013 2.889 0.00
59.921 -83.218 2.889 0.00
59.921 -81.424 2.889 0.00
59.921 -79.630 2.889 0.00
59.921 -77.835 2.889 0.00
59.921 -76.041 2.889 0.00
59.921 -74.246 2.889 0.00
59.921 -72.452 2.889 0.00
59.921 -70.657 2.889 0.00
59.921 -68.863 2.889 0.00
59.921 -67.069 2.889 0.00
59.921 -65.274 2.889 0.00
59.921 -63.480 2.889 0.00
59.921 -61.685 2.889 0.00
59.921 -59.891 2.889 0.00
59.921 -58.097 2.889 0.00
59.921 -56.302 2.889 0.00
59.921 -54.508 2.889 0.00
59.921 -52.713 2.889 0.00
59.921 -50.919 2.889 0.00
59.921 -49.124 2.889 0.00
60.820 -151.018 2.889 0.00
60.820 -149.173 2.889 0.00
60.820 -147.329 2.889 0.00
60.820 -145.484 2.889 0.00
60.820 -143.639 2.889 0.00
60.820 -141.795 2.889 0.00
60.820 -139.950 2.889 0.00
60.820 -138.106 2.888 0.00
60.820 -136.261 2.887 0.00
60.820 -134.416 2.887 32.23
60.820 -132.572 2.888 0.00
60.820 -130.727 2.889 0.00
60.820 -128.882 2.889 0.00
60.820 -127.038 2.889 0.00
60.820 -125.193 2.889 0.00
60.820 -123.348 2.889 0.00
60.820 -121.504 2.889 0.00
60.820 -119.659 2.889 0.00
60.820 -117.815 2.889 0.00
60.820 -115.970 2.889 0.00
60.820 -114.125 2.889 0.00
60.820 -112.281 2.889 0.00
60.820 -110.436 2.889 0.00
60.820 -108.591 2.889 0.00
60.820 -106.747 2.889 0.00
60.820 -104.902 2.889 0.00
60.820 -103.057 2.889 0.00
60.820 -101.213 2.889 0.00
60.820 -99.368 2.889 0.00
60.820 -97.524 2.889 0.00
60.820 -95.679 2.889 0.00
60.820 -93.834 2.889 0.00
60.820 -91.990 2.889 0.00
60.820 -90.145 2.889 0.00
60.820 -88.300 2.889 0.00
60.820 -86.456 2.889 0.00
60.820 -84.611 2.889 0.00
60.820 -82.766 2.889 0.00
60.820 -80.922 2.889 0.00
60.820 -79.077 2.889 0.00
60.820 -77.233 2.889 0.00
60.820 -75.388 2.889 0.00
60.820 -73.543 2.889 0.00
60.820 -71.699 2.889 0.00
60.820 -69.854 2.889 0.00
60.820 -68.009 2.889 0.00
60.820 -66.165 2.889 0.00
60.820 -64.320 2.889 0.00
60.820 -62.475 2.889 0.00
60.820 -60.631 2.889 0.00
60.820 -58.786 2.889 0.00
60.820 -56.942 2.889 0.00
60.820 -55.097 2.889 0.00
60.820 -53.252 2.889 0.00
60.820 -51.408 2.889 0.00
60.820 -49.563 2.889 0.00
60.820 -47.718 2.889 0.00
61.720 -152.518 2.889 0.00
61.720 -150.620 2.889 0.00
61.720 -148.722 2.889 0.00
61.720 -146.824 2.889 0.00
61.720 -144.926 2.889 0.00
61.720 -143.027 2.889 0.00
61.720 -141.129 2.889 0.00
61.720 -139.231 2.889 0.00
61.720 -137.333 2.888 0.00
61.720 -135.434 2.888 0.00
61.720 -133.536 2.889 0.00
61.720 -131.638 2.889 0.00
61.720 -129.740 2.889 0.00
61.720 -127.842 2.889 0.00
61.720 -125.943 2.889 0.00
61.720 -124.045 2.889 0.00
61.720 -122.147 2.889 0.00
61.720 -120.249 2.889 0.00
61.720 -118.350 2.889 0.00
61.720 -116.452 2.889 0.00
61.720 -114.554 2.889 0.00
61.720 -112.656 2.889 0.00
61.720 -110.758 2.889 0.00
61.720 -108.859 2.889 0.00
61.720 -106.961 2.889 0.00
61.720 -105.063 2.889 0.00
61.720 -103.165 2.889 0.00
61.720 -101.266 2.889 0.00
61.720 -99.368 2.889 0.00
61.720 -97.470 2.889 0.00
61.720 -95.572 2.889 0.00
61.720 -93.674 2.889 0.00
61.720 -91.775 2.889 0.00
61.720 -89.877 2.889 0.00
61.720 -87.979 2.889 0.00
61.720 -86.081 2.889 0.00
61.720 -84.182 2.889 0.00
61.720 -82.284 2.889 0.00
61.720 -80.386 2.889 0.00
61.720 -78.488 2.889 0.00
61.720 -76.590 2.889 0.00
61.720 -74.691 2.889 0.00
61.720 -72.793 2.889 0.00
61.720 -70.895 2.889 0.00
61.720 -68.997 2.889 0.00
61.720 -67.098 2.889 0.00
61.720 -65.200 2.889 0.00
61.720 -63.302 2.889 0.00
61.720 -61.404 2.889 0.00
61.720 -59.505 2.889 0.00
61.720 -57.607 2.889 0.00
61.720 -55.709 2.889 0.00
61.720 -53.811 2.889 0.00
61.720 -51.913 2.889 0.00
61.720 -50.014 2.889 0.00
61.720 -48.116 2.889 0.00
61.720 -46.218 2.889 0.00
62.619 -154.123 2.889 0.00
62.619 -152.167 2.889 0.00
62.619 -150.212 2.889 0.00
62.619 -148.256 2.889 0.00
62.619 -146.301 2.889 0.00
62.619 -144.345 2.889 0.00
62.619 -142.390 2.889 0.00
62.619 -140.434 2.889 0.00
62.619 -138.479 2.889 0.00
62.619 -136.523 2.889 0.00
62.619 -134.567 2.889 0.00
62.619 -132.612 2.889 0.00
62.619 -130.656 2.889 0.00
62.619 -128.701 2.889 0.00
62.619 -126.745 2.889 0.00
62.619 -124.790 2.889 0.00
62.619 -122.834 2.889 0.00
62.619 -120.879 2.889 0.00
62.619 -118.923 2.889 0.00
62.619 -116.968 2.889 0.00
62.619 -115.012 2.889 0.00
62.619 -113.057 2.889 0.00
62.619 -111.101 2.889 0.00
62.619 -109.146 2.889 0.00
62.619 -107.190 2.889 0.00
62.619 -105.235 2.889 0.00
62.619 -103.279 2.889 0.00
62.619 -101.324 2.889 0.00
62.619 -99.368 2.889 0.00
62.619 -97.413 2.889 0.00
62.619 -95.457 2.889 0.00
62.619 -93.502 2.889 0.00
62.619 -91.546 2.889 0.00
62.619 -89.591 2.889 0.00
62.619 -87.635 2.889 0.00
62.619 -85.680 2.889 0.00
62.619 -83.724 2.889 0.00
62.619 -81.769 2.889 0.00
62.619 -79.813 2.889 0.00
62.619 -77.858 2.889 0.00
62.619 -75.902 2.889 0.00
62.619 -73.946 2.889 0.00
62.619 -71.991 2.889 0.00
62.619 -70.035 2.889 0.00
62.619 -68.080 2.889 0.00
62.619 -66.124 2.889 0.00
62.619 -64.169 2.889 0.00
62.619 -62.213 2.889 0.00
62.619 -60.258 2.889 0.00
62.619 -58.302 2.889 0.00
62.619 -56.347 2.889 0.00
62.619 -54.391 2.889 0.00
62.619 -52.436 2.889 0.00
62.619 -50.480 2.889 0.00
62.619 -48.525 2.889 0.00
62.619 -46.569 2.889 0.00
62.619 -44.614 2.889 0.00
63.518 -155.841 2.889 0.00
63.518 -153.824 2.889 0.00
63.518 -151.807 2.889 0.00
63.518 -149.790 2.889 0.00
63.518 -147.773 2.889 0.00
63.518 -145.757 2.889 0.00
63.518 -143.740 2.889 0.00
63.518 -141.723 2.889 0.00
63.518 -139.706 2.889 0.00
63.518 -137.689 2.889 0.00
63.518 -135.672 2.889 0.00
63.518 -133.655 2.889 0.00
63.518 -131.638 2.889 0.00
63.518 -129.622 2.889 0.00
63.518 -127.605 2.889 0.00
63.518 -125.588 2.889 0.00
63.518 -123.571 2.889 0.00
63.518 -121.554 2.889 0.00
63.518 -119.537 2.889 0.00
63.518 -117.520 2.889 0.00
63.518 -115.503 2.889 0.00
63.518 -113.486 2.889 0.00
63.518 -111.470 2.889 0.00
63.518 -109.453 2.889 0.00
63.518 -107.436 2.889 0.00
63.518 -105.419 2.889 0.00
63.518 -103.402 2.889 0.00
63.518 -101.385 2.889 0.00
63.518 -99.368 2.889 0.00
63.518 -97.351 2.889 0.00
63.518 -95.334 2.889 0.00
63.518 -93.318 2.889 0.00
63.518 -91.301 2.889 0.00
63.518 -89.284 2.889 0.00
63.518 -87.267 2.889 0.00
63.518 -85.250 2.889 0.00
63.518 -83.233 2.889 0.00
63.518 -81.216 2.889 0.00
63.518 -79.199 2.889 0.00
63.518 -77.182 2.889 0.00
63.518 -75.166 2.889 0.00
63.518 -73.149 2.889 0.00
63.518 -71.132 2.889 0.00
63.518 -69.115 2.889 0.00
63.518 -67.098 2.889 0.00
63.518 -65.081 2.889 0.00
63.518 -63.064 2.889 0.00
63.518 -61.047 2.889 0.00
63.518 -59.030 2.889 0.00
63.518 -57.014 2.889 0.00
63.518 -54.997 2.889 0.00
63.518 -52.980 2.889 0.00
63.518 -50.963 2.889 0.00
63.518 -48.946 2.889 0.00
63.518 -46.929 2.889 0.00
63.518 -44.912 2.889 0.00
63.518 -42.895 2.889 0.00
64.418 -157.686 2.889 0.00
64.418 -155.603 2.889 0.00
64.418 -153.520 2.889 0.00
64.418 -151.437 2.889 0.00
64.418 -149.355 2.889 0.00
64.418 -147.272 2.889 0.00
64.418 -145.189 2.889 0.00
64.418 -143.106 2.889 0.00
64.418 -141.023 2.889 0.00
64.418 -138.941 2.889 0.00
64.418 -136.858 2.889 0.00
64.418 -134.775 2.889 0.00
64.418 -132.692 2.889 0.00
64.418 -130.610 2.889 0.00
64.418 -128.527 2.889 0.00
64.418 -126.444 2.889 0.00
64.418 -124.361 2.889 0.00
64.418 -122.279 2.889 0.00
64.418 -120.196 2.889 0.00
64.418 -118.113 2.889 0.00
64.418 -116.030 2.889 0.00
64.418 -113.948 2.889 0.00
64.418 -111.865 2.889 0.00
64.418 -109.782 2.889 0.00
64.418 -107.699 2.889 0.00
64.418 -105.616 2.889 0.00
64.418 -103.534 2.889 0.00
64.418 -101.451 2.889 0.00
64.418 -99.368 2.889 0.00
64.418 -97.285 2.889 0.00
64.418 -95.203 2.889 0.00
64.418 -93.120 2.889 0.00
64.418 -91.037 2.889 0.00
64.418 -88.954 2.889 0.00
64.418 -86.872 2.889 0.00
64.418 -84.789 2.889 0.00
64.418 -82.706 2.889 0.00
64.418 -80.623 2.889 0.00
64.418 -78.541 2.889 0.00
64.418 -76.458 2.889 0.00
64.418 -74.375 2.889 0.00
64.418 -72.292 2.889 0.00
64.418 -70.210 2.889 0.00
64.418 -68.127 2.889 0.00
64.418 -66.044 2.889 0.00
64.418 -63.961 2.889 0.00
64.418 -61.878 2.889 0.00
64.418 -59.796 2.889 0.00
64.418 -57.713 2.889 0.00
64.418 -55.630 2.889 0.00
64.418 -53.547 2.889 0.00
64.418 -51.465 2.889 0.00
64.418 -49.382 2.889 0.00
64.418 -47.299 2.889 0.00
64.418 -45.216 2.889 0.00
64.418 -43.134 2.889 0.00
64.418 -41.051 2.889 0.00
65.317 -159.670 2.889 0.00
65.317 -157.516 2.889 0.00
65.317 -155.363 2.889 0.00
65.317 -153.209 2.889 0.00
65.317 -151.055 2.889 0.00
65.317 -148.902 2.889 0.00
65.317 -146.748 2.889 0.00
65.317 -144.595 2.889 0.00
65.317 -142.441 2.889 0.00
65.317 -140.287 2.889 0.00
65.317 -138.134 2.889 0.00
65.317 -135.980 2.889 0.00
65.317 -133.826 2.889 0.00
65.317 -131.673 2.889 0.00
65.317 -129.519 2.889 0.00
65.317 -127.365 2.889 0.00
65.317 -125.212 2.889 0.00
65.317 -123.058 2.889 0.00
65.317 -120.905 2.889 0.00
65.317 -118.751 2.889 0.00
65.317 -116.597 2.889 0.00
65.317 -114.444 2.889 0.00
65.317 -112.290 2.889 0.00
65.317 -110.136 2.889 0.00
65.317 -107.983 2.889 0.00
65.317 -105.829 2.889 0.00
65.317 -103.675 2.889 0.00
65.317 -101.522 2.889 0.00
65.317 -99.368 2.889 0.00
65.317 -97.215 2.889 0.00
65.317 -95.061 2.889 0.00
65.317 -92.907 2.889 0.00
65.317 -90.754 2.889 0.00
65.317 -88.600 2.889 0.00
65.317 -86.446 2.889 0.00
65.317 -84.293 2.889 0.00
65.317 -82.139 2.889 0.00
65.317 -79.985 2.889 0.00
65.317 -77.832 2.889 0.00
65.317 -75.678 2.889 0.00
65.317 -73.525 2.889 0.00
65.317 -71.371 2.889 0.00
65.317 -69.217 2.889 0.00
65.317 -67.064 2.889 0.00
65.317 -64.910 2.889 0.00
65.317 -62.756 2.889 0.00
65.317 -60.603 2.889 0.00
65.317 -58.449 2.889 0.00
65.317 -56.295 2.889 0.00
65.317 -54.142 2.889 0.00
65.317 -51.988 2.889 0.00
65.317 -49.835 2.889 0.00
65.317 -47.681 2.889 0.00
65.317 -45.527 2.889 0.00
65.317 -43.374 2.889 0.00
65.317 -41.220 2.889 0.00
65.317 -39.066 2.889 0.00
66.216 -161.810 2.889 0.00
66.216 -159.580 2.889 0.00
66.216 -157.350 2.889 0.00
66.216 -155.120 2.889 0.00
66.216 -152.890 2.889 0.00
66.216 -150.660 2.889 0.00
66.216 -148.430 2.889 0.00
66.216 -146.200 2.889 0.00
66.216 -143.970 2.889 0.00
66.216 -141.740 2.889 0.00
66.216 -139.510 2.889 0.00
66.216 -137.279 2.889 0.00
66.216 -135.049 2.889 0.00
66.216 -132.819 2.889 0.00
66.216 -130.589 2.889 0.00
66.216 -128.359 2.889 0.00
66.216 -126.129 2.889 0.00
66.216 -123.899 2.889 0.00
66.216 -121.669 2.889 0.00
66.216 -119.439 2.889 0.00
66.216 -117.209 2.889 0.00
66.216 -114.979 2.889 0.00
66.216 -112.749 2.889 0.00
66.216 -110.519 2.889 0.00
66.216 -108.288 2.889 0.00
66.216 -106.058 2.889 0.00
66.216 -103.828 2.889 0.00
66.216 -101.598 2.889 0.00
66.216 -99.368 2.889 0.00
66.216 -97.138 2.889 0.00
66.216 -94.908 2.889 0.00
66.216 -92.678 2.889 0.00
66.216 -90.448 2.889 0.00
66.216 -88.218 2.889 0.00
66.216 -85.988 2.889 0.00
66.216 -83.758 2.889 0.00
66.216 -81.528 2.889 0.00
66.216 -79.298 2.889 0.00
66.216 -77.067 2.889 0.00
66.216 -74.837 2.889 0.00
66.216 -72.607 2.889 0.00
66.216 -70.377 2.889 0.00
66.216 -68.147 2.889 0.00
66.216 -65.917 2.889 0.00
66.216 -63.687 2.889 0.00
66.216 -61.457 2.889 0.00
66.216 -59.227 2.889 0.00
66.216 -56.997 2.889 0.00
66.216 -54.767 2.889 0.00
66.216 -52.537 2.889 0.00
66.216 -50.307 2.889 0.00
66.216 -48.077 2.889 0.00
66.216 -45.846 2.889 0.00
66.216 -43.616 2.889 0.00
66.216 -41.386 2.889 0.00
66.216 -39.156 2.889 0.00
66.216 -36.926 2.889 0.00
67.116 -164.125 2.889 0.00
67.116 -161.812 2.889 0.00
