39.236 -92.401 3.909 3280.77
39.236 -91.240 3.937 3766.51
39.236 -90.079 4.035 3737.54
39.236 -88.918 4.219 4314.26
39.236 -87.757 4.223 3357.81
39.236 -86.596 4.043 2738.23
39.236 -85.435 3.897 2357.61
39.236 -84.273 3.861 2100.45
39.236 -83.112 3.888 2597.55
39.236 -81.951 3.925 2125.94
39.236 -80.790 3.930 1919.06
39.236 -79.629 3.925 1444.07
39.236 -78.468 3.900 568.71
39.236 -77.307 3.873 363.89
39.236 -76.145 3.803 84.92
39.236 -74.984 3.725 0.00
39.236 -73.823 3.689 0.00
39.236 -72.662 3.684 0.00
39.236 -71.501 3.690 0.00
39.236 -70.340 3.694 0.00
39.236 -69.179 3.694 0.00
39.236 -68.018 3.693 0.00
39.236 -66.856 3.693 0.00
40.135 -132.306 3.694 0.00
40.135 -131.130 3.694 0.00
40.135 -129.954 3.691 0.00
40.135 -128.777 3.689 0.00
40.135 -127.601 3.703 0.00
40.135 -126.424 3.708 0.00
40.135 -125.248 3.664 0.00
40.135 -124.072 3.540 3869.18
40.135 -122.895 3.454 11754.72
40.135 -121.719 3.471 12477.72
40.135 -120.543 3.554 14774.42
40.135 -119.366 3.620 11459.04
40.135 -118.190 3.540 8240.79
40.135 -117.014 3.450 7061.53
40.135 -115.837 3.468 6464.27
40.135 -114.661 3.456 8698.20
40.135 -113.484 3.500 11117.88
40.135 -112.308 3.572 13031.20
40.135 -111.132 3.639 13558.62
40.135 -109.955 3.723 10696.85
40.135 -108.779 3.733 10285.47
40.135 -107.603 3.732 10437.81
40.135 -106.426 3.735 8523.72
40.135 -105.250 3.782 6556.26
40.135 -104.074 3.886 4696.83
40.135 -102.897 3.932 4267.39
40.135 -101.721 3.913 4085.72
40.135 -100.545 3.899 3921.74
40.135 -99.368 3.909 3035.85
40.135 -98.192 3.902 3096.76
40.135 -97.015 3.868 2864.06
40.135 -95.839 3.850 3338.77
40.135 -94.663 3.848 3698.34
40.135 -93.486 3.870 3443.47
40.135 -92.310 3.946 2574.44
40.135 -91.134 4.015 2804.89
40.135 -89.957 4.137 3419.88
40.135 -88.781 4.293 2667.30
40.135 -87.605 4.246 2994.39
40.135 -86.428 4.024 2198.70
40.135 -85.252 3.932 2298.29
40.135 -84.076 4.000 2767.19
40.135 -82.899 4.077 2058.40
40.135 -81.723 4.068 1376.53
40.135 -80.546 3.999 1339.57
40.135 -79.370 3.911 855.11
40.135 -78.194 3.865 659.34
40.135 -77.017 3.846 204.81
40.135 -75.841 3.814 207.19
40.135 -74.665 3.762 67.94
40.135 -73.488 3.717 0.00
40.135 -72.312 3.693 0.00
40.135 -71.136 3.687 0.00
40.135 -69.959 3.692 0.00
40.135 -68.783 3.694 0.00
40.135 -67.607 3.694 0.00
40.135 -66.430 3.693 0.00
41.034 -132.752 3.694 0.00
41.034 -131.560 3.693 0.00
41.034 -130.368 3.688 0.00
41.034 -129.175 3.700 0.00
41.034 -127.983 3.728 0.00
41.034 -126.791 3.704 0.00
41.034 -125.598 3.673 52.21
41.034 -124.406 3.549 13064.44
41.034 -123.214 3.444 10836.57
41.034 -122.022 3.479 12984.68
41.034 -120.829 3.516 9543.69
41.034 -119.637 3.523 12084.08
41.034 -118.445 3.427 10453.50
41.034 -117.252 3.388 9082.74
41.034 -116.060 3.373 7582.24
41.034 -114.868 3.405 13475.64
41.034 -113.676 3.457 14369.22
41.034 -112.483 3.538 14025.04
41.034 -111.291 3.621 12831.48
41.034 -110.099 3.728 11078.33
41.034 -108.906 3.781 9012.53
41.034 -107.714 3.830 8052.63
41.034 -106.522 3.863 7145.45
41.034 -105.330 3.836 5556.24
41.034 -104.137 3.849 4672.06
41.034 -102.945 3.924 4562.35
41.034 -101.753 3.893 3197.88
41.034 -100.560 3.863 1673.54
41.034 -99.368 3.880 2037.94
41.034 -98.176 3.904 2154.11
41.034 -96.984 3.882 3139.28
41.034 -95.791 3.869 3392.14
41.034 -94.599 3.906 3556.33
41.034 -93.407 3.955 3380.93
41.034 -92.215 4.047 3338.86
41.034 -91.022 4.096 2677.26
41.034 -89.830 4.150 2436.60
41.034 -88.638 4.222 2249.11
41.034 -87.445 4.138 2358.90
41.034 -86.253 3.932 1868.07
41.034 -85.061 3.853 2063.93
41.034 -83.869 3.932 1727.94
41.034 -82.676 4.017 1872.29
41.034 -81.484 4.003 1726.25
41.034 -80.292 3.921 1490.50
41.034 -79.099 3.859 1563.40
41.034 -77.907 3.847 1249.95
41.034 -76.715 3.860 1056.85
41.034 -75.523 3.868 1013.91
41.034 -74.330 3.837 873.06
41.034 -73.138 3.750 65.49
41.034 -71.946 3.705 0.00
41.034 -70.753 3.690 0.00
41.034 -69.561 3.690 0.00
41.034 -68.369 3.693 0.00
41.034 -67.177 3.694 0.00
41.034 -65.984 3.693 0.00
41.934 -133.219 3.693 0.00
41.934 -132.010 3.691 0.00
41.934 -130.801 3.695 0.00
41.934 -129.592 3.723 0.00
41.934 -128.383 3.724 0.00
41.934 -127.174 3.699 0.00
41.934 -125.965 3.701 1208.38
41.934 -124.756 3.555 8747.28
41.934 -123.547 3.459 6935.71
41.934 -122.338 3.464 7193.97
41.934 -121.129 3.367 7010.52
41.934 -119.920 3.310 8427.34
41.934 -118.711 3.286 8879.83
41.934 -117.502 3.336 8891.46
41.934 -116.293 3.398 11644.69
41.934 -115.085 3.394 14527.77
41.934 -113.876 3.374 11714.78
41.934 -112.667 3.446 11242.24
41.934 -111.458 3.555 12471.62
41.934 -110.249 3.625 11128.08
41.934 -109.040 3.700 10011.15
41.934 -107.831 3.818 7841.86
41.934 -106.622 3.888 6891.36
41.934 -105.413 3.839 5806.54
41.934 -104.204 3.801 4330.25
41.934 -102.995 3.838 3460.25
41.934 -101.786 3.810 3030.24
41.934 -100.577 3.795 3258.97
41.934 -99.368 3.865 3162.47
41.934 -98.159 3.916 3504.38
41.934 -96.950 3.923 3843.03
41.934 -95.741 3.950 3624.26
41.934 -94.532 3.968 3892.06
41.934 -93.323 3.982 4218.47
41.934 -92.115 4.018 3542.67
41.934 -90.906 4.008 2879.20
41.934 -89.697 4.022 2474.54
41.934 -88.488 4.048 2750.25
41.934 -87.279 3.996 2227.70
41.934 -86.070 3.903 2620.67
41.934 -84.861 3.864 2360.22
41.934 -83.652 3.909 2652.50
41.934 -82.443 3.954 1661.18
41.934 -81.234 3.965 1804.22
41.934 -80.025 3.960 1473.18
41.934 -78.816 3.956 1050.94
41.934 -77.607 3.943 1204.78
41.934 -76.398 3.912 1030.03
41.934 -75.189 3.857 494.47
41.934 -73.980 3.818 384.58
41.934 -72.771 3.761 303.41
41.934 -71.562 3.715 0.00
41.934 -70.353 3.692 0.00
41.934 -69.145 3.691 0.00
41.934 -67.936 3.692 0.00
41.934 -66.727 3.692 0.00
41.934 -65.518 3.693 0.00
42.833 -133.707 3.692 0.00
42.833 -132.481 3.693 0.00
42.833 -131.254 3.704 0.00
42.833 -130.028 3.713 0.00
42.833 -128.802 3.662 0.00
42.833 -127.575 3.597 0.00
42.833 -126.349 3.516 8768.68
42.833 -125.122 3.385 11459.42
42.833 -123.896 3.300 7182.47
42.833 -122.670 3.328 7312.73
42.833 -121.443 3.282 6915.60
42.833 -120.217 3.285 6630.30
42.833 -118.990 3.331 7035.34
42.833 -117.764 3.402 9425.22
42.833 -116.538 3.446 14502.43
42.833 -115.311 3.423 11906.08
42.833 -114.085 3.466 11937.03
42.833 -112.858 3.500 10799.10
42.833 -111.632 3.526 11402.65
42.833 -110.406 3.560 9682.76
42.833 -109.179 3.672 7315.56
42.833 -107.953 3.811 6001.10
42.833 -106.727 3.865 6134.11
42.833 -105.500 3.821 5832.84
42.833 -104.274 3.772 4667.50
42.833 -103.047 3.797 4037.89
42.833 -101.821 3.804 3809.61
42.833 -100.595 3.819 2898.95
42.833 -99.368 3.886 2704.30
42.833 -98.142 3.982 3387.54
42.833 -96.915 4.011 3321.65
42.833 -95.689 4.029 3249.74
42.833 -94.463 4.013 3703.34
42.833 -93.236 3.945 3737.92
42.833 -92.010 3.897 3879.27
42.833 -90.783 3.902 3378.20
42.833 -89.557 3.931 2490.74
42.833 -88.331 3.982 3125.22
42.833 -87.104 4.006 2216.81
42.833 -85.878 3.952 1873.14
42.833 -84.652 3.899 1851.70
42.833 -83.425 3.898 819.17
42.833 -82.199 3.930 1078.93
42.833 -80.972 3.965 1157.03
42.833 -79.746 4.020 1259.88
42.833 -78.520 4.040 1245.78
42.833 -77.293 3.979 1448.54
42.833 -76.067 3.894 1281.33
42.833 -74.840 3.843 895.97
42.833 -73.614 3.796 617.36
42.833 -72.388 3.755 409.55
42.833 -71.161 3.716 180.58
42.833 -69.935 3.694 0.00
42.833 -68.708 3.690 0.00
42.833 -67.482 3.689 0.00
42.833 -66.256 3.691 0.00
42.833 -65.029 3.695 0.00
43.732 -134.219 3.693 0.00
43.732 -132.974 3.692 0.00
43.732 -131.729 3.699 0.00
43.732 -130.485 3.705 0.00
43.732 -129.240 3.644 0.00
43.732 -127.995 3.484 0.00
43.732 -126.751 3.256 32858.56
43.732 -125.506 3.085 16969.14
43.732 -124.261 3.071 9923.56
43.732 -123.017 3.203 8635.70
43.732 -121.772 3.265 8360.70
43.732 -120.527 3.333 7322.95
43.732 -119.283 3.447 8312.77
43.732 -118.038 3.561 9656.33
43.732 -116.793 3.612 13457.03
43.732 -115.549 3.590 10849.00
43.732 -114.304 3.582 9760.78
43.732 -113.059 3.577 9132.93
43.732 -111.815 3.537 8433.45
43.732 -110.570 3.531 8056.38
43.732 -109.325 3.626 6958.49
43.732 -108.081 3.745 6986.27
43.732 -106.836 3.788 6508.17
43.732 -105.591 3.808 5981.32
43.732 -104.347 3.787 5490.26
43.732 -103.102 3.813 3894.45
43.732 -101.858 3.883 3669.24
43.732 -100.613 3.950 3894.42
43.732 -99.368 4.013 3785.06
43.732 -98.124 4.041 3620.30
43.732 -96.879 4.045 3465.85
43.732 -95.634 4.070 3037.45
43.732 -94.390 4.025 3027.92
43.732 -93.145 3.901 2608.41
43.732 -91.900 3.822 2461.79
43.732 -90.656 3.830 2622.46
43.732 -89.411 3.899 2241.15
43.732 -88.166 3.925 1981.76
43.732 -86.922 3.990 1773.22
43.732 -85.677 3.951 1500.49
43.732 -84.432 3.898 1194.83
43.732 -83.188 3.892 1369.68
43.732 -81.943 3.902 1325.72
43.732 -80.698 3.932 1471.78
43.732 -79.454 3.998 1359.74
43.732 -78.209 4.027 1324.31
43.732 -76.964 3.989 1352.60
43.732 -75.720 3.909 1044.91
43.732 -74.475 3.856 1071.30
43.732 -73.230 3.816 701.83
43.732 -71.986 3.769 378.61
43.732 -70.741 3.730 0.00
43.732 -69.496 3.708 0.00
43.732 -68.252 3.695 0.00
43.732 -67.007 3.690 0.00
43.732 -65.763 3.697 0.00
43.732 -64.518 3.705 0.00
44.632 -134.754 3.695 0.00
44.632 -133.490 3.694 0.00
44.632 -132.227 3.705 0.00
44.632 -130.963 3.719 0.00
44.632 -129.699 3.646 0.00
44.632 -128.435 3.486 0.00
44.632 -127.172 3.234 1496.27
44.632 -125.908 3.061 6286.45
44.632 -124.644 3.040 7830.33
44.632 -123.380 3.213 8263.72
44.632 -122.116 3.299 7484.89
44.632 -120.853 3.356 6935.77
44.632 -119.589 3.494 7466.13
44.632 -118.325 3.600 11952.33
44.632 -117.061 3.627 12056.74
44.632 -115.797 3.655 9371.52
44.632 -114.534 3.628 8238.94
44.632 -113.270 3.554 7708.40
44.632 -112.006 3.460 6794.29
44.632 -110.742 3.477 6343.82
44.632 -109.479 3.589 6926.30
44.632 -108.215 3.672 5084.40
44.632 -106.951 3.752 5481.52
44.632 -105.687 3.830 5306.15
44.632 -104.423 3.870 4376.61
44.632 -103.160 3.900 3849.39
44.632 -101.896 3.993 3591.46
44.632 -100.632 4.081 3138.93
44.632 -99.368 4.143 3270.45
44.632 -98.104 4.147 2640.37
44.632 -96.841 4.123 2087.86
44.632 -95.577 4.088 2571.30
44.632 -94.313 4.017 2615.38
44.632 -93.049 3.928 2473.50
44.632 -91.785 3.834 2421.85
44.632 -90.522 3.860 1898.07
44.632 -89.258 3.983 2703.33
44.632 -87.994 3.972 2179.32
44.632 -86.730 3.982 1465.58
44.632 -85.467 3.955 1548.47
44.632 -84.203 3.912 1255.75
44.632 -82.939 3.876 1034.92
44.632 -81.675 3.880 1043.88
44.632 -80.411 3.910 1306.59
44.632 -79.148 3.960 1222.18
44.632 -77.884 3.981 1321.91
44.632 -76.620 3.955 1378.20
44.632 -75.356 3.912 1606.88
44.632 -74.092 3.896 1132.54
44.632 -72.829 3.897 514.42
44.632 -71.565 3.845 364.52
44.632 -70.301 3.783 429.57
44.632 -69.037 3.746 206.79
44.632 -67.773 3.716 106.87
44.632 -66.510 3.704 0.00
44.632 -65.246 3.717 0.00
44.632 -63.982 3.729 49.05
45.531 -135.316 3.700 0.00
45.531 -134.032 3.695 0.00
45.531 -132.748 3.693 0.00
45.531 -131.464 3.730 0.00
45.531 -130.180 3.736 0.00
45.531 -128.897 3.624 4.00
45.531 -127.613 3.485 773.65
45.531 -126.329 3.347 843.89
45.531 -125.045 3.364 1415.11
45.531 -123.761 3.475 4266.44
45.531 -122.477 3.487 5981.18
45.531 -121.193 3.470 7482.41
45.531 -119.910 3.531 9933.62
45.531 -118.626 3.594 13947.30
45.531 -117.342 3.614 10353.76
45.531 -116.058 3.696 8728.20
45.531 -114.774 3.689 8456.03
45.531 -113.490 3.584 6996.06
45.531 -112.207 3.492 7828.01
45.531 -110.923 3.528 6634.54
45.531 -109.639 3.597 5173.48
45.531 -108.355 3.663 4556.62
45.531 -107.071 3.773 4770.90
45.531 -105.787 3.929 4144.08
45.531 -104.504 3.993 3527.29
45.531 -103.220 4.006 3138.36
45.531 -101.936 4.089 2323.11
45.531 -100.652 4.162 2511.94
45.531 -99.368 4.200 2352.09
45.531 -98.084 4.173 1782.21
45.531 -96.801 4.091 2692.38
45.531 -95.517 4.002 2370.96
45.531 -94.233 3.941 1836.93
45.531 -92.949 3.868 1675.36
45.531 -91.665 3.807 1927.20
45.531 -90.381 3.899 1999.00
45.531 -89.097 3.998 2174.81
45.531 -87.814 3.968 2216.10
45.531 -86.530 3.943 1855.92
45.531 -85.246 3.923 1333.19
45.531 -83.962 3.919 1271.69
45.531 -82.678 3.901 1260.69
45.531 -81.394 3.911 1092.98
45.531 -80.111 3.949 876.10
45.531 -78.827 3.971 808.18
45.531 -77.543 3.962 540.41
45.531 -76.259 3.937 584.02
45.531 -74.975 3.920 341.30
45.531 -73.691 3.935 457.54
45.531 -72.408 3.966 510.47
45.531 -71.124 3.934 568.40
45.531 -69.840 3.869 601.55
45.531 -68.556 3.804 132.12
45.531 -67.272 3.750 318.52
45.531 -65.988 3.730 125.92
45.531 -64.705 3.744 45.20
45.531 -63.421 3.749 99.91
46.431 -135.904 3.700 0.00
46.431 -134.600 3.696 0.00
46.431 -133.295 3.690 0.00
46.431 -131.990 3.699 0.00
46.431 -130.685 3.728 0.00
46.431 -129.380 3.700 108.88
46.431 -128.075 3.653 683.51
46.431 -126.770 3.620 551.95
46.431 -125.466 3.653 1588.41
46.431 -124.161 3.696 2245.20
46.431 -122.856 3.647 3520.37
46.431 -121.551 3.563 7868.48
46.431 -120.246 3.549 11951.70
46.431 -118.941 3.594 11794.07
46.431 -117.636 3.648 9449.82
46.431 -116.331 3.745 7347.32
46.431 -115.027 3.777 7295.85
46.431 -113.722 3.738 8279.59
46.431 -112.417 3.694 6152.04
46.431 -111.112 3.692 4921.83
46.431 -109.807 3.691 4732.64
46.431 -108.502 3.723 4964.19
46.431 -107.197 3.806 3856.13
46.431 -105.893 3.926 4214.19
46.431 -104.588 3.978 3553.40
46.431 -103.283 3.995 3052.37
46.431 -101.978 4.069 2223.57
46.431 -100.673 4.143 2137.92
46.431 -99.368 4.172 1950.27
46.431 -98.063 4.120 2203.45
46.431 -96.758 3.998 1757.76
46.431 -95.454 3.931 915.99
46.431 -94.149 3.882 1167.73
46.431 -92.844 3.808 1450.49
46.431 -91.539 3.799 1020.65
46.431 -90.234 3.927 1011.81
46.431 -88.929 3.982 1430.01
46.431 -87.624 3.937 901.06
46.431 -86.320 3.912 1064.99
46.431 -85.015 3.935 920.05
46.431 -83.710 3.938 612.03
46.431 -82.405 3.922 583.39
46.431 -81.100 3.911 418.56
46.431 -79.795 3.911 314.65
46.431 -78.490 3.910 502.47
46.431 -77.185 3.906 467.50
46.431 -75.881 3.910 551.43
46.431 -74.576 3.907 192.77
46.431 -73.271 3.909 281.69
46.431 -71.966 3.915 128.85
46.431 -70.661 3.904 167.82
46.431 -69.356 3.878 254.73
46.431 -68.051 3.832 104.99
46.431 -66.747 3.791 99.88
46.431 -65.442 3.784 60.94
46.431 -64.137 3.788 133.88
46.431 -62.832 3.751 5.99
47.330 -136.522 3.694 0.00
47.330 -135.195 3.691 0.00
47.330 -133.868 3.695 0.00
47.330 -132.541 3.697 0.00
47.330 -131.214 3.696 0.00
47.330 -129.887 3.680 186.80
47.330 -128.561 3.634 941.91
47.330 -127.234 3.638 1193.54
47.330 -125.907 3.729 1021.52
47.330 -124.580 3.755 2408.20
47.330 -123.253 3.721 5547.75
47.330 -121.926 3.635 10029.81
47.330 -120.599 3.578 10886.79
47.330 -119.272 3.588 9128.32
47.330 -117.945 3.646 6890.05
47.330 -116.618 3.736 6836.64
47.330 -115.291 3.810 7369.06
47.330 -113.964 3.870 6193.94
47.330 -112.637 3.869 5470.61
47.330 -111.311 3.847 4317.57
47.330 -109.984 3.800 4216.27
47.330 -108.657 3.812 3797.27
47.330 -107.330 3.850 3830.70
47.330 -106.003 3.875 3553.70
47.330 -104.676 3.906 3227.24
47.330 -103.349 3.905 2466.34
47.330 -102.022 3.959 2221.85
47.330 -100.695 4.032 1736.90
47.330 -99.368 4.048 1755.15
47.330 -98.041 4.016 1779.15
47.330 -96.714 3.943 956.41
47.330 -95.387 3.887 859.18
47.330 -94.061 3.836 886.15
47.330 -92.734 3.812 765.27
47.330 -91.407 3.881 668.69
47.330 -90.080 4.043 635.36
47.330 -88.753 4.053 960.98
47.330 -87.426 3.981 443.50
47.330 -86.099 3.938 267.69
47.330 -84.772 3.958 385.60
47.330 -83.445 3.929 268.71
47.330 -82.118 3.883 275.58
47.330 -80.791 3.872 334.62
47.330 -79.464 3.891 403.57
47.330 -78.137 3.901 194.79
47.330 -76.811 3.914 142.86
47.330 -75.484 3.919 161.85
47.330 -74.157 3.901 171.84
47.330 -72.830 3.870 82.91
47.330 -71.503 3.848 140.84
47.330 -70.176 3.825 208.97
47.330 -68.849 3.807 94.89
47.330 -67.522 3.805 238.74
47.330 -66.195 3.820 218.93
47.330 -64.868 3.833 174.84
47.330 -63.541 3.813 94.91
47.330 -62.214 3.756 0.00
48.229 -137.170 3.707 0.00
48.229 -135.820 3.703 0.00
48.229 -134.470 3.702 0.00
48.229 -133.120 3.705 43.95
48.229 -131.770 3.700 140.85
48.229 -130.420 3.651 531.43
48.229 -129.070 3.599 1219.76
48.229 -127.720 3.662 816.52
48.229 -126.370 3.739 1282.09
48.229 -125.020 3.750 4118.52
48.229 -123.670 3.699 10310.64
48.229 -122.320 3.690 11756.59
48.229 -120.969 3.661 9634.81
48.229 -119.619 3.629 5828.18
48.229 -118.269 3.650 6576.63
48.229 -116.919 3.684 6326.16
48.229 -115.569 3.724 5623.62
48.229 -114.219 3.791 5121.10
48.229 -112.869 3.815 4789.70
48.229 -111.519 3.822 3722.85
48.229 -110.169 3.789 3699.37
48.229 -108.819 3.795 2963.17
48.229 -107.469 3.798 2925.33
48.229 -106.119 3.790 2271.97
48.229 -104.769 3.854 2516.26
48.229 -103.418 3.913 2282.17
48.229 -102.068 3.964 2230.76
48.229 -100.718 4.012 1614.18
48.229 -99.368 3.968 1481.71
48.229 -98.018 3.928 894.10
48.229 -96.668 3.867 617.27
48.229 -95.318 3.823 493.34
48.229 -93.968 3.802 375.60
48.229 -92.618 3.845 411.57
48.229 -91.268 3.963 504.67
48.229 -89.918 4.114 879.11
48.229 -88.568 4.079 698.36
48.229 -87.217 3.991 364.62
48.229 -85.867 3.940 307.68
48.229 -84.517 3.939 416.56
48.229 -83.167 3.889 407.57
48.229 -81.817 3.846 368.63
48.229 -80.467 3.866 259.75
48.229 -79.117 3.913 367.66
48.229 -77.767 3.939 357.43
48.229 -76.417 3.951 399.60
48.229 -75.067 3.941 322.68
48.229 -73.717 3.905 331.66
48.229 -72.367 3.863 275.70
48.229 -71.017 3.805 173.81
48.229 -69.666 3.755 70.92
48.229 -68.316 3.738 0.00
48.229 -66.966 3.759 99.88
48.229 -65.616 3.807 64.94
48.229 -64.266 3.838 193.82
48.229 -62.916 3.803 126.88
48.229 -61.566 3.758 124.88
49.129 -137.851 3.740 1.00
49.129 -136.477 3.739 41.96
49.129 -135.103 3.719 133.86
49.129 -133.728 3.702 272.71
49.129 -132.354 3.684 555.41
49.129 -130.979 3.642 548.41
49.129 -129.605 3.639 781.27
49.129 -128.231 3.719 1128.47
49.129 -126.856 3.716 2902.22
49.129 -125.482 3.657 11589.63
49.129 -124.107 3.638 13293.44
49.129 -122.733 3.653 10266.51
49.129 -121.359 3.666 7985.37
49.129 -119.984 3.690 6841.03
49.129 -118.610 3.686 5148.38
49.129 -117.235 3.659 4740.60
49.129 -115.861 3.645 4054.99
49.129 -114.487 3.679 3495.90
49.129 -113.112 3.727 3444.27
49.129 -111.738 3.740 2718.59
49.129 -110.363 3.693 2050.35
49.129 -108.989 3.659 2223.04
49.129 -107.615 3.651 2028.48
49.129 -106.240 3.716 1973.21
49.129 -104.866 3.834 1550.95
49.129 -103.491 3.964 2081.97
49.129 -102.117 4.014 1789.15
49.129 -100.743 3.977 1201.56
49.129 -99.368 3.908 1388.58
49.129 -97.994 3.847 718.26
49.129 -96.619 3.846 653.34
49.129 -95.245 3.843 559.43
49.129 -93.871 3.852 500.47
49.129 -92.496 3.905 465.49
49.129 -91.122 4.021 591.37
49.129 -89.747 4.080 566.47
49.129 -88.373 3.992 624.31
49.129 -86.999 3.899 386.58
49.129 -85.624 3.876 469.50
49.129 -84.250 3.907 553.42
49.129 -82.875 3.878 325.69
49.129 -81.501 3.851 248.74
49.129 -80.127 3.881 294.70
49.129 -78.752 3.920 323.67
49.129 -77.378 3.914 35.96
49.129 -76.003 3.902 269.73
49.129 -74.629 3.878 95.89
49.129 -73.255 3.828 156.84
49.129 -71.880 3.782 0.00
49.129 -70.506 3.742 99.88
49.129 -69.131 3.716 0.00
49.129 -67.757 3.715 62.25
49.129 -66.383 3.750 43.95
49.129 -65.008 3.796 120.89
49.129 -63.634 3.802 79.93
49.129 -62.259 3.761 0.00
49.129 -60.885 3.737 0.00
50.028 -138.567 3.760 333.69
50.028 -137.167 3.753 319.41
50.028 -135.767 3.701 415.56
50.028 -134.367 3.691 526.44
50.028 -132.967 3.687 159.83
50.028 -131.567 3.665 319.63
50.028 -130.167 3.683 867.37
50.028 -128.767 3.710 2235.20
50.028 -127.368 3.616 13143.14
50.028 -125.968 3.544 16286.49
50.028 -124.568 3.576 12266.15
50.028 -123.168 3.563 10242.88
50.028 -121.768 3.575 7614.58
50.028 -120.368 3.641 5676.55
50.028 -118.968 3.648 4965.22
50.028 -117.568 3.608 4261.84
50.028 -116.168 3.603 3240.83
50.028 -114.768 3.637 2611.34
50.028 -113.368 3.660 2322.69
50.028 -111.968 3.657 2064.99
50.028 -110.568 3.628 1830.29
50.028 -109.168 3.591 1833.26
50.028 -107.768 3.611 1209.79
50.028 -106.368 3.743 992.97
50.028 -104.968 3.898 738.25
50.028 -103.568 3.991 1312.67
50.028 -102.168 3.969 1196.76
50.028 -100.768 3.926 1284.73
50.028 -99.368 3.875 393.63
50.028 -97.968 3.846 695.29
50.028 -96.568 3.904 1212.87
50.028 -95.168 3.922 491.45
50.028 -93.768 3.928 272.70
50.028 -92.368 3.954 379.58
50.028 -90.968 4.007 339.62
50.028 -89.568 3.990 780.19
50.028 -88.168 3.893 446.50
50.028 -86.769 3.838 243.74
50.028 -85.369 3.848 269.72
50.028 -83.969 3.881 414.60
50.028 -82.569 3.854 221.79
50.028 -81.169 3.828 77.93
50.028 -79.769 3.841 15.98
50.028 -78.369 3.871 196.79
50.028 -76.969 3.860 118.87
50.028 -75.569 3.828 206.80
50.028 -74.169 3.788 65.94
50.028 -72.769 3.745 33.97
50.028 -71.369 3.720 0.00
50.028 -69.969 3.714 99.88
50.028 -68.569 3.725 0.00
50.028 -67.169 3.748 200.79
50.028 -65.769 3.790 72.93
50.028 -64.369 3.806 127.88
50.028 -62.969 3.767 66.94
50.028 -61.569 3.728 124.88
50.028 -60.169 3.711 125.88
50.927 -139.320 3.708 559.48
50.927 -137.893 3.701 617.41
50.927 -136.466 3.695 285.70
50.927 -135.040 3.702 2.00
50.927 -133.613 3.711 129.85
50.927 -132.186 3.705 409.55
50.927 -130.759 3.699 1319.96
50.927 -129.332 3.629 17390.08
50.927 -127.905 3.507 22984.10
50.927 -126.478 3.469 15120.15
50.927 -125.052 3.508 11582.37
50.927 -123.625 3.487 8738.53
50.927 -122.198 3.489 6055.20
50.927 -120.771 3.552 4432.61
50.927 -119.344 3.583 3621.39
50.927 -117.917 3.573 3069.98
50.927 -116.490 3.574 2591.49
50.927 -115.064 3.576 2072.01
50.927 -113.637 3.594 1672.40
50.927 -112.210 3.636 1398.60
50.927 -110.783 3.694 777.18
50.927 -109.356 3.721 466.54
50.927 -107.929 3.791 992.03
50.927 -106.502 3.937 579.41
50.927 -105.076 4.080 1264.67
50.927 -103.649 4.082 1077.93
50.927 -102.222 4.026 1547.42
50.927 -100.795 3.928 969.04
50.927 -99.368 3.892 394.61
50.927 -97.941 3.877 354.67
50.927 -96.514 3.895 260.73
50.927 -95.088 3.906 273.71
50.927 -93.661 3.899 537.39
50.927 -92.234 3.917 366.59
50.927 -90.807 3.966 455.56
50.927 -89.380 3.928 597.65
50.927 -87.953 3.866 281.73
50.927 -86.526 3.835 271.75
50.927 -85.100 3.858 129.88
50.927 -83.673 3.876 122.89
50.927 -82.246 3.836 83.90
50.927 -80.819 3.804 97.89
50.927 -79.392 3.811 91.89
50.927 -77.965 3.822 90.92
50.927 -76.538 3.816 99.91
50.927 -75.112 3.795 99.91
50.927 -73.685 3.758 99.91
50.927 -72.258 3.726 0.00
50.927 -70.831 3.717 81.90
50.927 -69.404 3.730 17.98
50.927 -67.977 3.759 229.78
50.927 -66.550 3.798 198.80
50.927 -65.124 3.823 259.76
50.927 -63.697 3.785 179.83
50.927 -62.270 3.719 84.92
50.927 -60.843 3.679 245.77
50.927 -59.416 3.673 391.63
51.827 -140.113 3.685 869.19
51.827 -138.658 3.685 79.92
51.827 -137.203 3.703 21.97
51.827 -135.747 3.727 155.82
51.827 -134.292 3.734 167.84
51.827 -132.837 3.724 489.50
51.827 -131.382 3.670 25863.47
51.827 -129.927 3.584 34688.12
51.827 -128.472 3.566 14480.72
51.827 -127.016 3.561 9288.97
51.827 -125.561 3.571 6234.25
51.827 -124.106 3.546 4492.57
51.827 -122.651 3.521 3382.67
51.827 -121.196 3.521 2210.83
51.827 -119.741 3.570 1863.16
51.827 -118.285 3.624 1464.51
51.827 -116.830 3.653 1230.75
51.827 -115.375 3.660 786.23
51.827 -113.920 3.695 689.29
51.827 -112.465 3.749 637.37
51.827 -111.010 3.848 729.24
51.827 -109.554 3.981 801.19
51.827 -108.099 4.117 1471.55
51.827 -106.644 4.200 1424.54
51.827 -105.189 4.225 1340.63
51.827 -103.734 4.211 955.05
51.827 -102.279 4.101 969.04
51.827 -100.823 3.960 827.13
51.827 -99.368 3.911 313.66
51.827 -97.913 3.883 420.54
51.827 -96.458 3.882 216.77
51.827 -95.003 3.889 449.54
51.827 -93.548 3.869 235.78
51.827 -92.092 3.897 348.68
51.827 -90.637 3.941 484.74
51.827 -89.182 3.911 437.53
51.827 -87.727 3.875 108.88
51.827 -86.272 3.840 180.79
51.827 -84.817 3.847 190.78
51.827 -83.361 3.857 294.68
51.827 -81.906 3.804 108.88
51.827 -80.451 3.777 96.91
51.827 -78.996 3.793 197.82
51.827 -77.541 3.803 99.91
51.827 -76.085 3.803 259.76
51.827 -74.630 3.789 145.86
51.827 -73.175 3.752 205.81
51.827 -71.720 3.726 107.90
51.827 -70.265 3.720 208.78
51.827 -68.810 3.728 111.90
51.827 -67.354 3.743 200.79
51.827 -65.899 3.778 194.82
51.827 -64.444 3.774 395.63
51.827 -62.989 3.712 370.65
51.827 -61.534 3.668 373.65
51.827 -60.079 3.666 401.63
51.827 -58.623 3.684 338.68
52.726 -140.948 3.698 113.90
52.726 -139.463 3.701 91.89
52.726 -137.978 3.723 135.84
52.726 -136.493 3.736 307.72
52.726 -135.008 3.716 320.71
52.726 -133.523 3.649 466.53
52.726 -132.038 3.539 1195.59
52.726 -130.553 3.474 3378.16
52.726 -129.068 3.515 3568.09
52.726 -127.583 3.571 3534.40
52.726 -126.098 3.669 3193.59
52.726 -124.613 3.708 2529.01
52.726 -123.128 3.681 1952.97
52.726 -121.643 3.674 2203.79
52.726 -120.158 3.719 1530.43
52.726 -118.673 3.803 1448.50
52.726 -117.188 3.854 1367.56
52.726 -115.703 3.901 1223.74
52.726 -114.218 3.926 980.00
52.726 -112.733 3.976 1089.90
52.726 -111.248 4.068 1276.71
52.726 -109.763 4.205 996.95
52.726 -108.278 4.248 648.32
52.726 -106.793 4.234 1449.50
52.726 -105.308 4.225 866.09
52.726 -103.823 4.228 1159.79
52.726 -102.338 4.120 722.25
52.726 -100.853 4.015 988.99
52.726 -99.368 3.983 480.54
52.726 -97.883 3.955 302.72
52.726 -96.398 3.928 399.61
52.726 -94.913 3.909 342.67
52.726 -93.428 3.888 92.91
52.726 -91.943 3.896 167.83
52.726 -90.458 3.896 137.70
52.726 -88.973 3.848 401.54
52.726 -87.488 3.803 98.88
52.726 -86.003 3.758 8.99
52.726 -84.518 3.758 0.00
52.726 -83.033 3.769 103.90
52.726 -81.548 3.734 0.00
52.726 -80.063 3.726 0.00
52.726 -78.578 3.750 199.19
52.726 -77.093 3.756 189.82
52.726 -75.608 3.751 338.68
52.726 -74.123 3.733 237.78
52.726 -72.638 3.696 351.67
52.726 -71.153 3.676 369.65
52.726 -69.668 3.680 391.62
52.726 -68.183 3.694 451.57
52.726 -66.698 3.720 441.58
52.726 -65.213 3.749 505.53
52.726 -63.728 3.733 364.66
52.726 -62.243 3.694 251.77
52.726 -60.758 3.675 231.78
52.726 -59.273 3.680 31.97
52.726 -57.788 3.697 152.86
53.625 -141.829 3.718 414.58
53.625 -140.313 3.721 174.83
53.625 -138.796 3.732 382.65
53.625 -137.280 3.731 145.86
53.625 -135.763 3.705 0.00
53.625 -134.247 3.669 350.63
53.625 -132.730 3.638 334.47
53.625 -131.214 3.659 1632.03
53.625 -129.697 3.784 2176.17
53.625 -128.181 3.896 1783.12
53.625 -126.665 3.970 1593.36
53.625 -125.148 4.037 929.58
53.625 -123.632 3.997 580.41
53.625 -122.115 3.964 1084.92
53.625 -120.599 3.966 937.05
53.625 -119.082 4.004 667.31
53.625 -117.566 4.058 798.17
53.625 -116.049 4.088 949.00
53.625 -114.533 4.133 605.39
53.625 -113.016 4.192 873.13
53.625 -111.500 4.228 840.17
53.625 -109.983 4.250 747.24
53.625 -108.467 4.266 889.07
53.625 -106.951 4.202 1052.97
53.625 -105.434 4.152 1160.85
53.625 -103.918 4.139 524.46
53.625 -102.401 4.110 493.50
53.625 -100.885 4.076 993.94
53.625 -99.368 4.039 531.44
53.625 -97.852 4.011 289.66
53.625 -96.335 3.942 180.79
53.625 -94.819 3.904 202.79
53.625 -93.302 3.880 100.88
53.625 -91.786 3.862 136.86
53.625 -90.269 3.832 34.96
53.625 -88.753 3.769 264.70
53.625 -87.237 3.728 0.00
53.625 -85.720 3.706 0.00
53.625 -84.204 3.715 0.00
53.625 -82.687 3.732 102.90
53.625 -81.171 3.709 0.00
53.625 -79.654 3.712 0.00
53.625 -78.138 3.744 100.91
53.625 -76.621 3.741 211.87
53.625 -75.105 3.720 397.63
53.625 -73.588 3.702 454.07
53.625 -72.072 3.692 309.71
53.625 -70.555 3.696 414.59
53.625 -69.039 3.717 319.70
53.625 -67.523 3.739 528.49
53.625 -66.006 3.762 435.59
53.625 -64.490 3.753 347.67
53.625 -62.973 3.706 102.90
53.625 -61.457 3.681 104.90
53.625 -59.940 3.684 106.90
53.625 -58.424 3.700 243.77
53.625 -56.907 3.724 168.81
54.525 -142.759 3.759 175.81
54.525 -141.209 3.760 317.70
54.525 -139.660 3.733 57.95
54.525 -138.110 3.713 0.00
54.525 -136.560 3.691 92.89
54.525 -135.011 3.655 257.74
54.525 -133.461 3.652 522.49
54.525 -131.911 3.701 1727.87
54.525 -130.362 3.765 1479.59
54.525 -128.812 3.798 1614.97
54.525 -127.262 3.839 1581.41
54.525 -125.713 3.926 885.02
54.525 -124.163 3.947 700.68
54.525 -122.613 3.920 456.53
54.525 -121.064 3.920 692.29
54.525 -119.514 3.928 470.50
54.525 -117.964 3.993 289.68
54.525 -116.415 4.067 448.49
54.525 -114.865 4.117 752.19
54.525 -113.315 4.120 355.62
54.525 -111.766 4.131 554.42
54.525 -110.216 4.169 801.15
54.525 -108.666 4.207 735.20
54.525 -107.117 4.152 868.12
54.525 -105.567 4.058 772.22
54.525 -104.017 4.009 312.66
54.525 -102.468 4.017 438.02
54.525 -100.918 3.975 524.44
54.525 -99.368 3.912 566.41
54.525 -97.819 3.875 59.93
54.525 -96.269 3.833 74.91
54.525 -94.719 3.836 206.78
54.525 -93.170 3.851 133.85
54.525 -91.620 3.847 175.81
54.525 -90.070 3.816 331.62
54.525 -88.520 3.765 78.91
54.525 -86.971 3.741 0.00
54.525 -85.421 3.740 54.75
54.525 -83.871 3.749 0.00
54.525 -82.322 3.764 103.90
54.525 -80.772 3.744 0.00
54.525 -79.222 3.755 0.00
54.525 -77.673 3.796 99.91
54.525 -76.123 3.803 125.88
54.525 -74.573 3.786 75.93
54.525 -73.024 3.759 125.88
54.525 -71.474 3.751 90.89
54.525 -69.924 3.770 105.64
54.525 -68.375 3.802 242.74
54.525 -66.825 3.821 185.81
54.525 -65.275 3.817 169.84
54.525 -63.726 3.761 10.99
54.525 -62.176 3.713 0.00
54.525 -60.626 3.706 99.88
54.525 -59.077 3.724 231.75
54.525 -57.527 3.737 109.87
54.525 -55.977 3.746 0.00
55.424 -143.742 3.762 495.54
55.424 -142.157 3.751 0.00
55.424 -140.572 3.716 0.00
55.424 -138.988 3.699 0.00
55.424 -137.403 3.688 122.86
55.424 -135.818 3.656 514.50
55.424 -134.233 3.631 485.51
55.424 -132.648 3.645 1567.86
55.424 -131.064 3.632 1355.69
55.424 -129.479 3.615 1150.48
55.424 -127.894 3.656 1101.72
55.424 -126.309 3.782 1024.44
55.424 -124.725 3.882 587.08
55.424 -123.140 3.902 665.22
55.424 -121.555 3.899 469.49
55.424 -119.970 3.910 938.02
55.424 -118.385 3.942 592.35
55.424 -116.801 3.978 580.38
55.424 -115.216 3.941 553.38
55.424 -113.631 3.918 422.57
55.424 -112.046 3.971 354.61
55.424 -110.462 4.049 739.25
55.424 -108.877 4.092 669.30
55.424 -107.292 4.070 646.35
55.424 -105.707 3.956 670.35
55.424 -104.123 3.882 216.78
55.424 -102.538 3.915 274.70
55.424 -100.953 3.880 291.70
55.424 -99.368 3.799 679.29
55.424 -97.783 3.747 43.96
55.424 -96.199 3.729 0.00
55.424 -94.614 3.746 27.97
55.424 -93.029 3.794 178.83
55.424 -91.444 3.800 0.00
55.424 -89.860 3.777 301.66
55.424 -88.275 3.779 96.89
55.424 -86.690 3.782 102.88
55.424 -85.105 3.802 204.78
55.424 -83.520 3.809 101.88
55.424 -81.936 3.818 204.79
55.424 -80.351 3.801 100.88
55.424 -78.766 3.821 160.83
55.424 -77.181 3.865 138.85
55.424 -75.597 3.883 297.70
55.424 -74.012 3.870 181.81
55.424 -72.427 3.838 123.86
55.424 -70.842 3.827 289.66
55.424 -69.257 3.843 260.71
55.424 -67.673 3.855 427.55
55.424 -66.088 3.859 334.67
55.424 -64.503 3.822 203.78
55.424 -62.918 3.754 123.85
55.424 -61.334 3.719 127.85
55.424 -59.749 3.723 91.91
55.424 -58.164 3.743 39.96
55.424 -56.579 3.752 223.79
55.424 -54.995 3.746 293.73
56.324 -144.782 3.729 49.95
56.324 -143.160 3.719 0.00
56.324 -141.538 3.697 0.00
56.324 -139.916 3.694 0.00
56.324 -138.294 3.688 287.70
56.324 -136.672 3.649 646.34
56.324 -135.050 3.628 755.23
56.324 -133.428 3.623 924.07
56.324 -131.806 3.586 1195.87
56.324 -130.184 3.564 1112.90
56.324 -128.563 3.597 931.09
56.324 -126.941 3.746 481.98
56.324 -125.319 3.897 576.32
56.324 -123.697 4.001 620.97
56.324 -122.075 4.026 730.23
56.324 -120.453 4.027 793.17
56.324 -118.831 3.958 1003.96
56.324 -117.209 3.877 580.36
56.324 -115.587 3.866 768.15
56.324 -113.965 3.906 683.23
56.324 -112.343 3.956 475.50
56.324 -110.722 3.995 545.43
56.324 -109.100 4.041 971.03
56.324 -107.478 4.028 399.58
56.324 -105.856 3.948 230.78
56.324 -104.234 3.893 587.38
56.324 -102.612 3.906 438.51
56.324 -100.990 3.871 176.82
56.324 -99.368 3.773 639.33
56.324 -97.746 3.712 202.81
56.324 -96.124 3.713 0.00
56.324 -94.502 3.725 0.00
56.324 -92.881 3.772 206.81
56.324 -91.259 3.775 0.00
56.324 -89.637 3.742 299.66
56.324 -88.015 3.746 0.00
56.324 -86.393 3.754 0.00
56.324 -84.771 3.782 100.91
56.324 -83.149 3.788 0.00
56.324 -81.527 3.796 103.90
56.324 -79.905 3.789 0.00
56.324 -78.283 3.814 100.91
56.324 -76.661 3.849 82.91
56.324 -75.040 3.860 297.80
56.324 -73.418 3.841 296.68
56.324 -71.796 3.809 186.78
56.324 -70.174 3.800 207.76
56.324 -68.552 3.822 231.74
56.324 -66.930 3.843 379.61
56.324 -65.308 3.835 253.76
56.324 -63.686 3.769 80.93
56.324 -62.064 3.721 30.97
56.324 -60.442 3.710 26.98
56.324 -58.820 3.721 74.93
56.324 -57.199 3.736 265.57
56.324 -55.577 3.731 61.94
56.324 -53.955 3.719 0.00
57.223 -145.883 3.703 0.00
57.223 -144.222 3.698 0.00
57.223 -142.561 3.692 0.00
57.223 -140.899 3.692 103.90
57.223 -139.238 3.678 536.43
57.223 -137.577 3.656 632.35
57.223 -135.916 3.641 874.45
57.223 -134.254 3.617 708.18
57.223 -132.593 3.580 734.23
57.223 -130.932 3.581 849.85
57.223 -129.271 3.633 829.10
57.223 -127.609 3.781 558.42
57.223 -125.948 3.918 390.59
57.223 -124.287 4.018 696.55
57.223 -122.626 4.074 867.89
57.223 -120.964 4.020 534.44
57.223 -119.303 3.923 889.10
57.223 -117.642 3.862 1024.92
57.223 -115.981 3.898 484.47
57.223 -114.319 3.970 711.19
57.223 -112.658 3.982 934.01
57.223 -110.997 3.991 975.98
57.223 -109.336 3.988 554.43
57.223 -107.674 3.998 401.56
57.223 -106.013 4.001 307.64
57.223 -104.352 3.971 881.09
57.223 -102.691 3.927 299.68
57.223 -101.029 3.901 250.73
57.223 -99.368 3.811 461.51
57.223 -97.707 3.748 477.51
57.223 -96.046 3.757 0.00
57.223 -94.384 3.768 19.98
57.223 -92.723 3.795 185.83
57.223 -91.062 3.790 0.00
57.223 -89.401 3.745 301.67
57.223 -87.739 3.736 0.00
57.223 -86.078 3.743 0.00
57.223 -84.417 3.772 173.82
57.223 -82.756 3.771 97.88
57.223 -81.094 3.778 199.79
57.223 -79.433 3.779 96.89
57.223 -77.772 3.807 194.79
57.223 -76.111 3.821 133.86
57.223 -74.449 3.805 102.90
57.223 -72.788 3.768 92.91
57.223 -71.127 3.742 83.91
57.223 -69.466 3.753 15.98
57.223 -67.805 3.787 268.72
57.223 -66.143 3.816 183.82
57.223 -64.482 3.782 62.94
57.223 -62.821 3.723 78.93
57.223 -61.160 3.701 70.93
57.223 -59.498 3.705 163.85
57.223 -57.837 3.710 0.00
57.223 -56.176 3.711 0.00
57.223 -54.515 3.704 0.00
57.223 -52.853 3.697 0.00
58.122 -147.051 3.694 0.00
58.122 -145.348 3.695 0.00
58.122 -143.645 3.695 78.93
58.122 -141.942 3.686 409.59
58.122 -140.239 3.680 393.58
58.122 -138.537 3.665 875.09
58.122 -136.834 3.674 552.42
58.122 -135.131 3.660 775.97
58.122 -133.428 3.628 850.04
58.122 -131.725 3.656 516.52
58.122 -130.022 3.734 627.72
58.122 -128.319 3.848 696.27
58.122 -126.616 3.904 713.26
58.122 -124.913 3.888 175.32
58.122 -123.210 3.898 638.96
58.122 -121.507 3.904 756.22
58.122 -119.804 3.894 650.31
58.122 -118.101 3.940 891.08
58.122 -116.398 3.994 649.32
58.122 -114.695 4.035 1030.91
58.122 -112.992 4.022 1303.61
58.122 -111.289 3.973 412.58
58.122 -109.586 3.925 369.62
58.122 -107.883 3.942 418.57
58.122 -106.180 3.995 540.38
58.122 -104.477 3.982 566.40
58.122 -102.774 3.922 723.22
58.122 -101.071 3.901 421.53
58.122 -99.368 3.855 381.60
58.122 -97.665 3.796 881.06
58.122 -95.962 3.798 222.74
58.122 -94.259 3.811 206.78
58.122 -92.556 3.813 203.79
58.122 -90.853 3.807 206.78
58.122 -89.150 3.754 292.66
58.122 -87.447 3.736 98.88
58.122 -85.744 3.742 97.88
58.122 -84.041 3.763 126.86
58.122 -82.339 3.754 0.00
58.122 -80.636 3.761 103.90
58.122 -78.933 3.768 0.00
58.122 -77.230 3.800 100.89
58.122 -75.527 3.805 200.80
58.122 -73.824 3.774 99.91
58.122 -72.121 3.731 0.00
58.122 -70.418 3.722 99.89
58.122 -68.715 3.751 138.85
58.122 -67.012 3.791 229.77
58.122 -65.309 3.799 132.87
58.122 -63.606 3.743 0.00
58.122 -61.903 3.704 0.00
58.122 -60.200 3.699 154.87
58.122 -58.497 3.703 77.93
58.122 -56.794 3.703 80.92
58.122 -55.091 3.702 12.99
58.122 -53.388 3.699 0.00
58.122 -51.685 3.693 0.00
59.022 -148.292 3.688 0.00
59.022 -146.545 3.692 86.37
59.022 -144.798 3.692 406.60
59.022 -143.050 3.688 260.73
59.022 -141.303 3.681 742.20
59.022 -139.556 3.698 642.35
59.022 -137.808 3.728 612.31
59.022 -136.061 3.736 483.11
59.022 -134.314 3.717 1398.22
59.022 -132.567 3.748 245.74
59.022 -130.819 3.786 217.76
59.022 -129.072 3.811 266.73
59.022 -127.325 3.817 640.35
59.022 -125.577 3.769 446.55
59.022 -123.830 3.749 237.31
59.022 -122.083 3.790 513.52
59.022 -120.336 3.900 572.40
59.022 -118.588 4.012 494.49
59.022 -116.841 4.098 1376.59
59.022 -115.094 4.084 1215.73
59.022 -113.346 4.065 865.08
59.022 -111.599 3.979 658.30
59.022 -109.852 3.907 459.53
59.022 -108.105 3.911 608.34
59.022 -106.357 3.949 464.51
59.022 -104.610 3.928 100.89
59.022 -102.863 3.876 619.40
59.022 -101.115 3.868 328.64
59.022 -99.368 3.879 270.71
59.022 -97.621 3.819 780.16
59.022 -95.874 3.780 270.72
59.022 -94.126 3.791 130.80
59.022 -92.379 3.786 104.90
59.022 -90.632 3.774 292.68
59.022 -88.884 3.744 8.99
59.022 -87.137 3.717 0.00
59.022 -85.390 3.723 0.00
59.022 -83.643 3.749 101.89
59.022 -81.895 3.741 0.00
59.022 -80.148 3.752 104.90
59.022 -78.401 3.768 40.96
59.022 -76.654 3.795 58.94
59.022 -74.906 3.793 199.80
59.022 -73.159 3.758 99.91
59.022 -71.412 3.728 60.94
59.022 -69.664 3.741 38.96
59.022 -67.917 3.779 284.71
59.022 -66.170 3.809 199.80
59.022 -64.423 3.769 16.98
59.022 -62.675 3.716 0.00
59.022 -60.928 3.697 65.95
59.022 -59.181 3.701 35.97
59.022 -57.433 3.702 25.98
59.022 -55.686 3.699 78.93
59.022 -53.939 3.702 76.93
59.022 -52.192 3.703 45.96
59.022 -50.444 3.692 0.00
59.921 -149.612 3.668 44.66
59.921 -147.818 3.673 222.77
59.921 -146.023 3.696 232.76
59.921 -144.229 3.698 590.35
59.921 -142.434 3.699 698.31
59.921 -140.640 3.715 350.61
59.921 -138.845 3.756 708.58
59.921 -137.051 3.743 133.86
59.921 -135.257 3.728 528.02
59.921 -133.462 3.725 319.66
59.921 -131.668 3.730 221.79
59.921 -129.873 3.746 291.70
59.921 -128.079 3.762 358.66
59.921 -126.284 3.730 460.52
59.921 -124.490 3.701 283.71
59.921 -122.696 3.760 212.80
59.921 -120.901 3.912 397.62
59.921 -119.107 4.030 708.25
59.921 -117.312 4.079 1318.65
59.921 -115.518 4.123 1410.58
59.921 -113.724 4.092 614.34
59.921 -111.929 4.026 841.09
59.921 -110.135 3.965 564.39
59.921 -108.340 3.917 400.57
59.921 -106.546 3.890 478.52
59.921 -104.751 3.871 473.49
59.921 -102.957 3.833 537.48
59.921 -101.163 3.826 502.48
59.921 -99.368 3.868 252.73
59.921 -97.574 3.842 514.43
59.921 -95.779 3.785 533.42
59.921 -93.985 3.794 0.00
59.921 -92.191 3.795 79.93
59.921 -90.396 3.768 325.65
59.921 -88.602 3.745 0.00
59.921 -86.807 3.707 0.00
59.921 -85.013 3.714 0.00
59.921 -83.218 3.747 101.89
59.921 -81.424 3.744 0.00
59.921 -79.630 3.767 104.90
59.921 -77.835 3.791 99.89
59.921 -76.041 3.800 87.91
59.921 -74.246 3.781 150.86
59.921 -72.452 3.746 61.94
59.921 -70.657 3.737 99.89
59.921 -68.863 3.768 166.83
59.921 -67.069 3.805 249.75
59.921 -65.274 3.796 84.92
59.921 -63.480 3.736 0.00
59.921 -61.685 3.700 35.97
59.921 -59.891 3.697 65.95
59.921 -58.097 3.701 0.00
59.921 -56.302 3.701 0.00
59.921 -54.508 3.700 0.00
59.921 -52.713 3.698 69.94
59.921 -50.919 3.693 80.92
59.921 -49.124 3.677 98.96
60.820 -151.018 3.643 156.82
60.820 -149.173 3.664 203.47
60.820 -147.329 3.710 151.86
60.820 -145.484 3.722 591.65
60.820 -143.639 3.710 365.63
60.820 -141.795 3.703 524.39
60.820 -139.950 3.713 359.64
60.820 -138.106 3.712 208.81
60.820 -136.261 3.688 291.69
60.820 -134.416 3.686 338.58
60.820 -132.572 3.706 249.76
60.820 -130.727 3.734 34.96
60.820 -128.882 3.756 248.75
60.820 -127.038 3.731 279.72
60.820 -125.193 3.735 420.56
60.820 -123.348 3.807 256.73
60.820 -121.504 3.914 248.77
60.820 -119.659 4.017 1193.80
60.820 -117.815 4.051 1074.90
60.820 -115.970 4.059 703.28
60.820 -114.125 4.062 936.04
60.820 -112.281 4.057 881.06
60.820 -110.436 4.027 836.07
60.820 -108.591 3.938 427.56
60.820 -106.747 3.862 368.62
60.820 -104.902 3.866 402.58
60.820 -103.057 3.850 119.87
60.820 -101.213 3.830 736.30
60.820 -99.368 3.842 421.56
60.820 -97.524 3.834 447.52
60.820 -95.679 3.780 968.95
60.820 -93.834 3.806 251.68
60.820 -91.990 3.834 179.79
60.820 -90.145 3.796 506.45
60.820 -88.300 3.765 99.88
60.820 -86.456 3.721 99.88
60.820 -84.611 3.726 99.88
60.820 -82.766 3.754 199.78
60.820 -80.922 3.749 97.88
60.820 -79.077 3.780 199.69
60.820 -77.233 3.812 100.89
60.820 -75.388 3.805 194.81
60.820 -73.543 3.771 104.90
60.820 -71.699 3.742 43.95
60.820 -69.854 3.754 56.94
60.820 -68.009 3.791 326.67
60.820 -66.165 3.813 175.83
60.820 -64.320 3.760 0.00
60.820 -62.475 3.711 6.99
60.820 -60.631 3.697 94.92
60.820 -58.786 3.699 0.00
60.820 -56.942 3.695 0.00
60.820 -55.097 3.691 0.00
60.820 -53.252 3.686 0.00
60.820 -51.408 3.674 0.00
60.820 -49.563 3.662 33.97
60.820 -47.718 3.650 197.79
61.720 -152.518 3.646 380.58
61.720 -150.620 3.669 25.98
61.720 -148.722 3.720 330.95
61.720 -146.824 3.735 379.61
61.720 -144.926 3.714 454.50
61.720 -143.027 3.684 570.39
61.720 -141.129 3.687 28.97
61.720 -139.231 3.688 291.73
61.720 -137.333 3.661 218.74
61.720 -135.434 3.679 133.84
61.720 -133.536 3.706 89.90
61.720 -131.638 3.722 210.79
61.720 -129.740 3.741 241.75
61.720 -127.842 3.755 150.84
61.720 -125.943 3.801 186.83
61.720 -124.045 3.880 445.54
61.720 -122.147 3.952 1010.96
61.720 -120.249 3.995 859.17
61.720 -118.350 4.015 362.64
61.720 -116.452 3.975 652.31
61.720 -114.554 3.985 986.99
61.720 -112.656 4.016 1076.87
61.720 -110.758 3.997 631.31
61.720 -108.859 3.925 618.35
61.720 -106.961 3.870 369.63
61.720 -105.063 3.884 522.47
61.720 -103.165 3.906 477.47
61.720 -101.266 3.877 461.57
61.720 -99.368 3.861 428.57
61.720 -97.470 3.850 164.83
61.720 -95.572 3.797 725.20
61.720 -93.674 3.797 134.86
61.720 -91.775 3.847 93.90
61.720 -89.877 3.812 462.49
61.720 -87.979 3.778 113.87
61.720 -86.081 3.738 13.98
61.720 -84.182 3.746 0.00
61.720 -82.284 3.769 101.89
61.720 -80.386 3.754 0.00
61.720 -78.488 3.784 105.90
61.720 -76.590 3.820 99.89
61.720 -74.691 3.807 199.80
61.720 -72.793 3.772 99.91
61.720 -70.895 3.755 99.89
61.720 -68.997 3.775 217.77
61.720 -67.098 3.811 241.76
61.720 -65.200 3.788 42.96
61.720 -63.302 3.728 0.00
61.720 -61.404 3.698 101.92
61.720 -59.505 3.696 0.00
61.720 -57.607 3.690 0.00
61.720 -55.709 3.671 0.00
61.720 -53.811 3.659 0.00
61.720 -51.913 3.651 0.00
61.720 -50.014 3.634 107.87
61.720 -48.116 3.629 148.82
61.720 -46.218 3.648 78.91
62.619 -154.123 3.686 247.75
62.619 -152.167 3.705 185.73
62.619 -150.212 3.736 296.68
62.619 -148.256 3.745 355.61
62.619 -146.301 3.718 621.35
62.619 -144.345 3.679 361.63
62.619 -142.390 3.690 151.86
62.619 -140.434 3.680 151.86
62.619 -138.479 3.651 351.59
62.619 -136.523 3.673 4.99
62.619 -134.567 3.698 0.00
62.619 -132.612 3.698 140.86
62.619 -130.656 3.716 269.70
62.619 -128.701 3.778 236.76
62.619 -126.745 3.860 38.96
62.619 -124.790 3.928 872.13
62.619 -122.834 3.979 1186.79
62.619 -120.879 3.967 302.69
62.619 -118.923 3.937 426.59
62.619 -116.968 3.915 392.59
62.619 -115.012 3.916 702.10
62.619 -113.057 3.945 988.99
62.619 -111.101 3.918 861.08
62.619 -109.146 3.867 665.29
62.619 -107.190 3.860 524.47
62.619 -105.235 3.886 352.66
62.619 -103.279 3.945 513.47
62.619 -101.324 3.938 320.67
62.619 -99.368 3.912 843.20
62.619 -97.413 3.883 410.58
62.619 -95.457 3.835 576.39
62.619 -93.502 3.800 495.48
62.619 -91.546 3.830 214.77
62.619 -89.591 3.806 191.80
62.619 -87.635 3.761 0.00
62.619 -85.680 3.741 98.88
62.619 -83.724 3.764 111.87
62.619 -81.769 3.790 213.76
62.619 -79.813 3.778 44.95
62.619 -77.858 3.812 69.24
62.619 -75.902 3.850 129.86
62.619 -73.946 3.837 205.80
62.619 -71.991 3.812 53.95
62.619 -70.035 3.802 93.90
62.619 -68.080 3.810 335.66
62.619 -66.124 3.808 141.86
62.619 -64.169 3.750 0.00
62.619 -62.213 3.705 80.93
62.619 -60.258 3.695 20.98
62.619 -58.302 3.693 0.00
62.619 -56.347 3.677 0.00
62.619 -54.391 3.642 124.14
62.619 -52.436 3.628 126.85
62.619 -50.480 3.629 133.84
62.619 -48.525 3.643 33.96
62.619 -46.569 3.657 0.00
62.619 -44.614 3.677 0.00
63.518 -155.841 3.709 115.87
63.518 -153.824 3.719 294.68
63.518 -151.807 3.734 158.90
63.518 -149.790 3.741 374.32
63.518 -147.773 3.720 428.99
63.518 -145.757 3.694 412.59
63.518 -143.740 3.710 326.70
63.518 -141.723 3.688 0.00
63.518 -139.706 3.659 349.59
63.518 -137.689 3.677 11.99
63.518 -135.672 3.693 0.00
63.518 -133.655 3.687 55.95
63.518 -131.638 3.697 147.84
63.518 -129.622 3.777 321.66
63.518 -127.605 3.883 125.87
63.518 -125.588 3.952 696.30
63.518 -123.571 3.973 376.63
63.518 -121.554 3.918 584.38
63.518 -119.537 3.841 239.74
63.518 -117.520 3.852 423.59
63.518 -115.503 3.893 431.54
63.518 -113.486 3.874 490.49
63.518 -111.470 3.864 1165.81
63.518 -109.453 3.835 683.55
63.518 -107.436 3.823 838.14
63.518 -105.419 3.850 437.55
63.518 -103.402 3.900 404.60
63.518 -101.385 3.949 507.46
63.518 -99.368 3.941 569.46
63.518 -97.351 3.934 490.51
63.518 -95.334 3.897 327.66
63.518 -93.318 3.832 932.01
63.518 -91.301 3.816 470.63
63.518 -89.284 3.819 208.81
63.518 -87.267 3.758 6.99
63.518 -85.250 3.738 0.00
63.518 -83.233 3.767 0.00
63.518 -81.216 3.801 102.89
63.518 -79.199 3.817 64.92
63.518 -77.182 3.876 209.77
63.518 -75.166 3.907 301.68
63.518 -73.149 3.891 216.77
63.518 -71.132 3.873 299.68
63.518 -69.115 3.857 383.96
63.518 -67.098 3.841 244.76
63.518 -65.081 3.778 3.00
63.518 -63.064 3.718 54.96
63.518 -61.047 3.694 47.96
63.518 -59.030 3.695 0.00
63.518 -57.014 3.695 0.00
63.518 -54.997 3.686 0.00
63.518 -52.980 3.670 0.00
63.518 -50.963 3.664 0.00
63.518 -48.946 3.669 0.00
63.518 -46.929 3.680 0.00
63.518 -44.912 3.690 0.00
63.518 -42.895 3.698 15.98
64.418 -157.686 3.709 264.69
64.418 -155.603 3.709 2.00
64.418 -153.520 3.711 87.92
64.418 -151.437 3.722 203.94
64.418 -149.355 3.721 218.77
64.418 -147.272 3.717 604.83
64.418 -145.189 3.729 285.73
64.418 -143.106 3.709 102.90
64.418 -141.023 3.688 210.71
64.418 -138.941 3.703 184.36
64.418 -136.858 3.706 111.93
64.418 -134.775 3.692 90.95
64.418 -132.692 3.690 192.86
64.418 -130.610 3.748 287.73
64.418 -128.527 3.845 379.58
64.418 -126.444 3.910 327.66
64.418 -124.361 3.914 89.90
64.418 -122.279 3.844 240.77
64.418 -120.196 3.800 489.49
64.418 -118.113 3.817 317.84
64.418 -116.030 3.844 322.60
64.418 -113.948 3.854 385.60
64.418 -111.865 3.844 456.51
64.418 -109.782 3.856 1311.65
64.418 -107.699 3.810 709.26
64.418 -105.616 3.802 708.27
64.418 -103.534 3.844 505.48
64.418 -101.451 3.909 551.42
64.418 -99.368 3.921 259.71
64.418 -97.285 3.931 784.25
64.418 -95.203 3.897 311.57
64.418 -93.120 3.834 781.15
64.418 -91.037 3.781 386.56
64.418 -88.954 3.805 119.89
64.418 -86.872 3.762 95.91
64.418 -84.789 3.747 101.91
64.418 -82.706 3.773 101.91
64.418 -80.623 3.806 201.80
64.418 -78.541 3.833 99.91
64.418 -76.458 3.894 197.80
64.418 -74.375 3.907 318.69
64.418 -72.292 3.882 188.82
64.418 -70.210 3.855 142.85
64.418 -68.127 3.849 370.63
64.418 -66.044 3.811 69.93
64.418 -63.961 3.738 28.98
64.418 -61.878 3.697 72.94
64.418 -59.796 3.692 0.00
64.418 -57.713 3.695 0.00
64.418 -55.630 3.695 0.00
64.418 -53.547 3.695 0.00
64.418 -51.465 3.692 0.00
64.418 -49.382 3.691 0.00
64.418 -47.299 3.693 0.00
64.418 -45.216 3.698 0.00
64.418 -43.134 3.702 146.86
64.418 -41.051 3.701 136.84
65.317 -159.670 3.697 0.00
65.317 -157.516 3.695 0.00
65.317 -155.363 3.697 0.00
65.317 -153.209 3.707 40.96
65.317 -151.055 3.716 147.85
65.317 -148.902 3.729 235.01
65.317 -146.748 3.739 271.73
65.317 -144.595 3.729 295.69
65.317 -142.441 3.722 140.87
65.317 -140.287 3.727 0.00
65.317 -138.134 3.727 70.93
65.317 -135.980 3.707 53.95
65.317 -133.826 3.690 71.93
65.317 -131.673 3.712 253.75
65.317 -129.519 3.769 146.86
65.317 -127.365 3.816 169.81
65.317 -125.212 3.840 138.86
65.317 -123.058 3.820 44.95
65.317 -120.905 3.809 373.62
65.317 -118.751 3.792 430.55
65.317 -116.597 3.789 230.76
65.317 -114.444 3.826 286.72
65.317 -112.290 3.860 429.55
65.317 -110.136 3.870 560.40
65.317 -107.983 3.850 1161.79
65.317 -105.829 3.799 920.06
65.317 -103.675 3.805 557.42
65.317 -101.522 3.857 411.60
65.317 -99.368 3.910 672.28
65.317 -97.215 3.910 685.32
65.317 -95.061 3.900 486.49
65.317 -92.907 3.837 541.41
65.317 -90.754 3.761 584.95
65.317 -88.600 3.781 140.84
65.317 -86.446 3.747 72.93
65.317 -84.293 3.724 0.00
65.317 -82.139 3.740 0.00
65.317 -79.985 3.766 101.89
65.317 -77.832 3.799 0.00
65.317 -75.678 3.851 165.83
65.317 -73.525 3.853 235.78
65.317 -71.371 3.831 99.90
65.317 -69.217 3.822 310.68
65.317 -67.064 3.820 191.81
65.317 -64.910 3.761 5.00
65.317 -62.756 3.707 97.92
65.317 -60.603 3.690 0.00
65.317 -58.449 3.693 0.00
65.317 -56.295 3.693 0.00
65.317 -54.142 3.693 0.00
65.317 -51.988 3.695 0.00
65.317 -49.835 3.695 0.00
65.317 -47.681 3.696 0.00
65.317 -45.527 3.695 0.00
65.317 -43.374 3.695 0.00
65.317 -41.220 3.696 0.00
65.317 -39.066 3.695 0.00
66.216 -161.810 3.692 0.00
66.216 -159.580 3.690 0.00
66.216 -157.350 3.692 0.00
66.216 -155.120 3.698 0.00
66.216 -152.890 3.704 0.00
66.216 -150.660 3.715 89.91
66.216 -148.430 3.729 198.79
66.216 -146.200 3.737 462.50
66.216 -143.970 3.740 191.81
66.216 -141.740 3.742 173.84
66.216 -139.510 3.739 45.96
66.216 -137.279 3.724 38.96
