41.934 -82.443 3.764 15959.82
41.934 -81.234 3.696 18043.67
41.934 -80.025 3.696 17712.21
41.934 -78.816 3.626 16525.59
41.934 -77.607 3.549 12593.33
41.934 -76.398 3.642 9867.48
41.934 -75.189 3.794 6113.96
41.934 -73.980 3.859 4941.12
41.934 -72.771 3.807 2970.93
41.934 -71.562 3.730 816.96
41.934 -70.353 3.683 121.38
41.934 -69.145 3.668 0.00
41.934 -67.936 3.666 0.00
41.934 -66.727 3.666 0.00
41.934 -65.518 3.682 0.00
42.833 -133.707 3.729 0.00
42.833 -132.481 3.741 35.97
42.833 -131.254 3.766 126.88
42.833 -130.028 3.775 0.00
42.833 -128.802 3.778 7.99
42.833 -127.575 3.747 305.70
42.833 -126.349 3.630 10864.63
42.833 -125.122 3.449 16104.21
42.833 -123.896 3.440 11242.37
42.833 -122.670 3.507 22002.59
42.833 -121.443 3.495 25168.98
42.833 -120.217 3.489 27869.87
42.833 -118.990 3.528 31372.91
42.833 -117.764 3.508 35511.42
42.833 -116.538 3.494 43823.32
42.833 -115.311 3.489 41915.32
42.833 -114.085 3.519 45379.33
42.833 -112.858 3.464 47252.63
42.833 -111.632 3.422 52660.12
42.833 -110.406 3.465 49576.17
42.833 -109.179 3.524 48539.10
42.833 -107.953 3.552 40387.72
42.833 -106.727 3.606 38359.27
42.833 -105.500 3.601 34972.40
42.833 -104.274 3.527 34838.71
42.833 -103.047 3.516 30753.25
42.833 -101.821 3.631 29086.70
42.833 -100.595 3.713 29459.32
42.833 -99.368 3.726 30063.13
42.833 -98.142 3.650 34168.83
42.833 -96.915 3.654 36491.50
42.833 -95.689 3.719 32299.14
42.833 -94.463 3.700 31694.65
42.833 -93.236 3.672 27148.13
42.833 -92.010 3.731 23507.92
42.833 -90.783 3.757 28827.76
42.833 -89.557 3.814 18636.65
42.833 -88.331 3.863 17857.60
42.833 -87.104 3.840 14951.16
42.833 -85.878 3.813 13270.91
42.833 -84.652 3.767 13813.33
42.833 -83.425 3.758 13274.90
42.833 -82.199 3.774 14705.55
42.833 -80.972 3.766 14395.75
42.833 -79.746 3.738 13724.81
42.833 -78.520 3.688 15068.36
42.833 -77.293 3.589 12375.67
42.833 -76.067 3.644 9355.08
42.833 -74.840 3.742 8185.52
42.833 -73.614 3.799 6976.35
42.833 -72.388 3.826 6471.12
42.833 -71.161 3.786 1660.01
42.833 -69.935 3.732 45.95
42.833 -68.708 3.695 0.00
42.833 -67.482 3.674 0.00
42.833 -66.256 3.665 0.00
42.833 -65.029 3.695 0.00
43.732 -134.219 3.772 22.98
43.732 -132.974 3.778 143.87
43.732 -131.729 3.755 0.00
43.732 -130.485 3.778 0.00
43.732 -129.240 3.775 283.72
43.732 -127.995 3.553 199.81
43.732 -126.751 3.208 45190.67
43.732 -125.506 3.092 24614.66
43.732 -124.261 3.200 16480.32
43.732 -123.017 3.342 17600.57
43.732 -121.772 3.323 22198.55
43.732 -120.527 3.327 25667.84
43.732 -119.283 3.391 27849.28
43.732 -118.038 3.488 31833.40
43.732 -116.793 3.560 37735.16
43.732 -115.549 3.565 33782.73
43.732 -114.304 3.542 36532.07
43.732 -113.059 3.446 31781.20
43.732 -111.815 3.374 35628.97
43.732 -110.570 3.370 41752.78
43.732 -109.325 3.427 35676.91
43.732 -108.081 3.621 35628.54
43.732 -106.836 3.776 35110.26
43.732 -105.591 3.787 31253.35
43.732 -104.347 3.645 32198.51
43.732 -103.102 3.583 30830.51
43.732 -101.858 3.689 28808.59
43.732 -100.613 3.810 29987.14
43.732 -99.368 3.802 33642.25
43.732 -98.124 3.683 33216.25
43.732 -96.879 3.670 36913.20
43.732 -95.634 3.686 32917.07
43.732 -94.390 3.667 28140.18
43.732 -93.145 3.710 25857.19
43.732 -91.900 3.762 24305.63
43.732 -90.656 3.749 27288.70
43.732 -89.411 3.790 20435.43
43.732 -88.166 3.861 17340.93
43.732 -86.922 3.846 15428.28
43.732 -85.677 3.850 13384.69
43.732 -84.432 3.881 9672.00
43.732 -83.188 3.873 11033.17
43.732 -81.943 3.881 10473.58
43.732 -80.698 3.849 12927.86
43.732 -79.454 3.774 13173.43
43.732 -78.209 3.727 15229.58
43.732 -76.964 3.651 12737.03
43.732 -75.720 3.772 8905.43
43.732 -74.475 3.854 10416.79
43.732 -73.230 3.829 6202.06
43.732 -71.986 3.847 4059.94
43.732 -70.741 3.840 2611.95
43.732 -69.496 3.806 365.60
43.732 -68.252 3.753 144.86
43.732 -67.007 3.713 115.89
43.732 -65.763 3.698 0.00
43.732 -64.518 3.726 0.00
44.632 -134.754 3.803 171.84
44.632 -133.490 3.783 0.00
44.632 -132.227 3.774 0.00
44.632 -130.963 3.835 215.79
44.632 -129.699 3.835 194.81
44.632 -128.435 3.585 310.72
44.632 -127.172 3.165 2990.52
44.632 -125.908 3.044 10155.02
44.632 -124.644 3.142 12157.19
44.632 -123.380 3.331 17806.26
44.632 -122.116 3.391 18953.67
44.632 -120.853 3.416 20206.69
44.632 -119.589 3.504 23390.70
44.632 -118.325 3.600 31674.71
44.632 -117.061 3.623 33678.84
44.632 -115.797 3.644 29584.41
44.632 -114.534 3.648 29222.64
44.632 -113.270 3.505 28545.84
44.632 -112.006 3.391 27347.21
44.632 -110.742 3.261 32578.69
44.632 -109.479 3.400 28193.04
44.632 -108.215 3.660 25515.71
44.632 -106.951 3.782 27537.41
44.632 -105.687 3.781 26625.54
44.632 -104.423 3.669 24480.89
44.632 -103.160 3.580 24400.02
44.632 -101.896 3.643 25329.31
44.632 -100.632 3.779 24614.58
44.632 -99.368 3.875 25562.30
44.632 -98.104 3.798 25214.71
44.632 -96.841 3.698 28960.54
44.632 -95.577 3.637 26333.79
44.632 -94.313 3.662 24909.61
44.632 -93.049 3.705 21238.24
44.632 -91.785 3.762 22760.31
44.632 -90.522 3.818 19589.01
44.632 -89.258 3.802 22978.85
44.632 -87.994 3.865 15385.13
44.632 -86.730 3.855 15107.58
44.632 -85.467 3.867 13318.31
44.632 -84.203 3.911 11420.26
44.632 -82.939 3.947 9374.10
44.632 -81.675 3.916 10029.46
44.632 -80.411 3.849 10332.20
44.632 -79.148 3.742 13664.81
44.632 -77.884 3.660 17746.74
44.632 -76.620 3.645 13543.36
44.632 -75.356 3.835 11108.40
44.632 -74.092 3.889 9014.41
44.632 -72.829 3.796 4191.18
44.632 -71.565 3.786 2834.50
44.632 -70.301 3.809 2152.46
44.632 -69.037 3.805 1312.80
44.632 -67.773 3.783 985.64
44.632 -66.510 3.767 127.88
44.632 -65.246 3.774 228.79
44.632 -63.982 3.790 197.98
45.531 -135.316 3.819 161.85
45.531 -134.032 3.794 0.00
45.531 -132.748 3.795 148.86
45.531 -131.464 3.887 211.79
45.531 -130.180 3.960 166.85
45.531 -128.897 3.788 338.68
45.531 -127.613 3.472 1324.33
45.531 -126.329 3.411 2254.45
45.531 -125.045 3.384 3850.83
45.531 -123.761 3.392 10157.41
45.531 -122.477 3.417 14391.00
45.531 -121.193 3.478 17743.38
45.531 -119.910 3.564 22500.65
45.531 -118.626 3.683 31418.73
45.531 -117.342 3.694 28518.18
45.531 -116.058 3.655 23728.73
45.531 -114.774 3.686 25530.97
45.531 -113.490 3.637 24278.02
45.531 -112.207 3.547 29285.14
45.531 -110.923 3.476 25166.14
45.531 -109.639 3.596 21261.76
45.531 -108.355 3.829 20530.32
45.531 -107.071 3.886 22481.05
45.531 -105.787 3.794 23658.14
45.531 -104.504 3.683 20127.49
45.531 -103.220 3.635 18809.50
45.531 -101.936 3.670 20685.00
45.531 -100.652 3.804 21811.67
45.531 -99.368 3.965 21411.16
45.531 -98.084 3.981 22292.54
45.531 -96.801 3.873 25580.72
45.531 -95.517 3.777 22890.38
45.531 -94.233 3.721 21165.28
45.531 -92.949 3.669 18000.04
45.531 -91.665 3.712 16953.81
45.531 -90.381 3.809 15251.73
45.531 -89.097 3.846 15101.12
45.531 -87.814 3.846 12047.70
45.531 -86.530 3.794 11098.95
45.531 -85.246 3.823 10254.62
45.531 -83.962 3.919 7991.35
45.531 -82.678 3.966 9159.13
45.531 -81.394 3.939 8955.31
45.531 -80.111 3.878 9263.53
45.531 -78.827 3.755 9426.55
45.531 -77.543 3.579 14683.92
45.531 -76.259 3.559 17541.28
45.531 -74.975 3.775 4130.33
45.531 -73.691 3.822 3731.02
45.531 -72.408 3.751 2416.01
45.531 -71.124 3.716 2316.81
45.531 -69.840 3.732 2499.91
45.531 -68.556 3.751 589.17
45.531 -67.272 3.767 957.42
45.531 -65.988 3.812 876.30
45.531 -64.705 3.846 373.34
45.531 -63.421 3.855 424.58
46.431 -135.904 3.819 346.90
46.431 -134.600 3.809 103.64
46.431 -133.295 3.818 234.78
46.431 -131.990 3.867 152.86
46.431 -130.685 3.950 196.81
46.431 -129.380 3.927 328.67
46.431 -128.075 3.834 1281.66
46.431 -126.770 3.886 1608.20
46.431 -125.466 3.699 3340.01
46.431 -124.161 3.488 6072.65
46.431 -122.856 3.463 10840.04
46.431 -121.551 3.481 17371.23
46.431 -120.246 3.571 22601.09
46.431 -118.941 3.741 26496.61
46.431 -117.636 3.722 20781.36
46.431 -116.331 3.648 18901.05
46.431 -115.027 3.682 21599.54
46.431 -113.722 3.661 24530.49
46.431 -112.417 3.656 21817.38
46.431 -111.112 3.691 14695.93
46.431 -109.807 3.782 16458.48
46.431 -108.502 3.860 17591.75
46.431 -107.197 3.802 18787.05
46.431 -105.893 3.734 23626.37
46.431 -104.588 3.663 17299.83
46.431 -103.283 3.593 16334.50
46.431 -101.978 3.585 15762.23
46.431 -100.673 3.682 14583.73
46.431 -99.368 3.850 15676.52
46.431 -98.063 3.960 17542.57
46.431 -96.758 3.978 19155.38
46.431 -95.454 3.872 20024.11
46.431 -94.149 3.773 17374.28
46.431 -92.844 3.716 15470.12
46.431 -91.539 3.737 11519.32
46.431 -90.234 3.779 10930.25
46.431 -88.929 3.829 10421.78
46.431 -87.624 3.816 6116.91
46.431 -86.320 3.764 7203.31
46.431 -85.015 3.784 6022.29
46.431 -83.710 3.886 4833.12
46.431 -82.405 3.906 4349.25
46.431 -81.100 3.898 5091.70
46.431 -79.795 3.888 4552.72
46.431 -78.490 3.826 4120.41
46.431 -77.185 3.732 3360.32
46.431 -75.881 3.715 3257.12
46.431 -74.576 3.826 2418.62
46.431 -73.271 3.850 2359.95
46.431 -71.966 3.800 1554.68
46.431 -70.661 3.754 1539.62
46.431 -69.356 3.769 1078.92
46.431 -68.051 3.794 454.52
46.431 -66.747 3.834 403.55
46.431 -65.442 3.879 457.54
46.431 -64.137 3.882 573.40
46.431 -62.832 3.846 223.74
47.330 -136.522 3.828 283.68
47.330 -135.195 3.829 404.60
47.330 -133.868 3.858 144.86
47.330 -132.541 3.895 140.87
47.330 -131.214 3.916 159.85
47.330 -129.887 3.923 419.58
47.330 -128.561 3.951 1437.57
47.330 -127.234 4.073 2219.79
47.330 -125.907 3.879 2926.14
47.330 -124.580 3.621 5086.77
47.330 -123.253 3.541 12522.24
47.330 -121.926 3.504 17682.01
47.330 -120.599 3.569 20043.31
47.330 -119.272 3.675 18142.75
47.330 -117.945 3.776 15038.24
47.330 -116.618 3.735 16417.92
47.330 -115.291 3.677 18425.66
47.330 -113.964 3.607 17027.87
47.330 -112.637 3.632 16777.82
47.330 -111.311 3.676 13271.71
47.330 -109.984 3.735 13785.71
47.330 -108.657 3.772 14202.40
47.330 -107.330 3.699 14932.55
47.330 -106.003 3.666 15915.72
47.330 -104.676 3.597 16141.36
47.330 -103.349 3.529 13038.04
47.330 -102.022 3.530 14004.32
47.330 -100.695 3.602 13593.38
47.330 -99.368 3.727 14293.96
47.330 -98.041 3.929 15431.11
47.330 -96.714 4.032 14023.47
47.330 -95.387 3.944 12418.59
47.330 -94.061 3.853 10175.65
47.330 -92.734 3.779 8286.84
47.330 -91.407 3.721 6407.51
47.330 -90.080 3.757 6500.95
47.330 -88.753 3.827 7577.58
47.330 -87.426 3.795 5747.52
47.330 -86.099 3.732 4958.96
47.330 -84.772 3.763 3749.13
47.330 -83.445 3.870 3538.71
47.330 -82.118 3.883 3346.46
47.330 -80.791 3.875 3798.00
47.330 -79.464 3.912 3644.44
47.330 -78.137 3.956 3005.46
47.330 -76.811 3.915 2298.18
47.330 -75.484 3.888 1729.30
47.330 -74.157 3.910 2097.90
47.330 -72.830 3.883 1689.10
47.330 -71.503 3.825 1828.95
47.330 -70.176 3.779 1277.87
47.330 -68.849 3.782 322.66
47.330 -67.522 3.816 459.64
47.330 -66.195 3.858 565.61
47.330 -64.868 3.862 477.57
47.330 -63.541 3.816 291.71
47.330 -62.214 3.815 358.62
48.229 -137.170 3.897 477.56
48.229 -135.820 3.893 203.82
48.229 -134.470 3.919 333.67
48.229 -133.120 3.936 450.56
48.229 -131.770 3.916 398.60
48.229 -130.420 3.897 970.01
48.229 -129.070 3.910 1802.83
48.229 -127.720 4.044 1985.49
48.229 -126.370 3.915 3115.63
48.229 -125.020 3.704 6682.07
48.229 -123.670 3.613 16407.15
48.229 -122.320 3.591 16656.36
48.229 -120.969 3.547 16388.19
48.229 -119.619 3.641 12805.44
48.229 -118.269 3.748 13043.07
48.229 -116.919 3.691 14925.71
48.229 -115.569 3.621 13125.34
48.229 -114.219 3.571 12760.41
48.229 -112.869 3.586 12511.67
48.229 -111.519 3.607 9037.47
48.229 -110.169 3.613 10528.74
48.229 -108.819 3.655 11118.87
48.229 -107.469 3.669 13466.02
48.229 -106.119 3.702 10775.47
48.229 -104.769 3.654 16545.26
48.229 -103.418 3.610 12652.43
48.229 -102.068 3.553 11756.70
48.229 -100.718 3.572 12198.86
48.229 -99.368 3.689 11623.26
48.229 -98.018 3.817 8915.37
48.229 -96.668 3.893 9805.13
48.229 -95.318 3.902 8230.44
48.229 -93.968 3.907 5556.16
48.229 -92.618 3.887 4762.71
48.229 -91.268 3.844 4112.94
48.229 -89.918 3.871 3207.80
48.229 -88.568 3.921 4142.74
48.229 -87.217 3.901 2914.96
48.229 -85.867 3.803 2416.33
48.229 -84.517 3.796 2334.58
48.229 -83.167 3.883 2047.83
48.229 -81.817 3.912 2341.30
48.229 -80.467 3.905 2306.73
48.229 -79.117 3.933 2353.66
48.229 -77.767 3.963 2610.07
48.229 -76.417 3.942 1753.51
48.229 -75.067 3.895 1180.59
48.229 -73.717 3.881 1332.24
48.229 -72.367 3.824 979.00
48.229 -71.017 3.792 636.36
48.229 -69.666 3.788 185.81
48.229 -68.316 3.816 82.90
48.229 -66.966 3.840 424.57
48.229 -65.616 3.824 389.62
48.229 -64.266 3.777 368.63
48.229 -62.916 3.752 226.76
48.229 -61.566 3.826 228.76
49.129 -137.851 4.035 576.42
49.129 -136.477 4.036 167.83
49.129 -135.103 3.988 302.70
49.129 -133.728 3.926 405.59
49.129 -132.354 3.905 672.32
49.129 -130.979 3.928 889.05
49.129 -129.605 3.864 1067.56
49.129 -128.231 3.912 2666.60
49.129 -126.856 3.855 4506.72
49.129 -125.482 3.713 14932.93
49.129 -124.107 3.674 18340.91
49.129 -122.733 3.572 14079.61
49.129 -121.359 3.524 12512.90
49.129 -119.984 3.551 13064.62
49.129 -118.610 3.603 10534.30
49.129 -117.235 3.621 9728.36
49.129 -115.861 3.583 7578.56
49.129 -114.487 3.601 8694.49
49.129 -113.112 3.587 9606.43
49.129 -111.738 3.618 7970.08
49.129 -110.363 3.614 7666.36
49.129 -108.989 3.625 8490.58
49.129 -107.615 3.691 9208.72
49.129 -106.240 3.756 9941.36
49.129 -104.866 3.753 11868.20
49.129 -103.491 3.685 13617.46
49.129 -102.117 3.618 11046.05
49.129 -100.743 3.659 10792.77
49.129 -99.368 3.730 8856.51
49.129 -97.994 3.794 7335.83
49.129 -96.619 3.822 6191.81
49.129 -95.245 3.817 4724.20
49.129 -93.871 3.849 2543.83
49.129 -92.496 3.836 2076.53
49.129 -91.122 3.825 2549.07
49.129 -89.747 3.853 3338.21
49.129 -88.373 3.922 3602.83
49.129 -86.999 3.967 2928.27
49.129 -85.624 3.926 3020.31
49.129 -84.250 3.905 2566.49
49.129 -82.875 3.952 2385.55
49.129 -81.501 3.965 1759.18
49.129 -80.127 3.927 2374.53
49.129 -78.752 3.912 2218.73
49.129 -77.378 3.893 874.50
49.129 -76.003 3.865 977.09
49.129 -74.629 3.822 537.91
49.129 -73.255 3.792 771.16
49.129 -71.880 3.754 517.51
49.129 -70.506 3.775 326.64
49.129 -69.131 3.828 364.65
49.129 -67.757 3.859 575.68
49.129 -66.383 3.820 234.78
49.129 -65.008 3.769 144.87
49.129 -63.634 3.744 79.93
49.129 -62.259 3.776 140.84
49.129 -60.885 3.912 466.54
50.028 -138.567 4.141 625.39
50.028 -137.167 4.130 785.48
50.028 -135.767 3.957 574.42
50.028 -134.367 3.863 526.44
50.028 -132.967 3.899 277.74
50.028 -131.567 3.914 704.23
50.028 -130.167 3.764 1123.78
50.028 -128.767 3.745 3966.95
50.028 -127.368 3.744 15820.59
50.028 -125.968 3.668 19285.74
50.028 -124.568 3.550 16751.93
50.028 -123.168 3.521 13648.54
50.028 -121.768 3.490 13062.64
50.028 -120.368 3.495 10557.29
50.028 -118.968 3.519 9039.05
50.028 -117.568 3.549 9387.93
50.028 -116.168 3.574 7491.44
50.028 -114.768 3.715 8374.71
50.028 -113.368 3.755 7707.73
50.028 -111.968 3.771 7503.57
50.028 -110.568 3.739 6507.15
50.028 -109.168 3.618 8491.76
50.028 -107.768 3.603 8169.83
50.028 -106.368 3.701 8610.58
50.028 -104.968 3.702 9678.14
50.028 -103.568 3.675 14286.24
50.028 -102.168 3.679 10103.46
50.028 -100.768 3.732 8905.87
50.028 -99.368 3.837 6319.28
50.028 -97.968 3.893 5284.85
50.028 -96.568 3.903 6887.08
50.028 -95.168 3.867 3098.23
50.028 -93.768 3.848 2163.51
50.028 -92.368 3.814 1842.06
50.028 -90.968 3.779 2843.04
50.028 -89.568 3.827 2895.07
50.028 -88.168 3.897 2697.20
50.028 -86.769 3.942 1568.35
50.028 -85.369 3.918 1831.16
50.028 -83.969 3.919 1794.14
50.028 -82.569 3.934 1975.95
50.028 -81.169 3.910 2241.13
50.028 -79.769 3.879 1612.61
50.028 -78.369 3.861 1048.35
50.028 -76.969 3.858 751.39
50.028 -75.569 3.831 910.94
50.028 -74.169 3.815 1165.43
50.028 -72.769 3.791 299.68
50.028 -71.369 3.776 437.57
50.028 -69.969 3.823 498.44
50.028 -68.569 3.867 389.63
50.028 -67.169 3.843 393.62
50.028 -65.769 3.800 72.93
50.028 -64.369 3.783 127.88
50.028 -62.969 3.812 163.84
50.028 -61.569 3.877 525.50
50.028 -60.169 3.981 151.86
50.927 -139.320 4.117 993.06
50.927 -137.893 4.083 848.19
50.927 -136.466 3.897 350.64
50.927 -135.040 3.845 2.00
50.927 -133.613 3.897 461.53
50.927 -132.186 3.825 587.37
50.927 -130.759 3.627 1848.29
50.927 -129.332 3.658 20038.85
50.927 -127.905 3.711 26808.95
50.927 -126.478 3.621 18223.52
50.927 -125.052 3.529 17138.93
50.927 -123.625 3.545 13374.74
50.927 -122.198 3.563 11524.87
50.927 -120.771 3.549 9787.02
50.927 -119.344 3.548 9900.69
50.927 -117.917 3.576 9447.42
50.927 -116.490 3.644 7181.93
50.927 -115.064 3.814 7075.59
50.927 -113.637 3.876 6493.55
50.927 -112.210 3.882 7032.76
50.927 -110.783 3.800 5963.90
50.927 -109.356 3.624 6447.54
50.927 -107.929 3.559 7794.32
50.927 -106.502 3.629 9057.46
50.927 -105.076 3.660 11193.28
50.927 -103.649 3.708 12836.60
50.927 -102.222 3.787 11731.03
50.927 -100.795 3.832 7540.25
50.927 -99.368 3.938 5405.40
50.927 -97.941 3.999 4030.03
50.927 -96.514 3.987 3170.72
50.927 -95.088 3.914 2349.61
50.927 -93.661 3.875 2239.60
50.927 -92.234 3.814 2540.34
50.927 -90.807 3.789 3165.77
50.927 -89.380 3.873 2294.90
50.927 -87.953 3.931 1455.56
50.927 -86.526 3.920 1924.96
50.927 -85.100 3.839 2274.68
50.927 -83.673 3.826 1367.61
50.927 -82.246 3.839 1927.98
50.927 -80.819 3.834 1828.08
50.927 -79.392 3.835 717.27
50.927 -77.965 3.860 687.50
50.927 -76.538 3.877 604.25
50.927 -75.112 3.868 681.23
50.927 -73.685 3.888 983.92
50.927 -72.258 3.871 349.65
50.927 -70.831 3.838 535.45
50.927 -69.404 3.835 325.70
50.927 -67.977 3.847 351.67
50.927 -66.550 3.838 198.80
50.927 -65.124 3.841 259.76
50.927 -63.697 3.873 306.71
50.927 -62.270 3.904 479.53
50.927 -60.843 3.919 320.70
50.927 -59.416 3.971 749.30
51.827 -140.113 4.043 1076.00
51.827 -138.658 4.004 218.79
51.827 -137.203 3.853 21.97
51.827 -135.747 3.853 155.82
51.827 -134.292 3.903 682.31
51.827 -132.837 3.751 518.47
51.827 -131.382 3.561 29597.96
51.827 -129.927 3.701 42695.36
51.827 -128.472 3.764 21828.96
51.827 -127.016 3.697 16689.91
51.827 -125.561 3.667 13566.05
51.827 -124.106 3.684 11875.61
51.827 -122.651 3.761 9894.85
51.827 -121.196 3.756 7733.83
51.827 -119.741 3.713 6869.36
51.827 -118.285 3.698 6368.41
51.827 -116.830 3.703 5409.68
51.827 -115.375 3.788 5068.07
51.827 -113.920 3.858 4729.33
51.827 -112.465 3.881 5950.23
51.827 -111.010 3.814 6722.30
51.827 -109.554 3.702 6679.98
51.827 -108.099 3.650 7883.64
51.827 -106.644 3.706 11140.45
51.827 -105.189 3.782 11620.86
51.827 -103.734 3.843 11259.39
51.827 -102.279 3.884 12403.34
51.827 -100.823 3.882 7264.52
51.827 -99.368 3.955 4569.22
51.827 -97.913 3.953 3591.31
51.827 -96.458 3.918 2006.99
51.827 -95.003 3.875 2679.25
51.827 -93.548 3.869 2429.50
51.827 -92.092 3.852 2021.95
51.827 -90.637 3.848 2684.78
51.827 -89.182 3.936 1962.87
51.827 -87.727 3.949 2093.78
51.827 -86.272 3.900 2049.84
51.827 -84.817 3.807 1899.13
51.827 -83.361 3.788 1684.34
51.827 -81.906 3.778 1584.66
51.827 -80.451 3.789 1133.80
51.827 -78.996 3.879 995.22
51.827 -77.541 3.959 914.29
51.827 -76.085 3.969 761.80
51.827 -74.630 3.996 848.16
51.827 -73.175 4.003 1053.87
51.827 -71.720 3.939 607.42
51.827 -70.265 3.870 545.45
51.827 -68.810 3.842 289.75
51.827 -67.354 3.851 200.79
51.827 -65.899 3.866 194.82
51.827 -64.444 3.893 637.41
51.827 -62.989 3.910 673.35
51.827 -61.534 3.912 546.49
51.827 -60.079 3.916 703.35
51.827 -58.623 3.941 361.66
52.726 -140.948 4.004 432.60
52.726 -139.463 3.955 91.89
52.726 -137.978 3.854 135.84
52.726 -136.493 3.892 418.60
52.726 -135.008 3.898 733.29
52.726 -133.523 3.763 582.42
52.726 -132.038 3.679 4280.31
52.726 -130.553 3.761 10547.81
52.726 -129.068 3.724 8765.66
52.726 -127.583 3.667 8169.35
52.726 -126.098 3.679 7581.63
52.726 -124.613 3.720 8041.83
52.726 -123.128 3.781 6280.38
52.726 -121.643 3.758 5996.25
52.726 -120.158 3.728 5560.44
52.726 -118.673 3.728 5774.24
52.726 -117.188 3.734 5571.40
52.726 -115.703 3.784 4792.19
52.726 -114.218 3.873 3951.14
52.726 -112.733 3.929 6734.44
52.726 -111.248 3.946 7179.05
52.726 -109.763 3.893 6933.82
52.726 -108.278 3.853 8871.82
52.726 -106.793 3.817 11491.02
52.726 -105.308 3.822 11376.12
52.726 -103.823 3.835 11335.27
52.726 -102.338 3.855 10907.77
52.726 -100.853 3.874 8623.16
52.726 -99.368 3.881 4124.73
52.726 -97.883 3.871 2192.79
52.726 -96.398 3.838 1960.94
52.726 -94.913 3.836 2638.30
52.726 -93.428 3.849 1964.96
52.726 -91.943 3.887 2004.91
52.726 -90.458 3.884 2127.36
52.726 -88.973 3.926 1852.00
52.726 -87.488 3.898 1911.07
52.726 -86.003 3.865 1939.98
52.726 -84.518 3.791 1861.25
52.726 -83.033 3.774 1094.90
52.726 -81.548 3.757 828.09
52.726 -80.063 3.784 1277.66
52.726 -78.578 3.884 1421.49
52.726 -77.093 3.963 1003.28
52.726 -75.608 3.988 1039.41
52.726 -74.123 3.999 1177.74
52.726 -72.638 3.989 808.23
52.726 -71.153 3.959 1037.98
52.726 -69.668 3.928 507.51
52.726 -68.183 3.899 563.48
52.726 -66.698 3.901 534.49
52.726 -65.213 3.916 826.23
52.726 -63.728 3.922 533.50
52.726 -62.243 3.922 530.48
52.726 -60.758 3.914 456.57
52.726 -59.273 3.911 36.97
52.726 -57.788 3.939 332.70
53.625 -141.829 3.957 586.42
53.625 -140.313 3.927 174.83
53.625 -138.796 3.871 382.65
53.625 -137.280 3.888 491.51
53.625 -135.763 3.844 184.80
53.625 -134.247 3.813 472.84
53.625 -132.730 3.925 1107.00
53.625 -131.214 3.977 2764.35
53.625 -129.697 3.829 3404.36
53.625 -128.181 3.727 3702.15
53.625 -126.665 3.743 3968.68
53.625 -125.148 3.778 4701.76
53.625 -123.632 3.769 3599.16
53.625 -122.115 3.707 3796.38
53.625 -120.599 3.679 4044.13
53.625 -119.082 3.706 4113.98
53.625 -117.566 3.756 5210.77
53.625 -116.049 3.824 4002.90
53.625 -114.533 3.887 4595.22
53.625 -113.016 3.933 5921.14
53.625 -111.500 3.999 7665.92
53.625 -109.983 4.025 8463.36
53.625 -108.467 3.962 10412.10
53.625 -106.951 3.804 11383.10
53.625 -105.434 3.755 11280.40
53.625 -103.918 3.764 8857.89
53.625 -102.401 3.790 8689.06
53.625 -100.885 3.822 9398.35
53.625 -99.368 3.821 3736.04
53.625 -97.852 3.824 2467.36
53.625 -96.335 3.830 2188.67
53.625 -94.819 3.843 1814.15
53.625 -93.302 3.856 1622.33
53.625 -91.786 3.887 1577.39
53.625 -90.269 3.829 1883.23
53.625 -88.753 3.848 1923.36
53.625 -87.237 3.822 1840.19
53.625 -85.720 3.815 1937.98
53.625 -84.204 3.777 1123.86
53.625 -82.687 3.768 698.30
53.625 -81.171 3.761 1030.88
53.625 -79.654 3.775 1014.24
53.625 -78.138 3.816 1012.45
53.625 -76.621 3.838 1005.38
53.625 -75.105 3.849 1276.76
53.625 -73.588 3.901 1658.76
53.625 -72.072 3.949 963.05
53.625 -70.555 4.006 832.17
53.625 -69.039 4.047 720.28
53.625 -67.523 4.026 942.10
53.625 -66.006 3.974 681.37
53.625 -64.490 3.929 441.59
53.625 -62.973 3.912 423.57
53.625 -61.457 3.902 267.75
53.625 -59.940 3.894 110.90
53.625 -58.424 3.903 435.59
53.625 -56.907 3.901 265.72
54.525 -142.759 3.898 258.74
54.525 -141.209 3.885 317.70
54.525 -139.660 3.848 157.84
54.525 -138.110 3.814 315.70
54.525 -136.560 3.774 217.74
54.525 -135.011 3.840 452.71
54.525 -133.461 4.088 1077.60
54.525 -131.911 4.074 2525.58
54.525 -130.362 3.929 3081.86
54.525 -128.812 3.780 3489.41
54.525 -127.262 3.767 3540.59
54.525 -125.713 3.798 3844.16
54.525 -124.163 3.779 3204.13
54.525 -122.613 3.722 3282.78
54.525 -121.064 3.721 2863.22
54.525 -119.514 3.810 3289.83
54.525 -117.964 3.858 4272.75
54.525 -116.415 3.883 3702.30
54.525 -114.865 3.912 4992.01
54.525 -113.315 3.919 6021.92
54.525 -111.766 3.974 8132.81
54.525 -110.216 3.996 10182.47
54.525 -108.666 3.923 11183.18
54.525 -107.117 3.774 11820.72
54.525 -105.567 3.724 8727.99
54.525 -104.017 3.777 6563.17
54.525 -102.468 3.782 7392.22
54.525 -100.918 3.782 7343.40
54.525 -99.368 3.800 4937.94
54.525 -97.819 3.839 3136.61
54.525 -96.269 3.868 1643.25
54.525 -94.719 3.864 1925.09
54.525 -93.170 3.825 1512.46
54.525 -91.620 3.824 1135.37
54.525 -90.070 3.771 2580.36
54.525 -88.520 3.790 1882.10
54.525 -86.971 3.779 1851.13
54.525 -85.421 3.776 1043.67
54.525 -83.871 3.770 862.11
54.525 -82.322 3.764 482.50
54.525 -80.772 3.742 967.51
54.525 -79.222 3.744 1078.27
54.525 -77.673 3.758 716.50
54.525 -76.123 3.781 815.18
54.525 -74.573 3.797 1019.95
54.525 -73.024 3.819 1152.79
54.525 -71.474 3.846 875.11
54.525 -69.924 3.931 812.00
54.525 -68.375 4.018 1479.39
54.525 -66.825 3.989 882.77
54.525 -65.275 3.920 282.73
54.525 -63.726 3.867 327.67
54.525 -62.176 3.835 121.87
54.525 -60.626 3.850 124.86
54.525 -59.077 3.887 416.58
54.525 -57.527 3.886 186.80
54.525 -55.977 3.861 112.89
55.424 -143.742 3.833 495.54
55.424 -142.157 3.817 0.00
55.424 -140.572 3.810 299.68
55.424 -138.988 3.764 226.78
55.424 -137.403 3.770 147.83
55.424 -135.818 3.885 732.68
55.424 -134.233 4.088 897.31
55.424 -132.648 4.028 3018.93
55.424 -131.064 3.876 2575.54
55.424 -129.479 3.737 3134.63
55.424 -127.894 3.716 2976.44
55.424 -126.309 3.729 3513.61
55.424 -124.725 3.707 3786.92
55.424 -123.140 3.672 2888.07
55.424 -121.555 3.745 3453.61
55.424 -119.970 3.888 3892.30
55.424 -118.385 3.919 4537.43
55.424 -116.801 3.868 4790.62
55.424 -115.216 3.891 5580.26
55.424 -113.631 3.885 6073.83
55.424 -112.046 3.921 8777.17
55.424 -110.462 3.912 11702.79
55.424 -108.877 3.862 12115.32
55.424 -107.292 3.790 9347.32
55.424 -105.707 3.796 7859.83
55.424 -104.123 3.854 5136.78
55.424 -102.538 3.827 4897.93
55.424 -100.953 3.767 5747.10
55.424 -99.368 3.748 8615.14
55.424 -97.783 3.806 2371.39
55.424 -96.199 3.869 2113.88
55.424 -94.614 3.849 1228.79
55.424 -93.029 3.780 1501.57
55.424 -91.444 3.777 1253.50
55.424 -89.860 3.745 2981.93
55.424 -88.275 3.757 1180.75
55.424 -86.690 3.778 1430.58
55.424 -85.105 3.788 1042.90
55.424 -83.520 3.785 1121.83
55.424 -81.936 3.757 517.46
55.424 -80.351 3.714 1381.16
55.424 -78.766 3.715 787.02
55.424 -77.181 3.733 736.21
55.424 -75.597 3.749 595.40
55.424 -74.012 3.781 1027.88
55.424 -72.427 3.776 477.51
55.424 -70.842 3.770 723.19
55.424 -69.257 3.817 842.14
55.424 -67.673 3.868 1016.96
55.424 -66.088 3.831 550.46
55.424 -64.503 3.781 470.32
55.424 -62.918 3.746 224.74
55.424 -61.334 3.753 142.44
55.424 -59.749 3.813 248.76
55.424 -58.164 3.862 117.89
55.424 -56.579 3.860 348.67
55.424 -54.995 3.814 293.73
56.324 -144.782 3.778 49.95
56.324 -143.160 3.775 138.85
56.324 -141.538 3.776 169.82
56.324 -139.916 3.768 255.75
56.324 -138.294 3.836 287.70
56.324 -136.672 3.949 1021.46
56.324 -135.050 4.008 1018.79
56.324 -133.428 3.934 2366.67
56.324 -131.806 3.792 2673.39
56.324 -130.184 3.708 2847.76
56.324 -128.563 3.716 2520.86
56.324 -126.941 3.700 2752.01
56.324 -125.319 3.665 4270.50
56.324 -123.697 3.650 3548.53
56.324 -122.075 3.733 3408.58
56.324 -120.453 3.858 3702.27
56.324 -118.831 3.809 4437.83
56.324 -117.209 3.754 4224.59
56.324 -115.587 3.790 6035.84
56.324 -113.965 3.832 8239.51
56.324 -112.343 3.896 11559.10
56.324 -110.722 3.871 13431.92
56.324 -109.100 3.859 10596.10
56.324 -107.478 3.888 8159.49
56.324 -105.856 3.920 5085.87
56.324 -104.234 3.916 5556.25
56.324 -102.612 3.887 4339.47
56.324 -100.990 3.776 5751.02
56.324 -99.368 3.717 6866.95
56.324 -97.746 3.730 5012.93
56.324 -96.124 3.798 1432.54
56.324 -94.502 3.806 1345.97
56.324 -92.881 3.778 2240.81
56.324 -91.259 3.788 1554.42
56.324 -89.637 3.750 1939.97
56.324 -88.015 3.759 1146.86
56.324 -86.393 3.796 1127.86
56.324 -84.771 3.811 637.29
56.324 -83.149 3.795 677.31
56.324 -81.527 3.751 815.05
56.324 -79.905 3.691 1467.06
56.324 -78.283 3.704 779.47
56.324 -76.661 3.739 478.45
56.324 -75.040 3.757 771.34
56.324 -73.418 3.787 1095.78
56.324 -71.796 3.770 595.37
56.324 -70.174 3.767 667.28
56.324 -68.552 3.793 432.54
56.324 -66.930 3.789 762.24
56.324 -65.308 3.714 543.49
56.324 -63.686 3.658 369.64
56.324 -62.064 3.643 118.90
56.324 -60.442 3.661 93.92
56.324 -58.820 3.722 74.93
56.324 -57.199 3.787 426.22
56.324 -55.577 3.770 61.94
56.324 -53.955 3.746 0.00
57.223 -145.883 3.770 0.00
57.223 -144.222 3.777 319.66
57.223 -142.561 3.763 0.00
57.223 -140.899 3.797 363.65
57.223 -139.238 3.895 552.47
57.223 -137.577 3.970 1089.72
57.223 -135.916 3.920 1268.58
57.223 -134.254 3.865 2094.01
57.223 -132.593 3.761 2124.72
57.223 -130.932 3.728 2590.21
57.223 -129.271 3.732 2633.31
57.223 -127.609 3.708 2747.30
57.223 -125.948 3.681 4590.19
57.223 -124.287 3.629 4119.88
57.223 -122.626 3.694 3289.74
57.223 -120.964 3.805 2905.13
57.223 -119.303 3.770 4191.75
57.223 -117.642 3.776 4375.62
57.223 -115.981 3.805 7470.98
57.223 -114.319 3.870 11496.82
57.223 -112.658 3.905 14806.18
57.223 -110.997 3.885 13002.23
57.223 -109.336 3.886 8943.73
57.223 -107.674 3.954 6184.73
57.223 -106.013 3.968 4435.30
57.223 -104.352 3.904 5369.38
57.223 -102.691 3.882 4812.96
57.223 -101.029 3.814 4106.72
57.223 -99.368 3.736 4911.99
57.223 -97.707 3.684 6785.13
57.223 -96.046 3.711 2843.45
57.223 -94.384 3.750 1887.86
57.223 -92.723 3.810 2260.74
57.223 -91.062 3.854 1094.88
57.223 -89.401 3.813 1885.03
57.223 -87.739 3.788 748.23
57.223 -86.078 3.805 956.04
57.223 -84.417 3.809 1155.77
57.223 -82.756 3.802 880.73
57.223 -81.094 3.750 899.39
57.223 -79.433 3.678 1140.42
57.223 -77.772 3.704 826.12
57.223 -76.111 3.746 525.46
57.223 -74.449 3.765 779.21
57.223 -72.788 3.765 787.18
57.223 -71.127 3.749 480.50
57.223 -69.466 3.764 64.93
57.223 -67.805 3.788 475.53
57.223 -66.143 3.757 300.71
57.223 -64.482 3.690 218.78
57.223 -62.821 3.636 267.75
57.223 -61.160 3.603 305.72
57.223 -59.498 3.598 373.66
57.223 -57.837 3.636 100.92
57.223 -56.176 3.671 97.92
57.223 -54.515 3.674 170.20
57.223 -52.853 3.699 9.99
58.122 -147.051 3.799 248.74
58.122 -145.348 3.797 84.91
58.122 -143.645 3.787 107.90
58.122 -141.942 3.836 645.35
58.122 -140.239 3.919 476.59
58.122 -138.537 3.966 1330.72
58.122 -136.834 3.873 1002.98
58.122 -135.131 3.856 2258.76
58.122 -133.428 3.815 2994.99
58.122 -131.725 3.774 2596.28
58.122 -130.022 3.761 3774.27
58.122 -128.319 3.742 2636.59
58.122 -126.616 3.700 4319.19
58.122 -124.913 3.655 3856.07
58.122 -123.210 3.741 2935.21
58.122 -121.507 3.810 4246.83
58.122 -119.804 3.824 3724.24
58.122 -118.101 3.880 5670.25
58.122 -116.398 3.914 9729.04
58.122 -114.695 3.956 16520.90
58.122 -112.992 3.901 14943.46
58.122 -111.289 3.877 10601.02
58.122 -109.586 3.864 5683.51
58.122 -107.883 3.892 4893.51
58.122 -106.180 3.879 5136.90
58.122 -104.477 3.842 4079.00
58.122 -102.774 3.841 4660.47
58.122 -101.071 3.853 4413.63
58.122 -99.368 3.778 4713.07
58.122 -97.665 3.688 6443.00
58.122 -95.962 3.668 4628.19
58.122 -94.259 3.722 2830.18
58.122 -92.556 3.848 1862.15
58.122 -90.853 3.922 1433.45
58.122 -89.150 3.858 1725.14
58.122 -87.447 3.802 1074.85
58.122 -85.744 3.820 1380.60
58.122 -84.041 3.811 1041.93
58.122 -82.339 3.794 542.78
58.122 -80.636 3.719 491.04
58.122 -78.933 3.669 1102.20
58.122 -77.230 3.709 728.25
58.122 -75.527 3.747 830.18
58.122 -73.824 3.751 1110.82
58.122 -72.121 3.723 200.81
58.122 -70.418 3.722 287.68
58.122 -68.715 3.744 191.80
58.122 -67.012 3.753 329.69
58.122 -65.309 3.722 144.86
58.122 -63.606 3.689 176.82
58.122 -61.903 3.669 87.90
58.122 -60.200 3.643 260.77
58.122 -58.497 3.623 179.85
58.122 -56.794 3.612 284.73
58.122 -55.091 3.611 239.78
58.122 -53.388 3.618 136.89
58.122 -51.685 3.669 239.79
59.022 -148.292 3.807 404.58
59.022 -146.545 3.809 86.37
59.022 -144.798 3.818 615.39
59.022 -143.050 3.869 321.66
59.022 -141.303 3.939 1080.55
59.022 -139.556 3.916 885.88
59.022 -137.808 3.828 1274.05
59.022 -136.061 3.875 4339.88
59.022 -134.314 3.832 5446.24
59.022 -132.567 3.817 2845.92
59.022 -130.819 3.791 2574.61
59.022 -129.072 3.767 1919.73
59.022 -127.325 3.724 4224.22
59.022 -125.577 3.720 4407.56
59.022 -123.830 3.807 3261.21
59.022 -122.083 3.801 3997.02
59.022 -120.336 3.839 3340.71
59.022 -118.588 3.896 8149.62
59.022 -116.841 3.910 16042.40
59.022 -115.094 3.867 17984.38
59.022 -113.346 3.862 12433.10
59.022 -111.599 3.871 7078.85
59.022 -109.852 3.851 4639.37
59.022 -108.105 3.792 4126.68
59.022 -106.357 3.802 3773.04
59.022 -104.610 3.814 3567.28
59.022 -102.863 3.820 4200.76
59.022 -101.115 3.863 4275.48
59.022 -99.368 3.799 5216.91
59.022 -97.621 3.709 4489.19
59.022 -95.874 3.675 6037.97
59.022 -94.126 3.747 2179.08
59.022 -92.379 3.871 893.11
59.022 -90.632 3.898 1802.07
59.022 -88.884 3.832 1322.64
59.022 -87.137 3.817 1247.77
59.022 -85.390 3.842 1392.57
59.022 -83.643 3.823 719.88
59.022 -81.895 3.785 352.37
59.022 -80.148 3.702 654.79
59.022 -78.401 3.686 1132.84
59.022 -76.654 3.725 788.17
59.022 -74.906 3.732 635.36
59.022 -73.159 3.725 759.18
59.022 -71.412 3.704 422.57
59.022 -69.664 3.715 76.92
59.022 -67.917 3.735 369.64
59.022 -66.170 3.719 214.79
59.022 -64.423 3.693 104.89
59.022 -62.675 3.681 11.99
59.022 -60.928 3.681 117.90
59.022 -59.181 3.683 124.88
59.022 -57.433 3.676 104.88
59.022 -55.686 3.650 160.87
59.022 -53.939 3.628 145.88
59.022 -52.192 3.619 224.79
59.022 -50.444 3.654 236.78
59.921 -149.612 3.737 922.29
59.921 -147.818 3.746 266.73
59.921 -146.023 3.785 508.47
59.921 -144.229 3.858 590.35
59.921 -142.434 3.907 1168.70
59.921 -140.640 3.832 477.15
59.921 -138.845 3.750 1426.01
59.921 -137.051 3.826 1793.98
59.921 -135.257 3.837 3001.59
59.921 -133.462 3.838 2816.23
59.921 -131.668 3.831 2110.59
59.921 -129.873 3.783 2030.00
59.921 -128.079 3.709 2922.24
59.921 -126.284 3.746 5088.93
59.921 -124.490 3.810 4384.92
59.921 -122.696 3.738 3621.40
59.921 -120.901 3.787 4994.07
59.921 -119.107 3.846 13988.57
59.921 -117.312 3.797 20801.37
59.921 -115.518 3.781 13739.90
59.921 -113.724 3.803 6872.07
59.921 -111.929 3.829 6269.52
59.921 -110.135 3.829 4300.57
59.921 -108.340 3.779 3294.52
59.921 -106.546 3.779 3079.87
59.921 -104.751 3.832 4253.58
59.921 -102.957 3.819 4652.19
59.921 -101.163 3.816 4364.69
59.921 -99.368 3.814 4408.73
59.921 -97.574 3.767 5147.68
59.921 -95.779 3.733 5363.48
59.921 -93.985 3.797 2195.42
59.921 -92.191 3.867 744.94
59.921 -90.396 3.856 1507.42
59.921 -88.602 3.802 1523.45
59.921 -86.807 3.840 1139.82
59.921 -85.013 3.887 1372.62
59.921 -83.218 3.854 936.36
59.921 -81.424 3.767 708.17
59.921 -79.630 3.682 1126.85
59.921 -77.835 3.689 869.11
59.921 -76.041 3.722 486.49
59.921 -74.246 3.721 915.04
59.921 -72.452 3.700 509.48
59.921 -70.657 3.700 225.75
59.921 -68.863 3.723 172.82
59.921 -67.069 3.731 344.67
59.921 -65.274 3.702 120.88
59.921 -63.480 3.677 64.93
59.921 -61.685 3.667 35.97
59.921 -59.891 3.673 65.95
59.921 -58.097 3.686 14.99
59.921 -56.302 3.693 75.93
59.921 -54.508 3.688 92.90
59.921 -52.713 3.674 131.87
59.921 -50.919 3.665 156.88
59.921 -49.124 3.672 300.81
60.820 -151.018 3.652 631.38
60.820 -149.173 3.649 1033.36
60.820 -147.329 3.695 683.67
60.820 -145.484 3.767 1340.69
60.820 -143.639 3.781 1264.14
60.820 -141.795 3.697 843.11
60.820 -139.950 3.665 1030.44
60.820 -138.106 3.740 1046.96
60.820 -136.261 3.795 1466.09
60.820 -134.416 3.821 2053.68
60.820 -132.572 3.807 1513.44
60.820 -130.727 3.748 1757.58
60.820 -128.882 3.653 2125.53
60.820 -127.038 3.735 5852.92
60.820 -125.193 3.796 4213.17
60.820 -123.348 3.680 3931.11
60.820 -121.504 3.716 10532.25
60.820 -119.659 3.748 25072.95
60.820 -117.815 3.776 16123.34
60.820 -115.970 3.761 6571.30
60.820 -114.125 3.752 6286.62
60.820 -112.281 3.773 5012.75
60.820 -110.436 3.819 4587.16
60.820 -108.591 3.849 3497.47
60.820 -106.747 3.840 3548.34
60.820 -104.902 3.825 3350.10
60.820 -103.057 3.819 3559.62
60.820 -101.213 3.799 4902.10
60.820 -99.368 3.833 3851.08
60.820 -97.524 3.802 5074.73
60.820 -95.679 3.784 3904.96
60.820 -93.834 3.826 5389.42
60.820 -91.990 3.864 956.52
60.820 -90.145 3.837 1438.53
60.820 -88.300 3.803 1009.96
60.820 -86.456 3.858 1172.79
60.820 -84.611 3.905 2123.33
60.820 -82.766 3.855 1213.72
60.820 -80.922 3.752 377.62
60.820 -79.077 3.660 1355.88
60.820 -77.233 3.683 823.14
60.820 -75.388 3.705 650.34
60.820 -73.543 3.702 915.02
60.820 -71.699 3.687 297.70
60.820 -69.854 3.711 103.89
60.820 -68.009 3.733 426.59
60.820 -66.165 3.715 175.83
60.820 -64.320 3.687 100.89
60.820 -62.475 3.668 6.99
60.820 -60.631 3.662 94.92
60.820 -58.786 3.670 0.00
60.820 -56.942 3.679 0.00
60.820 -55.097 3.688 0.00
60.820 -53.252 3.696 54.95
60.820 -51.408 3.702 94.90
60.820 -49.563 3.705 111.88
60.820 -47.718 3.693 235.76
61.720 -152.518 3.643 484.52
61.720 -150.620 3.636 188.24
61.720 -148.722 3.628 1590.60
61.720 -146.824 3.637 1956.39
61.720 -144.926 3.615 2015.53
61.720 -143.027 3.584 1495.22
61.720 -141.129 3.599 982.61
61.720 -139.231 3.648 849.21
61.720 -137.333 3.704 1555.01
61.720 -135.434 3.762 1734.12
61.720 -133.536 3.769 1260.44
61.720 -131.638 3.708 2204.92
61.720 -129.740 3.614 2222.47
61.720 -127.842 3.748 6087.58
61.720 -125.943 3.770 4613.12
61.720 -124.045 3.619 6342.74
61.720 -122.147 3.641 30120.82
61.720 -120.249 3.739 20277.17
61.720 -118.350 3.790 6562.32
61.720 -116.452 3.770 5020.77
61.720 -114.554 3.736 4548.29
61.720 -112.656 3.796 4863.94
61.720 -110.758 3.865 5147.81
61.720 -108.859 3.874 3495.84
61.720 -106.961 3.838 2496.64
61.720 -105.063 3.803 2794.14
61.720 -103.165 3.825 3312.60
61.720 -101.266 3.839 4068.91
61.720 -99.368 3.873 4776.16
61.720 -97.470 3.858 4490.45
61.720 -95.572 3.826 4386.48
61.720 -93.674 3.842 4328.64
61.720 -91.775 3.877 2513.71
61.720 -89.877 3.850 1551.64
61.720 -87.979 3.827 962.99
61.720 -86.081 3.873 1030.93
61.720 -84.182 3.901 1134.49
61.720 -82.284 3.834 1082.55
61.720 -80.386 3.738 887.06
61.720 -78.488 3.659 1407.56
61.720 -76.590 3.674 738.22
61.720 -74.691 3.692 722.27
61.720 -72.793 3.695 757.20
61.720 -70.895 3.699 287.70
61.720 -68.997 3.726 246.75
61.720 -67.098 3.725 313.70
61.720 -65.200 3.699 130.87
61.720 -63.302 3.675 13.99
61.720 -61.404 3.663 101.92
61.720 -59.505 3.668 0.00
61.720 -57.607 3.676 0.00
61.720 -55.709 3.682 0.00
61.720 -53.811 3.688 0.00
61.720 -51.913 3.695 0.00
61.720 -50.014 3.703 123.86
61.720 -48.116 3.711 224.75
61.720 -46.218 3.706 178.80
62.619 -154.123 3.667 337.67
62.619 -152.167 3.659 402.18
62.619 -150.212 3.635 550.49
62.619 -148.256 3.613 998.54
62.619 -146.301 3.554 1984.75
62.619 -144.345 3.514 2497.94
62.619 -142.390 3.538 2250.36
62.619 -140.434 3.569 1629.86
62.619 -138.479 3.606 2841.04
62.619 -136.523 3.679 2009.36
62.619 -134.567 3.712 1747.95
62.619 -132.612 3.664 2613.17
62.619 -130.656 3.584 3513.49
62.619 -128.701 3.747 5370.35
62.619 -126.745 3.690 4758.82
62.619 -124.790 3.596 33342.88
62.619 -122.834 3.674 27711.32
62.619 -120.879 3.805 6846.93
62.619 -118.923 3.840 4513.35
62.619 -116.968 3.799 4038.84
62.619 -115.012 3.782 4671.03
62.619 -113.057 3.825 3833.46
62.619 -111.101 3.881 4458.00
62.619 -109.146 3.864 3824.76
62.619 -107.190 3.812 2891.19
62.619 -105.235 3.788 2906.15
62.619 -103.279 3.824 2578.39
62.619 -101.324 3.877 2739.18
62.619 -99.368 3.874 4528.42
62.619 -97.413 3.889 4134.83
62.619 -95.457 3.837 5287.61
62.619 -93.502 3.831 3311.59
62.619 -91.546 3.861 5686.89
62.619 -89.591 3.848 1217.52
62.619 -87.635 3.882 734.25
62.619 -85.680 3.912 1043.54
62.619 -83.724 3.898 1108.26
62.619 -81.769 3.803 809.13
62.619 -79.813 3.714 251.72
62.619 -77.858 3.663 1527.82
62.619 -75.902 3.683 1085.84
62.619 -73.946 3.708 1272.66
62.619 -71.991 3.709 354.65
62.619 -70.035 3.732 155.83
62.619 -68.080 3.740 435.58
62.619 -66.124 3.711 180.82
62.619 -64.169 3.682 61.94
62.619 -62.213 3.665 80.93
62.619 -60.258 3.667 20.98
62.619 -58.302 3.675 0.00
62.619 -56.347 3.681 0.00
62.619 -54.391 3.685 124.14
62.619 -52.436 3.688 126.85
62.619 -50.480 3.690 133.84
62.619 -48.525 3.692 33.96
62.619 -46.569 3.696 0.00
62.619 -44.614 3.698 51.95
63.518 -155.841 3.679 295.68
63.518 -153.824 3.671 302.67
63.518 -151.807 3.647 801.76
63.518 -149.790 3.635 1755.83
63.518 -147.773 3.593 2076.39
63.518 -145.757 3.559 2516.80
63.518 -143.740 3.585 2354.95
63.518 -141.723 3.592 1796.92
63.518 -139.706 3.606 3190.13
63.518 -137.689 3.659 3510.95
63.518 -135.672 3.686 3905.98
63.518 -133.655 3.643 4923.49
63.518 -131.638 3.576 4756.13
63.518 -129.622 3.694 5289.78
63.518 -127.605 3.751 7864.99
63.518 -125.588 3.697 34239.02
63.518 -123.571 3.753 7143.75
63.518 -121.554 3.799 4062.86
63.518 -119.537 3.793 3424.61
63.518 -117.520 3.818 3761.18
63.518 -115.503 3.827 3098.03
63.518 -113.486 3.850 2524.26
63.518 -111.470 3.862 3382.04
63.518 -109.453 3.839 3513.26
63.518 -107.436 3.805 3017.41
63.518 -105.419 3.808 1924.80
63.518 -103.402 3.802 1916.05
63.518 -101.385 3.834 2333.53
63.518 -99.368 3.852 3204.74
63.518 -97.351 3.869 4574.30
63.518 -95.334 3.819 5336.61
63.518 -93.318 3.774 4236.75
63.518 -91.301 3.795 4928.66
63.518 -89.284 3.821 3511.40
63.518 -87.267 3.932 918.97
63.518 -85.250 3.947 1145.89
63.518 -83.233 3.891 1028.98
63.518 -81.216 3.775 750.21
63.518 -79.199 3.704 467.52
63.518 -77.182 3.687 1375.55
63.518 -75.166 3.706 870.10
63.518 -73.149 3.741 1294.61
63.518 -71.132 3.752 1013.94
63.518 -69.115 3.769 819.66
63.518 -67.098 3.736 290.72
63.518 -65.081 3.696 103.89
63.518 -63.064 3.670 54.96
63.518 -61.047 3.664 47.96
63.518 -59.030 3.671 0.00
63.518 -57.014 3.676 0.00
63.518 -54.997 3.679 0.00
63.518 -52.980 3.682 0.00
63.518 -50.963 3.684 0.00
63.518 -48.946 3.682 0.00
63.518 -46.929 3.679 0.00
63.518 -44.912 3.678 0.00
63.518 -42.895 3.683 15.98
64.418 -157.686 3.684 352.61
64.418 -155.603 3.688 107.88
64.418 -153.520 3.676 153.84
64.418 -151.437 3.663 693.01
64.418 -149.355 3.648 1090.92
64.418 -147.272 3.640 2065.11
64.418 -145.189 3.675 2142.22
64.418 -143.106 3.685 2093.93
64.418 -141.023 3.693 3332.46
64.418 -138.941 3.706 3061.93
64.418 -136.858 3.693 4424.83
64.418 -134.775 3.726 5598.31
64.418 -132.692 3.735 4451.39
64.418 -130.610 3.782 5299.86
64.418 -128.527 3.900 10744.18
64.418 -126.444 3.854 5976.06
64.418 -124.361 3.823 4206.61
64.418 -122.279 3.822 4289.88
64.418 -120.196 3.836 3286.10
64.418 -118.113 3.822 2097.76
64.418 -116.030 3.825 2148.24
64.418 -113.948 3.869 1775.29
64.418 -111.865 3.876 2599.70
64.418 -109.782 3.837 3168.25
64.418 -107.699 3.805 2247.65
64.418 -105.616 3.795 2080.62
64.418 -103.534 3.783 2049.50
64.418 -101.451 3.766 2260.21
64.418 -99.368 3.801 2462.97
64.418 -97.285 3.816 4460.98
64.418 -95.203 3.849 4555.30
64.418 -93.120 3.793 5044.34
64.418 -91.037 3.736 3085.43
64.418 -88.954 3.758 8021.87
64.418 -86.872 3.886 1104.78
64.418 -84.789 3.902 1033.66
64.418 -82.706 3.842 875.14
64.418 -80.623 3.729 711.25
64.418 -78.541 3.673 778.18
64.418 -76.458 3.678 1035.93
64.418 -74.375 3.709 1133.85
64.418 -72.292 3.741 863.13
64.418 -70.210 3.765 355.63
64.418 -68.127 3.761 654.36
64.418 -66.044 3.715 202.15
64.418 -63.961 3.679 37.97
64.418 -61.878 3.663 72.94
64.418 -59.796 3.669 0.00
64.418 -57.713 3.674 0.00
64.418 -55.630 3.675 0.00
64.418 -53.547 3.675 0.00
64.418 -51.465 3.676 0.00
64.418 -49.382 3.677 0.00
64.418 -47.299 3.676 0.00
64.418 -45.216 3.673 4.62
64.418 -43.134 3.670 373.54
64.418 -41.051 3.675 150.82
65.317 -159.670 3.692 0.00
65.317 -157.516 3.696 45.96
65.317 -155.363 3.696 107.89
65.317 -153.209 3.694 119.87
65.317 -151.055 3.687 390.65
65.317 -148.902 3.682 888.98
65.317 -146.748 3.692 1006.16
65.317 -144.595 3.692 1360.26
65.317 -142.441 3.696 1376.26
65.317 -140.287 3.712 1863.22
65.317 -138.134 3.726 3855.11
65.317 -135.980 3.852 2457.01
65.317 -133.826 3.899 3550.38
65.317 -131.673 3.771 4660.40
65.317 -129.519 3.845 4666.32
65.317 -127.365 3.855 2211.98
65.317 -125.212 3.859 1785.66
65.317 -123.058 3.835 1936.57
65.317 -120.905 3.795 2486.56
65.317 -118.751 3.790 2207.03
65.317 -116.597 3.822 1243.89
65.317 -114.444 3.877 1345.82
65.317 -112.290 3.906 1829.77
65.317 -110.136 3.864 1580.83
65.317 -107.983 3.814 2016.90
65.317 -105.829 3.790 2409.52
65.317 -103.675 3.778 1703.25
65.317 -101.522 3.748 1710.31
65.317 -99.368 3.762 2287.58
65.317 -97.215 3.806 3061.87
65.317 -95.061 3.876 4641.07
65.317 -92.907 3.878 5666.66
65.317 -90.754 3.827 2744.27
65.317 -88.600 3.827 1003.92
65.317 -86.446 3.887 892.08
65.317 -84.293 3.871 1044.90
65.317 -82.139 3.819 664.36
65.317 -79.985 3.720 708.25
65.317 -77.832 3.673 1030.93
65.317 -75.678 3.680 1073.89
65.317 -73.525 3.713 1270.68
65.317 -71.371 3.733 483.51
65.317 -69.217 3.761 544.46
65.317 -67.064 3.731 257.75
65.317 -64.910 3.692 81.26
65.317 -62.756 3.667 97.92
65.317 -60.603 3.667 0.00
65.317 -58.449 3.674 0.00
65.317 -56.295 3.676 0.00
65.317 -54.142 3.675 0.00
65.317 -51.988 3.674 0.00
65.317 -49.835 3.674 0.00
65.317 -47.681 3.674 0.00
65.317 -45.527 3.675 0.00
65.317 -43.374 3.677 0.00
65.317 -41.220 3.679 76.94
65.317 -39.066 3.684 291.74
66.216 -161.810 3.692 425.60
66.216 -159.580 3.693 177.82
66.216 -157.350 3.697 184.81
66.216 -155.120 3.702 264.74
66.216 -152.890 3.705 306.68
66.216 -150.660 3.702 456.56
66.216 -148.430 3.692 924.14
66.216 -146.200 3.687 920.18
66.216 -143.970 3.690 1418.41
66.216 -141.740 3.706 5062.18
66.216 -139.510 3.745 3071.88
66.216 -137.279 3.857 3089.86
66.216 -135.049 3.921 3683.97
66.216 -132.819 3.743 3983.44
66.216 -130.589 3.799 2836.38
66.216 -128.359 3.832 2081.55
66.216 -126.129 3.868 1888.72
66.216 -123.899 3.843 1092.50
66.216 -121.669 3.815 535.76
66.216 -119.439 3.800 1136.06
66.216 -117.209 3.793 1557.22
66.216 -114.979 3.817 1155.16
66.216 -112.749 3.861 1325.21
66.216 -110.519 3.871 1197.58
66.216 -108.288 3.830 1790.35
66.216 -106.058 3.803 1760.77
66.216 -103.828 3.781 2492.24
66.216 -101.598 3.767 1903.93
66.216 -99.368 3.744 1914.89
66.216 -97.138 3.789 2491.20
66.216 -94.908 3.842 4438.43
66.216 -92.678 3.924 5877.29
66.216 -90.448 3.924 4041.13
66.216 -88.218 3.919 1000.35
66.216 -85.988 3.916 1008.44
66.216 -83.758 3.859 1125.85
66.216 -81.528 3.811 958.07
66.216 -79.298 3.727 750.23
66.216 -77.067 3.676 1443.53
66.216 -74.837 3.681 1013.95
66.216 -72.607 3.724 1021.92
66.216 -70.377 3.749 420.56
66.216 -68.147 3.750 618.41
66.216 -65.917 3.710 206.80
66.216 -63.687 3.680 123.90
66.216 -61.457 3.673 0.00
66.216 -59.227 3.678 0.00
66.216 -56.997 3.682 0.00
66.216 -54.767 3.681 0.00
66.216 -52.537 3.679 0.00
66.216 -50.307 3.676 0.00
66.216 -48.077 3.675 0.00
66.216 -45.846 3.675 0.00
66.216 -43.616 3.675 0.00
66.216 -41.386 3.676 0.00
66.216 -39.156 3.678 0.00
66.216 -36.926 3.682 0.00
67.116 -164.125 3.685 182.85
67.116 -161.812 3.682 73.96
67.116 -159.499 3.681 65.96
67.116 -157.186 3.685 0.00
67.116 -154.874 3.690 34.97
67.116 -152.561 3.697 104.90
67.116 -150.248 3.700 371.31
67.116 -147.935 3.699 914.63
67.116 -145.623 3.697 798.01
67.116 -143.310 3.710 920.73
67.116 -140.997 3.745 1484.03
67.116 -138.685 3.859 2235.16
67.116 -136.372 3.925 1362.83
67.116 -134.059 3.771 3815.58
67.116 -131.746 3.783 2465.41
67.116 -129.434 3.816 1004.95
67.116 -127.121 3.816 1023.94
67.116 -124.808 3.816 973.13
67.116 -122.495 3.814 827.05
67.116 -120.183 3.789 515.46
67.116 -117.870 3.758 483.53
67.116 -115.557 3.747 752.38
67.116 -113.245 3.769 645.67
67.116 -110.932 3.801 946.66
67.116 -108.619 3.809 966.45
67.116 -106.306 3.785 1764.19
67.116 -103.994 3.778 2063.89
67.116 -101.681 3.761 2558.34
67.116 -99.368 3.746 2146.90
67.116 -97.055 3.753 2545.37
67.116 -94.743 3.809 3172.75
67.116 -92.430 3.895 4860.13
67.116 -90.117 3.943 5927.04
67.116 -87.805 3.960 1528.34
67.116 -85.492 3.928 790.21
67.116 -83.179 3.848 982.95
67.116 -80.866 3.788 765.24
67.116 -78.554 3.713 674.29
67.116 -76.241 3.668 1577.38
67.116 -73.928 3.689 1505.44
67.116 -71.615 3.733 741.25
67.116 -69.303 3.764 716.30
67.116 -66.990 3.729 315.70
67.116 -64.677 3.696 187.83
67.116 -62.365 3.684 119.89
67.116 -60.052 3.685 98.91
67.116 -57.739 3.689 95.91
67.116 -55.426 3.689 94.91
67.116 -53.114 3.687 91.91
67.116 -50.801 3.683 60.95
67.116 -48.488 3.678 0.00
67.116 -46.176 3.676 0.00
67.116 -43.863 3.675 0.00
67.116 -41.550 3.675 0.00
67.116 -39.237 3.674 0.00
67.116 -36.925 3.676 0.00
67.116 -34.612 3.679 0.00
68.015 -166.634 3.683 15.99
68.015 -164.232 3.682 69.93
68.015 -161.829 3.677 42.96
68.015 -159.427 3.673 74.96
68.015 -157.025 3.674 76.96
68.015 -154.622 3.680 71.96
68.015 -152.220 3.689 65.94
68.015 -149.818 3.694 183.80
68.015 -147.415 3.694 769.36
68.015 -145.013 3.708 722.02
68.015 -142.611 3.757 1572.01
68.015 -140.208 3.863 2032.04
68.015 -137.806 3.867 1032.94
68.015 -135.404 3.775 4121.21
68.015 -133.001 3.756 1993.32
68.015 -130.599 3.767 898.10
68.015 -128.196 3.770 253.73
68.015 -125.794 3.777 243.75
68.015 -123.392 3.780 463.97
68.015 -120.989 3.766 342.32
68.015 -118.587 3.733 303.69
68.015 -116.185 3.701 289.72
68.015 -113.782 3.689 526.48
68.015 -111.380 3.715 607.41
68.015 -108.978 3.758 947.10
68.015 -106.575 3.774 1358.62
68.015 -104.173 3.771 1685.28
68.015 -101.771 3.783 2219.72
68.015 -99.368 3.779 2464.48
68.015 -96.966 3.770 2199.85
68.015 -94.563 3.799 2971.90
68.015 -92.161 3.839 4978.93
68.015 -89.759 3.916 6167.84
