32.940 -109.013 2.879 201.49
32.940 -107.941 2.929 92.47
32.940 -106.870 2.942 27.40
32.940 -105.798 2.863 196.23
32.940 -104.726 2.681 2423.51
32.940 -103.655 2.480 12774.81
32.940 -102.583 2.412 6220.24
32.940 -101.511 2.533 8589.29
32.940 -100.440 2.763 22210.96
32.940 -99.368 2.916 25111.54
32.940 -98.297 2.852 22649.32
32.940 -97.225 2.632 12430.79
32.940 -96.153 2.394 2990.48
32.940 -95.082 2.291 4604.71
32.940 -94.010 2.360 1274.24
32.940 -92.938 2.593 424.55
32.940 -91.867 2.837 104.57
32.940 -90.795 2.888 242.22
32.940 -89.723 2.884 13.51
32.940 -88.652 2.925 363.25
32.940 -87.580 2.893 800.03
32.940 -86.509 2.732 781.85
32.940 -85.437 2.572 4373.95
32.940 -84.365 2.563 4380.95
32.940 -83.294 2.727 12111.81
32.940 -82.222 2.855 21837.45
32.940 -81.150 2.751 12386.36
32.940 -80.079 2.712 6026.74
32.940 -79.007 2.891 3791.23
32.940 -77.935 3.000 0.00
32.940 -76.864 2.966 0.00
32.940 -75.792 2.949 0.00
32.940 -74.721 2.955 0.00
32.940 -73.649 2.957 0.00
32.940 -72.577 2.957 0.00
32.940 -71.506 2.957 0.00
32.940 -70.434 2.957 0.00
32.940 -69.362 2.957 0.00
33.839 -129.686 2.957 0.00
33.839 -128.603 2.957 0.00
33.839 -127.521 2.957 0.00
33.839 -126.438 2.957 0.00
33.839 -125.355 2.957 0.00
33.839 -124.272 2.957 0.00
33.839 -123.189 2.957 0.00
33.839 -122.107 2.957 0.00
33.839 -121.024 2.958 0.00
33.839 -119.941 2.958 0.00
33.839 -118.858 2.941 2.22
33.839 -117.775 2.890 400.36
33.839 -116.693 2.827 867.16
33.839 -115.610 2.806 384.76
33.839 -114.527 2.833 492.78
33.839 -113.444 2.871 338.14
33.839 -112.362 2.850 425.71
33.839 -111.279 2.786 761.18
33.839 -110.196 2.773 739.21
33.839 -109.113 2.838 360.75
33.839 -108.030 2.887 419.70
33.839 -106.948 2.921 332.34
33.839 -105.865 2.861 203.22
33.839 -104.782 2.695 988.96
33.839 -103.699 2.559 11493.94
33.839 -102.617 2.489 11164.25
33.839 -101.534 2.571 12518.51
33.839 -100.451 2.691 20878.09
33.839 -99.368 2.741 24016.03
33.839 -98.285 2.647 20590.49
33.839 -97.203 2.504 10953.01
33.839 -96.120 2.296 4550.13
33.839 -95.037 2.144 8452.36
33.839 -93.954 2.131 6907.16
33.839 -92.872 2.283 3901.95
33.839 -91.789 2.494 976.98
33.839 -90.706 2.594 1370.26
33.839 -89.623 2.698 2579.37
33.839 -88.540 2.873 4293.29
33.839 -87.458 2.949 5300.10
33.839 -86.375 2.904 3068.61
33.839 -85.292 2.911 12042.03
33.839 -84.209 2.896 9339.35
33.839 -83.126 3.015 18233.03
33.839 -82.044 3.134 29282.89
33.839 -80.961 3.000 17700.67
33.839 -79.878 2.884 25767.80
33.839 -78.795 3.001 6498.98
33.839 -77.713 3.031 49.95
33.839 -76.630 2.983 0.00
33.839 -75.547 2.951 0.00
33.839 -74.464 2.953 0.00
33.839 -73.381 2.957 0.00
33.839 -72.299 2.957 0.00
33.839 -71.216 2.957 0.00
33.839 -70.133 2.957 0.00
33.839 -69.050 2.957 0.00
34.739 -130.012 2.957 0.00
34.739 -128.918 2.957 0.00
34.739 -127.823 2.957 0.00
34.739 -126.729 2.957 0.00
34.739 -125.635 2.957 0.00
34.739 -124.540 2.957 0.00
34.739 -123.446 2.957 0.00
34.739 -122.351 2.957 0.00
34.739 -121.257 2.959 0.00
34.739 -120.162 2.961 1.16
34.739 -119.068 2.939 102.28
34.739 -117.974 2.867 997.26
34.739 -116.879 2.774 828.22
34.739 -115.785 2.736 1723.49
34.739 -114.690 2.771 1432.34
34.739 -113.596 2.834 885.44
34.739 -112.501 2.827 1020.79
34.739 -111.407 2.764 1105.81
34.739 -110.313 2.752 573.44
34.739 -109.218 2.842 349.00
34.739 -108.124 2.909 174.89
34.739 -107.029 2.943 70.29
34.739 -105.935 2.870 749.04
34.739 -104.840 2.701 858.95
34.739 -103.746 2.610 10133.06
34.739 -102.651 2.526 14518.32
34.739 -101.557 2.531 13355.23
34.739 -100.463 2.433 17687.20
34.739 -99.368 2.291 20082.25
34.739 -98.274 2.285 20973.80
34.739 -97.179 2.442 12303.30
34.739 -96.085 2.512 13770.98
34.739 -94.990 2.383 11016.81
34.739 -93.896 2.291 12742.21
34.739 -92.802 2.383 12941.71
34.739 -91.707 2.445 5308.83
34.739 -90.613 2.443 3697.19
34.739 -89.518 2.590 9055.01
34.739 -88.424 2.932 17695.07
34.739 -87.329 3.113 6941.15
34.739 -86.235 3.120 9172.13
34.739 -85.141 3.066 15874.86
34.739 -84.046 3.019 18758.31
34.739 -82.952 3.043 25649.80
34.739 -81.857 3.163 34389.70
34.739 -80.763 3.197 27193.65
34.739 -79.668 3.066 22195.82
34.739 -78.574 3.080 11506.98
34.739 -77.480 3.035 4031.23
34.739 -76.385 2.981 0.00
34.739 -75.291 2.951 0.00
34.739 -74.196 2.954 0.00
34.739 -73.102 2.957 0.00
34.739 -72.007 2.957 0.00
34.739 -70.913 2.957 0.00
34.739 -69.818 2.957 0.00
34.739 -68.724 2.957 0.00
35.638 -130.353 2.957 0.00
35.638 -129.247 2.957 0.00
35.638 -128.140 2.957 0.00
35.638 -127.034 2.957 0.00
35.638 -125.927 2.957 0.00
35.638 -124.820 2.957 0.00
35.638 -123.714 2.956 0.00
35.638 -122.607 2.956 0.00
35.638 -121.500 2.961 0.00
35.638 -120.394 2.967 0.00
35.638 -119.287 2.939 85.14
35.638 -118.181 2.861 1109.07
35.638 -117.074 2.761 680.78
35.638 -115.967 2.717 1106.68
35.638 -114.861 2.744 1049.25
35.638 -113.754 2.794 427.45
35.638 -112.648 2.783 691.69
35.638 -111.541 2.723 1506.64
35.638 -110.434 2.732 790.30
35.638 -109.328 2.854 514.45
35.638 -108.221 2.938 266.56
35.638 -107.115 2.942 8.06
35.638 -106.008 2.835 251.09
35.638 -104.901 2.684 1915.52
35.638 -103.795 2.670 10828.38
35.638 -102.688 2.628 20384.21
35.638 -101.581 2.599 16810.33
35.638 -100.475 2.334 8753.89
35.638 -99.368 2.088 17435.91
35.638 -98.262 2.196 23654.98
35.638 -97.155 2.506 42987.23
35.638 -96.048 2.894 41410.30
35.638 -94.942 2.957 26932.66
35.638 -93.835 2.837 23780.83
35.638 -92.729 2.887 22636.36
35.638 -91.622 2.841 21073.64
35.638 -90.515 2.646 12532.45
35.638 -89.409 2.666 18767.30
35.638 -88.302 2.989 21778.48
35.638 -87.195 3.237 12987.25
35.638 -86.089 3.258 13565.95
35.638 -84.982 3.109 14925.76
35.638 -83.876 2.993 23505.45
35.638 -82.769 3.024 30087.84
35.638 -81.662 3.108 32747.71
35.638 -80.556 3.232 35302.29
35.638 -79.449 3.203 22160.30
35.638 -78.343 3.101 20154.08
35.638 -77.236 2.996 5594.84
35.638 -76.129 2.958 176.11
35.638 -75.023 2.947 0.00
35.638 -73.916 2.953 0.00
35.638 -72.809 2.957 0.00
35.638 -71.703 2.957 0.00
35.638 -70.596 2.957 0.00
35.638 -69.490 2.957 0.00
35.638 -68.383 2.957 0.00
36.538 -130.710 2.957 0.00
36.538 -129.591 2.957 0.00
36.538 -128.471 2.957 0.00
36.538 -127.352 2.957 0.00
36.538 -126.233 2.957 0.00
36.538 -125.113 2.957 0.00
36.538 -123.994 2.956 0.00
36.538 -122.875 2.958 0.00
36.538 -121.755 2.964 0.00
36.538 -120.636 2.962 0.00
36.538 -119.516 2.917 36.40
36.538 -118.397 2.828 1280.33
36.538 -117.278 2.737 1831.37
36.538 -116.158 2.700 958.23
36.538 -115.039 2.696 515.30
36.538 -113.920 2.699 1170.79
36.538 -112.800 2.694 1430.24
36.538 -111.681 2.668 1482.13
36.538 -110.562 2.702 785.81
36.538 -109.442 2.844 147.52
36.538 -108.323 2.933 29.76
36.538 -107.204 2.897 134.67
36.538 -106.084 2.754 386.88
36.538 -104.965 2.635 6834.71
36.538 -103.846 2.755 12833.62
36.538 -102.726 2.839 24677.54
36.538 -101.607 2.784 24475.49
36.538 -100.488 2.576 21972.10
36.538 -99.368 2.430 23762.55
36.538 -98.249 2.554 32646.11
36.538 -97.130 2.785 50078.08
36.538 -96.010 2.992 57202.48
36.538 -94.891 3.136 49045.00
36.538 -93.771 3.172 43382.82
36.538 -92.652 3.162 36935.88
36.538 -91.533 3.123 39549.45
36.538 -90.413 3.029 35550.29
36.538 -89.294 2.877 31936.90
36.538 -88.175 3.008 27277.65
36.538 -87.055 3.131 17087.17
36.538 -85.936 3.100 11087.06
36.538 -84.817 2.996 22196.96
36.538 -83.697 2.819 27118.72
36.538 -82.578 2.826 31650.69
36.538 -81.459 2.924 34460.65
36.538 -80.339 3.105 24368.59
36.538 -79.220 3.225 25071.46
36.538 -78.101 3.115 11694.01
36.538 -76.981 3.005 4475.09
36.538 -75.862 2.956 97.06
36.538 -74.743 2.943 0.00
36.538 -73.623 2.953 0.00
36.538 -72.504 2.958 0.00
36.538 -71.384 2.957 0.00
36.538 -70.265 2.957 0.00
36.538 -69.146 2.957 0.00
36.538 -68.026 2.957 0.00
37.437 -131.083 2.957 0.00
37.437 -129.950 2.957 0.00
37.437 -128.817 2.957 0.00
37.437 -127.685 2.957 0.00
37.437 -126.552 2.957 0.00
37.437 -125.419 2.957 0.00
37.437 -124.287 2.957 0.00
37.437 -123.154 2.958 0.00
37.437 -122.021 2.962 0.00
37.437 -120.889 2.949 0.00
37.437 -119.756 2.880 175.13
37.437 -118.623 2.775 1982.68
37.437 -117.491 2.700 639.22
37.437 -116.358 2.658 691.78
37.437 -115.225 2.625 1752.54
37.437 -114.093 2.599 2580.50
37.437 -112.960 2.592 1988.02
37.437 -111.827 2.606 1081.59
37.437 -110.695 2.642 886.87
37.437 -109.562 2.770 185.43
37.437 -108.429 2.868 159.99
37.437 -107.297 2.852 410.11
37.437 -106.164 2.725 968.45
37.437 -105.032 2.639 7017.41
37.437 -103.899 2.763 24934.42
37.437 -102.766 2.893 35236.63
37.437 -101.634 2.860 32355.23
37.437 -100.501 2.744 38498.32
37.437 -99.368 2.707 43721.71
37.437 -98.236 2.814 43124.56
37.437 -97.103 2.960 44849.64
37.437 -95.970 3.051 51539.08
37.437 -94.838 3.093 57315.84
37.437 -93.705 3.139 45446.05
37.437 -92.572 3.137 45668.92
37.437 -91.440 3.139 51546.40
37.437 -90.307 3.203 54363.77
37.437 -89.174 3.061 46165.57
37.437 -88.042 2.955 31891.09
37.437 -86.909 2.908 14390.13
37.437 -85.776 2.905 14056.20
37.437 -84.644 2.899 18678.75
37.437 -83.511 2.736 22934.65
37.437 -82.378 2.654 30511.12
37.437 -81.246 2.781 38510.32
37.437 -80.113 2.921 30695.00
37.437 -78.980 3.135 22721.13
37.437 -77.848 3.168 10154.00
37.437 -76.715 3.046 5816.33
37.437 -75.582 2.956 155.99
37.437 -74.450 2.941 0.00
37.437 -73.317 2.953 0.00
37.437 -72.184 2.958 0.00
37.437 -71.052 2.958 0.00
37.437 -69.919 2.957 0.00
37.437 -68.786 2.957 0.00
37.437 -67.654 2.957 0.00
38.336 -131.472 2.957 0.00
38.336 -130.326 2.957 0.00
38.336 -129.179 2.957 0.00
38.336 -128.033 2.957 0.00
38.336 -126.886 2.957 0.00
38.336 -125.740 2.957 0.00
38.336 -124.593 2.957 0.00
38.336 -123.446 2.959 0.00
38.336 -122.300 2.960 0.00
38.336 -121.153 2.939 4.22
38.336 -120.007 2.865 319.05
38.336 -118.860 2.771 798.49
38.336 -117.713 2.706 1027.27
38.336 -116.567 2.661 1889.99
38.336 -115.420 2.626 1487.74
38.336 -114.274 2.587 1391.82
38.336 -113.127 2.563 2146.73
38.336 -111.981 2.567 954.21
38.336 -110.834 2.580 827.51
38.336 -109.687 2.668 876.14
38.336 -108.541 2.798 574.04
38.336 -107.394 2.858 346.95
38.336 -106.248 2.785 172.83
38.336 -105.101 2.666 922.24
38.336 -103.955 2.667 4018.57
38.336 -102.808 2.749 8822.66
38.336 -101.661 2.786 11400.22
38.336 -100.515 2.794 19789.60
38.336 -99.368 2.779 36584.06
38.336 -98.222 2.795 33224.48
38.336 -97.075 2.912 31441.58
38.336 -95.928 3.005 31647.17
38.336 -94.782 3.093 36421.13
38.336 -93.635 3.129 48625.01
38.336 -92.489 3.130 42778.80
38.336 -91.342 3.111 56779.02
38.336 -90.196 3.112 52685.98
38.336 -89.049 2.962 47300.16
38.336 -87.902 2.823 26917.49
38.336 -86.756 2.738 17615.11
38.336 -85.609 2.759 20689.25
38.336 -84.463 2.868 21918.09
38.336 -83.316 2.892 23067.95
38.336 -82.170 2.660 34488.19
38.336 -81.023 2.567 36710.07
38.336 -79.876 2.689 28350.23
38.336 -78.730 3.032 16961.78
38.336 -77.583 3.197 7824.21
38.336 -76.437 3.061 3682.85
38.336 -75.290 2.963 528.85
38.336 -74.143 2.940 0.00
38.336 -72.997 2.941 0.00
38.336 -71.850 2.952 0.00
38.336 -70.704 2.957 0.00
38.336 -69.557 2.958 0.00
38.336 -68.411 2.957 0.00
38.336 -67.264 2.957 0.00
39.236 -131.880 2.957 0.00
39.236 -130.719 2.957 0.00
39.236 -129.558 2.957 0.00
39.236 -128.397 2.957 0.00
39.236 -127.235 2.957 0.00
39.236 -126.074 2.957 0.00
39.236 -124.913 2.957 0.00
39.236 -123.752 2.958 0.00
39.236 -122.591 2.959 0.00
39.236 -121.430 2.945 4.57
39.236 -120.269 2.896 267.48
39.236 -119.107 2.846 250.87
39.236 -117.946 2.810 283.45
39.236 -116.785 2.759 327.06
39.236 -115.624 2.664 1619.44
39.236 -114.463 2.573 1104.31
39.236 -113.302 2.534 781.95
39.236 -112.141 2.544 1085.87
39.236 -110.980 2.555 1999.39
39.236 -109.818 2.640 840.18
39.236 -108.657 2.818 114.93
39.236 -107.496 2.920 186.26
39.236 -106.335 2.895 244.41
39.236 -105.174 2.781 516.12
39.236 -104.013 2.684 413.27
39.236 -102.852 2.653 3084.57
39.236 -101.690 2.690 2504.08
39.236 -100.529 2.751 4811.97
39.236 -99.368 2.770 19341.04
39.236 -98.207 2.768 19154.82
39.236 -97.046 2.837 17358.15
39.236 -95.885 2.946 16545.25
39.236 -94.724 3.053 20082.48
39.236 -93.563 3.069 38201.44
39.236 -92.401 3.078 44927.18
39.236 -91.240 3.076 50561.33
39.236 -90.079 3.033 34086.29
39.236 -88.918 2.871 38231.84
39.236 -87.757 2.750 32825.10
39.236 -86.596 2.696 17570.15
39.236 -85.435 2.747 20339.33
39.236 -84.273 2.921 27899.21
39.236 -83.112 3.088 30374.37
39.236 -81.951 2.731 34937.34
39.236 -80.790 2.414 23429.06
39.236 -79.629 2.490 16155.42
39.236 -78.468 2.878 11409.00
39.236 -77.307 3.152 5253.48
39.236 -76.145 3.112 4446.76
39.236 -74.984 2.985 1310.44
39.236 -73.823 2.955 18.00
39.236 -72.662 2.947 0.00
39.236 -71.501 2.941 0.00
39.236 -70.340 2.949 0.00
39.236 -69.179 2.955 0.00
39.236 -68.018 2.957 0.00
39.236 -66.856 2.957 0.00
40.135 -132.306 2.957 0.00
40.135 -131.130 2.957 0.00
40.135 -129.954 2.957 0.00
40.135 -128.777 2.957 0.00
40.135 -127.601 2.957 0.00
40.135 -126.424 2.957 0.00
40.135 -125.248 2.957 0.00
40.135 -124.072 2.957 0.00
40.135 -122.895 2.956 8.30
40.135 -121.719 2.948 130.13
40.135 -120.543 2.929 263.88
40.135 -119.366 2.918 340.54
40.135 -118.190 2.886 405.46
40.135 -117.014 2.761 799.12
40.135 -115.837 2.578 1066.56
40.135 -114.661 2.460 1329.82
40.135 -113.484 2.427 2960.44
40.135 -112.308 2.510 2620.54
40.135 -111.132 2.607 305.86
40.135 -109.955 2.705 416.26
40.135 -108.779 2.889 7.29
40.135 -107.603 2.961 43.77
40.135 -106.426 2.937 314.34
40.135 -105.250 2.903 169.18
40.135 -104.074 2.816 12.05
40.135 -102.897 2.708 845.26
40.135 -101.721 2.665 2381.57
40.135 -100.545 2.692 2267.84
40.135 -99.368 2.727 5832.65
40.135 -98.192 2.766 9540.95
40.135 -97.015 2.814 12871.19
40.135 -95.839 2.906 10608.33
40.135 -94.663 2.971 15519.76
40.135 -93.486 3.029 28283.29
40.135 -92.310 3.047 32130.68
40.135 -91.134 3.050 35111.89
40.135 -89.957 3.007 21640.76
40.135 -88.781 2.935 14271.07
40.135 -87.605 2.875 16959.68
40.135 -86.428 2.852 12870.91
40.135 -85.252 2.899 35625.26
40.135 -84.076 3.030 36754.64
40.135 -82.899 3.117 24044.41
40.135 -81.723 2.852 35998.89
40.135 -80.546 2.540 16743.04
40.135 -79.370 2.445 9245.32
40.135 -78.194 2.644 9686.45
40.135 -77.017 2.929 15872.84
40.135 -75.841 3.026 8069.99
40.135 -74.665 3.011 7835.82
40.135 -73.488 3.003 1205.78
40.135 -72.312 3.001 0.00
40.135 -71.136 2.961 0.00
40.135 -69.959 2.947 0.00
40.135 -68.783 2.949 0.00
40.135 -67.607 2.955 0.00
40.135 -66.430 2.957 0.00
41.034 -132.752 2.957 0.00
41.034 -131.560 2.957 0.00
41.034 -130.368 2.957 0.00
41.034 -129.175 2.957 0.00
41.034 -127.983 2.957 0.00
41.034 -126.791 2.957 0.00
41.034 -125.598 2.957 0.00
41.034 -124.406 2.957 0.00
41.034 -123.214 2.958 0.26
41.034 -122.022 2.956 5.80
41.034 -120.829 2.947 84.88
41.034 -119.637 2.926 59.45
41.034 -118.445 2.846 67.05
41.034 -117.252 2.660 612.50
41.034 -116.060 2.454 1810.38
41.034 -114.868 2.374 8364.59
41.034 -113.676 2.372 2910.18
41.034 -112.483 2.490 444.01
41.034 -111.291 2.579 468.37
41.034 -110.099 2.673 419.47
41.034 -108.906 2.859 9.39
41.034 -107.714 2.916 3.39
41.034 -106.522 2.880 308.13
41.034 -105.330 2.915 218.14
41.034 -104.137 2.923 5.35
41.034 -102.945 2.827 38.98
41.034 -101.753 2.714 1438.54
41.034 -100.560 2.668 1796.72
41.034 -99.368 2.697 3401.64
41.034 -98.176 2.804 9326.54
41.034 -96.984 2.835 10865.78
41.034 -95.791 2.819 9898.72
41.034 -94.599 2.838 13765.61
41.034 -93.407 2.932 18069.13
41.034 -92.215 3.002 27180.04
41.034 -91.022 3.012 23640.91
41.034 -89.830 2.967 19017.54
41.034 -88.638 2.971 19631.52
41.034 -87.445 2.999 16578.68
41.034 -86.253 3.029 17906.65
41.034 -85.061 3.037 30472.69
41.034 -83.869 3.113 23906.05
41.034 -82.676 3.146 26191.91
41.034 -81.484 2.983 23207.79
41.034 -80.292 2.793 21802.48
41.034 -79.099 2.591 13491.09
41.034 -77.907 2.564 7468.53
41.034 -76.715 2.680 10404.24
41.034 -75.523 2.844 16258.22
41.034 -74.330 3.020 11757.05
41.034 -73.138 3.099 10148.67
41.034 -71.946 3.087 1660.36
41.034 -70.753 3.016 551.16
41.034 -69.561 2.968 0.00
41.034 -68.369 2.948 0.00
41.034 -67.177 2.952 0.00
41.034 -65.984 2.957 0.00
41.934 -133.219 2.957 0.00
41.934 -132.010 2.957 0.00
41.934 -130.801 2.957 0.00
41.934 -129.592 2.957 0.00
41.934 -128.383 2.957 0.00
41.934 -127.174 2.957 0.00
41.934 -125.965 2.957 0.00
41.934 -124.756 2.957 0.00
41.934 -123.547 2.959 0.00
41.934 -122.338 2.959 0.80
41.934 -121.129 2.943 3.67
41.934 -119.920 2.880 357.23
41.934 -118.711 2.760 487.73
41.934 -117.502 2.576 2045.60
41.934 -116.293 2.413 3475.18
41.934 -115.085 2.415 4669.71
41.934 -113.876 2.433 3592.98
41.934 -112.667 2.482 2130.75
41.934 -111.458 2.465 2109.91
41.934 -110.249 2.491 1225.23
41.934 -109.040 2.666 294.51
41.934 -107.831 2.780 175.48
41.934 -106.622 2.807 618.91
41.934 -105.413 2.902 0.00
41.934 -104.204 2.965 5.29
41.934 -102.995 2.907 0.00
41.934 -101.786 2.775 468.62
41.934 -100.577 2.679 1516.29
41.934 -99.368 2.703 10134.95
41.934 -98.159 2.854 8154.80
41.934 -96.950 2.967 13255.20
41.934 -95.741 2.904 13125.81
41.934 -94.532 2.803 14417.17
41.934 -93.323 2.779 10992.79
41.934 -92.115 2.933 16114.73
41.934 -90.906 3.027 36858.27
41.934 -89.697 2.994 19377.00
41.934 -88.488 2.985 25433.82
41.934 -87.279 3.022 36399.17
41.934 -86.070 3.021 34198.54
41.934 -84.861 3.012 29065.07
41.934 -83.652 3.096 27236.98
41.934 -82.443 3.180 35370.42
41.934 -81.234 3.169 25855.39
41.934 -80.025 3.108 25226.99
41.934 -78.816 2.936 31749.18
41.934 -77.607 2.767 19512.89
41.934 -76.398 2.724 12258.03
41.934 -75.189 2.840 16729.77
41.934 -73.980 3.008 18602.07
41.934 -72.771 3.123 14327.70
41.934 -71.562 3.145 15534.36
41.934 -70.353 3.078 15682.73
41.934 -69.145 3.014 221.90
41.934 -67.936 2.957 0.00
41.934 -66.727 2.944 0.00
41.934 -65.518 2.955 0.00
42.833 -133.707 2.958 0.00
42.833 -132.481 2.957 0.00
42.833 -131.254 2.957 0.00
42.833 -130.028 2.957 0.00
42.833 -128.802 2.957 0.00
42.833 -127.575 2.957 0.00
42.833 -126.349 2.957 0.00
42.833 -125.122 2.957 0.00
42.833 -123.896 2.959 0.00
42.833 -122.670 2.961 0.00
42.833 -121.443 2.942 0.00
42.833 -120.217 2.867 104.00
42.833 -118.990 2.740 706.15
42.833 -117.764 2.607 1516.75
42.833 -116.538 2.514 1164.95
42.833 -115.311 2.543 3068.99
42.833 -114.085 2.545 2774.40
42.833 -112.858 2.525 1886.02
42.833 -111.632 2.460 3314.22
42.833 -110.406 2.411 1885.06
42.833 -109.179 2.526 618.94
42.833 -107.953 2.666 665.15
42.833 -106.727 2.799 217.85
42.833 -105.500 2.909 9.32
42.833 -104.274 2.970 14.64
42.833 -103.047 2.954 8.08
42.833 -101.821 2.851 178.18
42.833 -100.595 2.733 1082.16
42.833 -99.368 2.764 5726.63
42.833 -98.142 2.960 12112.47
42.833 -96.915 3.147 14704.41
42.833 -95.689 3.086 17422.74
42.833 -94.463 2.884 13287.52
42.833 -93.236 2.734 9976.37
42.833 -92.010 2.909 9096.50
42.833 -90.783 3.096 30519.61
42.833 -89.557 3.124 25303.02
42.833 -88.331 3.077 19978.31
42.833 -87.104 3.023 37938.16
42.833 -85.878 2.877 31936.49
42.833 -84.652 2.779 35325.82
42.833 -83.425 2.968 40784.29
42.833 -82.199 3.161 37203.90
42.833 -80.972 3.163 38066.83
42.833 -79.746 3.208 30240.67
42.833 -78.520 3.162 34158.78
42.833 -77.293 3.074 45976.25
42.833 -76.067 3.015 39118.78
42.833 -74.840 3.089 28401.12
42.833 -73.614 3.114 28522.63
42.833 -72.388 3.134 24491.97
42.833 -71.161 3.154 16771.41
42.833 -69.935 3.144 5855.68
42.833 -68.708 3.083 609.69
42.833 -67.482 2.991 0.00
42.833 -66.256 2.946 0.00
42.833 -65.029 2.948 0.00
43.732 -134.219 2.957 0.00
43.732 -132.974 2.957 0.00
43.732 -131.729 2.957 0.00
43.732 -130.485 2.957 0.00
43.732 -129.240 2.957 0.00
43.732 -127.995 2.957 0.00
43.732 -126.751 2.957 0.00
43.732 -125.506 2.956 0.00
43.732 -124.261 2.958 0.00
43.732 -123.017 2.962 0.00
43.732 -121.772 2.958 0.00
43.732 -120.527 2.916 28.53
43.732 -119.283 2.829 407.38
43.732 -118.038 2.741 594.30
43.732 -116.793 2.696 388.05
43.732 -115.549 2.713 1917.04
43.732 -114.304 2.674 2048.67
43.732 -113.059 2.590 1341.91
43.732 -111.815 2.532 2054.35
43.732 -110.570 2.491 1435.66
43.732 -109.325 2.519 1165.56
43.732 -108.081 2.657 470.31
43.732 -106.836 2.818 147.02
43.732 -105.591 2.919 120.92
43.732 -104.347 2.955 120.98
43.732 -103.102 2.963 141.56
43.732 -101.858 2.916 141.28
43.732 -100.613 2.830 390.86
43.732 -99.368 2.852 5671.45
43.732 -98.124 3.022 11121.77
43.732 -96.879 3.172 20587.11
43.732 -95.634 3.135 16358.17
43.732 -94.390 2.936 20897.46
43.732 -93.145 2.710 10462.40
43.732 -91.900 2.904 9536.34
43.732 -90.656 3.204 31907.45
43.732 -89.411 3.229 28693.35
43.732 -88.166 3.161 30072.19
43.732 -86.922 2.980 29982.81
43.732 -85.677 2.644 63660.40
43.732 -84.432 2.472 40293.57
43.732 -83.188 2.691 33798.27
43.732 -81.943 3.026 34661.55
43.732 -80.698 3.102 54847.17
43.732 -79.454 3.140 51649.36
43.732 -78.209 3.195 44068.11
43.732 -76.964 3.187 45929.79
43.732 -75.720 3.200 48868.18
43.732 -74.475 3.252 54076.92
43.732 -73.230 3.202 47303.63
43.732 -71.986 3.117 32687.37
43.732 -70.741 3.117 28596.01
43.732 -69.496 3.154 14121.20
43.732 -68.252 3.117 2244.56
43.732 -67.007 3.004 0.00
43.732 -65.763 2.953 0.00
43.732 -64.518 2.949 0.00
44.632 -134.754 2.956 0.00
44.632 -133.490 2.957 0.00
44.632 -132.227 2.957 0.00
44.632 -130.963 2.957 0.00
44.632 -129.699 2.957 0.00
44.632 -128.435 2.957 0.00
44.632 -127.172 2.957 0.00
44.632 -125.908 2.956 0.00
44.632 -124.644 2.957 0.00
44.632 -123.380 2.961 0.00
44.632 -122.116 2.967 0.00
44.632 -120.853 2.956 1.87
44.632 -119.589 2.910 19.74
44.632 -118.325 2.852 231.65
44.632 -117.061 2.810 569.66
44.632 -115.797 2.783 1471.24
44.632 -114.534 2.726 1811.46
44.632 -113.270 2.637 1478.13
44.632 -112.006 2.622 1809.03
44.632 -110.742 2.641 675.14
44.632 -109.479 2.657 617.64
44.632 -108.215 2.734 272.13
44.632 -106.951 2.857 21.66
44.632 -105.687 2.937 12.45
44.632 -104.423 2.957 7.18
44.632 -103.160 2.965 0.00
44.632 -101.896 2.954 0.00
44.632 -100.632 2.908 0.00
44.632 -99.368 2.908 1913.07
44.632 -98.104 3.034 9503.37
44.632 -96.841 3.140 15941.77
44.632 -95.577 3.151 18332.26
44.632 -94.313 2.937 11259.01
44.632 -93.049 2.747 10834.85
44.632 -91.785 2.928 9003.50
44.632 -90.522 3.255 23137.05
44.632 -89.258 3.258 29030.91
44.632 -87.994 3.187 25200.52
44.632 -86.730 3.075 25326.80
44.632 -85.467 2.823 36148.56
44.632 -84.203 2.705 43668.92
44.632 -82.939 2.837 26410.52
44.632 -81.675 3.044 23294.58
44.632 -80.411 3.141 29205.30
44.632 -79.148 3.162 43684.15
44.632 -77.884 3.211 50265.32
44.632 -76.620 3.234 44746.82
44.632 -75.356 3.248 47218.11
44.632 -74.092 3.192 48289.32
44.632 -72.829 3.147 40251.88
44.632 -71.565 3.086 25807.27
44.632 -70.301 3.137 26882.94
44.632 -69.037 3.169 18044.17
44.632 -67.773 3.112 17178.58
44.632 -66.510 2.995 185.91
44.632 -65.246 2.944 187.90
44.632 -63.982 2.942 150.27
45.531 -135.316 2.954 0.00
45.531 -134.032 2.955 0.00
45.531 -132.748 2.956 0.00
45.531 -131.464 2.957 0.00
45.531 -130.180 2.957 0.00
45.531 -128.897 2.957 0.00
45.531 -127.613 2.957 0.00
45.531 -126.329 2.957 0.00
45.531 -125.045 2.957 0.00
45.531 -123.761 2.958 0.00
45.531 -122.477 2.961 0.00
45.531 -121.193 2.952 4.09
45.531 -119.910 2.918 0.88
45.531 -118.626 2.872 173.17
45.531 -117.342 2.832 284.24
45.531 -116.058 2.782 970.49
45.531 -114.774 2.743 2115.74
45.531 -113.490 2.663 1450.13
45.531 -112.207 2.695 2077.11
45.531 -110.923 2.792 288.06
45.531 -109.639 2.821 102.53
45.531 -108.355 2.816 397.81
45.531 -107.071 2.866 178.45
45.531 -105.787 2.926 0.00
45.531 -104.504 2.952 0.00
45.531 -103.220 2.961 0.00
45.531 -101.936 2.959 0.00
45.531 -100.652 2.946 0.00
45.531 -99.368 2.962 2124.54
45.531 -98.084 3.047 7039.99
45.531 -96.801 3.169 12814.37
45.531 -95.517 3.206 18702.71
45.531 -94.233 3.075 12198.25
45.531 -92.949 2.911 12207.96
45.531 -91.665 2.978 17879.94
45.531 -90.381 3.186 15439.58
45.531 -89.097 3.275 24452.14
45.531 -87.814 3.195 18421.90
45.531 -86.530 3.040 17463.83
45.531 -85.246 2.960 19170.66
45.531 -83.962 3.034 30240.85
45.531 -82.678 3.152 40611.91
45.531 -81.394 3.205 23070.34
45.531 -80.111 3.226 26547.93
45.531 -78.827 3.220 34790.81
45.531 -77.543 3.227 50153.71
45.531 -76.259 3.238 50358.88
45.531 -74.975 3.244 34962.89
45.531 -73.691 3.122 34834.27
45.531 -72.408 2.995 27819.78
45.531 -71.124 3.048 21836.33
45.531 -69.840 3.180 22444.67
45.531 -68.556 3.204 11708.50
45.531 -67.272 3.093 2276.75
45.531 -65.988 2.990 319.52
45.531 -64.705 2.945 173.00
45.531 -63.421 2.941 95.91
46.431 -135.904 2.951 94.91
46.431 -134.600 2.953 4.35
46.431 -133.295 2.956 0.00
46.431 -131.990 2.957 0.00
46.431 -130.685 2.957 0.00
46.431 -129.380 2.957 0.00
46.431 -128.075 2.957 0.00
46.431 -126.770 2.957 0.00
46.431 -125.466 2.957 0.00
46.431 -124.161 2.956 0.00
46.431 -122.856 2.951 0.00
46.431 -121.551 2.930 123.84
46.431 -120.246 2.892 259.16
46.431 -118.941 2.857 681.35
46.431 -117.636 2.840 488.81
46.431 -116.331 2.816 643.76
46.431 -115.027 2.806 1589.19
46.431 -113.722 2.752 1924.86
46.431 -112.417 2.791 801.10
46.431 -111.112 2.893 309.78
46.431 -109.807 2.923 49.33
46.431 -108.502 2.894 63.62
46.431 -107.197 2.892 183.04
46.431 -105.893 2.921 96.81
46.431 -104.588 2.948 0.00
46.431 -103.283 2.957 0.00
46.431 -101.978 2.954 0.00
46.431 -100.673 2.955 0.00
46.431 -99.368 2.995 266.02
46.431 -98.063 3.089 4209.72
46.431 -96.758 3.204 10175.33
46.431 -95.454 3.225 13865.37
46.431 -94.149 3.211 8897.62
46.431 -92.844 3.053 6269.90
46.431 -91.539 2.966 3394.25
46.431 -90.234 2.979 3966.95
46.431 -88.929 2.994 5345.96
46.431 -87.624 2.938 10190.40
46.431 -86.320 2.819 10648.22
46.431 -85.015 2.802 17866.82
46.431 -83.710 3.033 17858.35
46.431 -82.405 3.294 19535.15
46.431 -81.100 3.299 18609.12
46.431 -79.795 3.216 28618.35
46.431 -78.490 3.173 30271.59
46.431 -77.185 3.197 28465.11
46.431 -75.881 3.251 26587.05
46.431 -74.576 3.243 27472.84
46.431 -73.271 3.135 31308.94
46.431 -71.966 2.912 21617.48
46.431 -70.661 2.923 13966.56
46.431 -69.356 3.093 13531.93
46.431 -68.051 3.208 14079.00
46.431 -66.747 3.089 24.58
46.431 -65.442 2.995 118.46
46.431 -64.137 2.955 16.99
46.431 -62.832 2.951 0.00
47.330 -136.522 2.955 0.00
47.330 -135.195 2.956 0.00
47.330 -133.868 2.957 0.00
47.330 -132.541 2.957 0.00
47.330 -131.214 2.957 0.00
47.330 -129.887 2.957 0.00
47.330 -128.561 2.957 0.00
47.330 -127.234 2.957 0.00
47.330 -125.907 2.957 0.00
47.330 -124.580 2.957 1.78
47.330 -123.253 2.953 0.00
47.330 -121.926 2.942 139.96
47.330 -120.599 2.921 272.76
47.330 -119.272 2.903 203.29
47.330 -117.945 2.899 113.41
47.330 -116.618 2.895 225.75
47.330 -115.291 2.908 897.82
47.330 -113.964 2.868 550.84
47.330 -112.637 2.882 249.30
47.330 -111.311 2.946 33.13
47.330 -109.984 2.961 123.52
47.330 -108.657 2.944 0.00
47.330 -107.330 2.936 0.20
47.330 -106.003 2.945 6.13
47.330 -104.676 2.955 1.39
47.330 -103.349 2.956 0.00
47.330 -102.022 2.951 0.00
47.330 -100.695 2.956 0.00
47.330 -99.368 3.004 118.01
47.330 -98.041 3.110 4879.74
47.330 -96.714 3.224 8537.61
47.330 -95.387 3.264 11867.82
47.330 -94.061 3.311 10465.12
47.330 -92.734 3.188 5492.65
47.330 -91.407 3.017 2844.94
47.330 -90.080 2.910 826.43
47.330 -88.753 2.827 3277.11
47.330 -87.426 2.828 906.90
47.330 -86.099 2.821 417.28
47.330 -84.772 2.871 156.45
47.330 -83.445 3.035 1284.12
47.330 -82.118 3.210 3244.75
47.330 -80.791 3.249 4066.17
47.330 -79.464 3.241 5506.17
47.330 -78.137 3.222 7227.80
47.330 -76.811 3.225 16109.07
47.330 -75.484 3.211 12042.32
47.330 -74.157 3.177 9249.82
47.330 -72.830 3.129 9018.81
47.330 -71.503 3.025 8737.65
47.330 -70.176 2.982 7533.69
47.330 -68.849 3.025 1468.65
47.330 -67.522 3.067 342.02
47.330 -66.195 3.021 152.88
47.330 -64.868 2.972 25.98
47.330 -63.541 2.956 0.00
47.330 -62.214 2.957 0.00
48.229 -137.170 2.957 0.00
48.229 -135.820 2.957 0.00
48.229 -134.470 2.957 0.00
48.229 -133.120 2.957 0.00
48.229 -131.770 2.957 0.00
48.229 -130.420 2.957 0.00
48.229 -129.070 2.957 0.00
48.229 -127.720 2.957 0.00
48.229 -126.370 2.956 0.00
48.229 -125.020 2.955 2.83
48.229 -123.670 2.952 55.97
48.229 -122.320 2.955 0.00
48.229 -120.969 2.954 164.95
48.229 -119.619 2.948 61.98
48.229 -118.269 2.943 107.26
48.229 -116.919 2.939 298.23
48.229 -115.569 2.951 624.98
48.229 -114.219 2.924 349.30
48.229 -112.869 2.921 120.78
48.229 -111.519 2.953 0.00
48.229 -110.169 2.962 52.71
48.229 -108.819 2.959 0.00
48.229 -107.469 2.956 0.00
48.229 -106.119 2.957 0.00
48.229 -104.769 2.958 0.93
48.229 -103.418 2.956 1.17
48.229 -102.068 2.952 0.00
48.229 -100.718 2.961 0.00
48.229 -99.368 3.003 101.89
48.229 -98.018 3.085 3077.47
48.229 -96.668 3.209 6435.72
48.229 -95.318 3.257 9849.68
48.229 -93.968 3.282 12113.14
48.229 -92.618 3.216 3414.65
48.229 -91.268 3.080 2400.51
48.229 -89.918 2.951 1407.79
48.229 -88.568 2.877 718.68
48.229 -87.217 2.887 99.91
48.229 -85.867 2.921 279.62
48.229 -84.517 2.974 198.83
48.229 -83.167 3.032 197.83
48.229 -81.817 3.098 129.17
48.229 -80.467 3.142 482.02
48.229 -79.117 3.169 441.80
48.229 -77.767 3.228 270.68
48.229 -76.417 3.285 708.92
48.229 -75.067 3.238 553.66
48.229 -73.717 3.189 657.56
48.229 -72.367 3.152 356.39
48.229 -71.017 3.109 620.22
48.229 -69.666 3.048 334.58
48.229 -68.316 3.011 0.97
48.229 -66.966 3.000 82.43
48.229 -65.616 2.975 33.98
48.229 -64.266 2.956 0.00
48.229 -62.916 2.955 0.00
48.229 -61.566 2.957 0.00
49.129 -137.851 2.957 0.00
49.129 -136.477 2.957 0.00
49.129 -135.103 2.957 0.00
49.129 -133.728 2.957 0.00
49.129 -132.354 2.957 0.00
49.129 -130.979 2.957 0.00
49.129 -129.605 2.957 0.00
49.129 -128.231 2.957 0.00
49.129 -126.856 2.956 0.00
49.129 -125.482 2.954 0.00
49.129 -124.107 2.950 39.58
49.129 -122.733 2.952 23.19
49.129 -121.359 2.958 0.00
49.129 -119.984 2.960 204.99
49.129 -118.610 2.955 89.39
49.129 -117.235 2.949 113.93
49.129 -115.861 2.949 76.86
49.129 -114.487 2.934 200.55
49.129 -113.112 2.927 106.42
49.129 -111.738 2.948 0.00
49.129 -110.363 2.958 0.00
49.129 -108.989 2.959 0.00
49.129 -107.615 2.958 0.00
49.129 -106.240 2.958 0.00
49.129 -104.866 2.957 0.00
49.129 -103.491 2.956 0.59
49.129 -102.117 2.956 0.00
49.129 -100.743 2.963 37.96
49.129 -99.368 2.982 63.93
49.129 -97.994 3.029 2785.41
49.129 -96.619 3.129 2273.96
49.129 -95.245 3.169 3425.71
49.129 -93.871 3.160 211.15
49.129 -92.496 3.116 0.00
49.129 -91.122 3.037 0.00
49.129 -89.747 2.974 232.81
49.129 -88.373 2.953 74.96
49.129 -86.999 2.964 100.91
49.129 -85.624 2.997 100.88
49.129 -84.250 3.026 200.79
49.129 -82.875 3.038 249.48
49.129 -81.501 3.056 214.81
49.129 -80.127 3.084 569.50
49.129 -78.752 3.097 380.67
49.129 -77.378 3.160 484.55
49.129 -76.003 3.205 655.36
49.129 -74.629 3.141 325.82
49.129 -73.255 3.081 248.64
49.129 -71.880 3.061 168.65
49.129 -70.506 3.050 138.61
49.129 -69.131 3.018 161.47
49.129 -67.757 2.990 172.90
49.129 -66.383 2.973 41.97
49.129 -65.008 2.960 0.00
49.129 -63.634 2.955 0.00
49.129 -62.259 2.956 0.00
49.129 -60.885 2.956 0.00
50.028 -138.567 2.957 0.00
50.028 -137.167 2.957 0.00
50.028 -135.767 2.957 0.00
50.028 -134.367 2.957 0.00
50.028 -132.967 2.957 0.00
50.028 -131.567 2.957 0.00
50.028 -130.167 2.957 0.00
50.028 -128.767 2.957 0.00
50.028 -127.368 2.957 0.00
50.028 -125.968 2.955 0.00
50.028 -124.568 2.951 8.59
50.028 -123.168 2.947 87.55
50.028 -121.768 2.950 27.56
50.028 -120.368 2.954 148.94
50.028 -118.968 2.958 165.91
50.028 -117.568 2.956 0.00
50.028 -116.168 2.954 0.00
50.028 -114.768 2.942 0.00
50.028 -113.368 2.930 105.23
50.028 -111.968 2.946 0.00
50.028 -110.568 2.957 0.00
50.028 -109.168 2.958 0.00
50.028 -107.768 2.957 0.00
50.028 -106.368 2.957 0.00
50.028 -104.968 2.957 0.00
50.028 -103.568 2.958 0.00
50.028 -102.168 2.960 0.00
50.028 -100.768 2.965 101.89
50.028 -99.368 2.962 0.00
50.028 -97.968 2.966 0.00
50.028 -96.568 3.004 50.24
50.028 -95.168 3.035 186.03
50.028 -93.768 3.030 99.89
50.028 -92.368 3.006 99.89
50.028 -90.968 2.988 99.89
50.028 -89.568 2.992 407.67
50.028 -88.168 3.003 98.90
50.028 -86.769 3.016 279.25
50.028 -85.369 3.037 363.60
50.028 -83.969 3.042 142.85
50.028 -82.569 3.048 97.90
50.028 -81.169 3.060 412.65
50.028 -79.769 3.052 176.50
50.028 -78.369 3.054 132.92
50.028 -76.969 3.102 446.61
50.028 -75.569 3.130 200.77
50.028 -74.169 3.075 198.42
50.028 -72.769 3.026 355.94
50.028 -71.369 3.000 0.00
50.028 -69.969 2.999 137.35
50.028 -68.569 2.991 102.73
50.028 -67.169 2.977 47.97
50.028 -65.769 2.965 0.00
50.028 -64.369 2.958 0.00
50.028 -62.969 2.956 0.00
50.028 -61.569 2.956 0.00
50.028 -60.169 2.956 0.00
50.927 -139.320 2.957 0.00
50.927 -137.893 2.957 0.00
50.927 -136.466 2.957 0.00
50.927 -135.040 2.957 0.00
50.927 -133.613 2.957 0.00
50.927 -132.186 2.957 0.00
50.927 -130.759 2.957 0.00
50.927 -129.332 2.957 0.00
50.927 -127.905 2.957 0.00
50.927 -126.478 2.957 0.00
50.927 -125.052 2.954 0.00
50.927 -123.625 2.948 42.59
50.927 -122.198 2.946 89.62
50.927 -120.771 2.951 0.00
50.927 -119.344 2.958 27.99
50.927 -117.917 2.960 59.39
50.927 -116.490 2.958 0.00
50.927 -115.064 2.947 0.00
50.927 -113.637 2.932 104.23
50.927 -112.210 2.943 0.00
50.927 -110.783 2.955 0.00
50.927 -109.356 2.958 0.00
50.927 -107.929 2.958 0.00
50.927 -106.502 2.958 0.00
50.927 -105.076 2.957 0.00
50.927 -103.649 2.957 0.00
50.927 -102.222 2.959 0.00
50.927 -100.795 2.960 101.89
50.927 -99.368 2.946 21.98
50.927 -97.941 2.935 113.88
50.927 -96.514 2.943 63.93
50.927 -95.088 2.955 0.00
50.927 -93.661 2.959 0.00
50.927 -92.234 2.954 0.00
50.927 -90.807 2.960 162.86
50.927 -89.380 2.980 246.79
50.927 -87.953 2.990 104.89
50.927 -86.526 2.996 9.99
50.927 -85.100 3.011 200.78
50.927 -83.673 3.015 0.00
50.927 -82.246 3.026 142.91
50.927 -80.819 3.037 357.15
50.927 -79.392 3.035 102.94
50.927 -77.965 3.057 277.77
50.927 -76.538 3.084 141.85
50.927 -75.112 3.097 295.69
50.927 -73.685 3.046 149.63
50.927 -72.258 3.021 146.34
50.927 -70.831 3.014 131.88
50.927 -69.404 3.007 198.30
50.927 -67.977 2.987 91.74
50.927 -66.550 2.968 0.00
50.927 -65.124 2.959 0.00
50.927 -63.697 2.955 0.00
50.927 -62.270 2.956 0.00
50.927 -60.843 2.956 0.00
50.927 -59.416 2.957 0.00
51.827 -140.113 2.957 0.00
51.827 -138.658 2.957 0.00
51.827 -137.203 2.957 0.00
51.827 -135.747 2.957 0.00
51.827 -134.292 2.957 0.00
51.827 -132.837 2.957 0.00
51.827 -131.382 2.957 0.00
51.827 -129.927 2.957 0.00
51.827 -128.472 2.957 0.00
51.827 -127.016 2.957 0.00
51.827 -125.561 2.956 0.00
51.827 -124.106 2.952 0.00
51.827 -122.651 2.946 88.22
51.827 -121.196 2.949 10.48
51.827 -119.741 2.955 0.00
51.827 -118.285 2.959 3.36
51.827 -116.830 2.958 0.00
51.827 -115.375 2.950 0.00
51.827 -113.920 2.937 56.33
51.827 -112.465 2.939 47.90
51.827 -111.010 2.952 0.00
51.827 -109.554 2.957 0.00
51.827 -108.099 2.958 0.00
51.827 -106.644 2.956 0.00
51.827 -105.189 2.953 0.00
51.827 -103.734 2.949 0.00
51.827 -102.279 2.951 6.99
51.827 -100.823 2.954 216.77
51.827 -99.368 2.945 91.90
51.827 -97.913 2.942 0.00
51.827 -96.458 2.944 0.00
51.827 -95.003 2.949 0.00
51.827 -93.548 2.952 0.00
51.827 -92.092 2.950 0.00
51.827 -90.637 2.950 240.48
51.827 -89.182 2.957 4.00
51.827 -87.727 2.964 0.00
51.827 -86.272 2.975 54.94
51.827 -84.817 2.995 146.84
51.827 -83.361 3.004 139.91
51.827 -81.906 3.020 261.80
51.827 -80.451 3.034 52.95
51.827 -78.996 3.054 105.91
51.827 -77.541 3.075 346.67
51.827 -76.085 3.080 143.87
51.827 -74.630 3.052 172.81
51.827 -73.175 3.012 22.23
51.827 -71.720 3.024 110.88
51.827 -70.265 3.041 315.17
51.827 -68.810 3.018 214.58
51.827 -67.354 2.978 4.40
51.827 -65.899 2.958 0.00
51.827 -64.444 2.954 0.00
51.827 -62.989 2.955 0.00
51.827 -61.534 2.956 0.00
51.827 -60.079 2.957 0.00
51.827 -58.623 2.957 0.00
52.726 -140.948 2.957 0.00
52.726 -139.463 2.957 0.00
52.726 -137.978 2.957 0.00
52.726 -136.493 2.957 0.00
52.726 -135.008 2.957 0.00
52.726 -133.523 2.957 0.00
52.726 -132.038 2.957 0.00
52.726 -130.553 2.957 0.00
52.726 -129.068 2.957 0.00
52.726 -127.583 2.957 0.00
52.726 -126.098 2.957 0.00
52.726 -124.613 2.955 0.00
52.726 -123.128 2.950 6.96
52.726 -121.643 2.947 92.30
52.726 -120.158 2.952 0.00
52.726 -118.673 2.956 3.36
52.726 -117.188 2.958 0.00
52.726 -115.703 2.955 0.00
52.726 -114.218 2.947 0.00
52.726 -112.733 2.943 104.23
52.726 -111.248 2.952 0.00
52.726 -109.763 2.955 0.00
52.726 -108.278 2.953 0.00
52.726 -106.793 2.949 0.00
52.726 -105.308 2.944 9.99
52.726 -103.823 2.940 113.88
52.726 -102.338 2.947 106.89
52.726 -100.853 2.960 101.89
52.726 -99.368 2.956 0.00
52.726 -97.883 2.954 0.00
52.726 -96.398 2.955 0.00
52.726 -94.913 2.957 0.00
52.726 -93.428 2.956 0.00
52.726 -91.943 2.953 0.00
52.726 -90.458 2.949 74.86
52.726 -88.973 2.952 0.00
52.726 -87.488 2.962 0.00
52.726 -86.003 2.980 127.85
52.726 -84.518 3.000 163.85
52.726 -83.033 3.011 114.04
52.726 -81.548 3.035 205.81
52.726 -80.063 3.057 0.00
52.726 -78.578 3.077 392.67
52.726 -77.093 3.070 179.82
52.726 -75.608 3.061 142.83
52.726 -74.123 3.015 74.26
52.726 -72.638 2.994 6.91
52.726 -71.153 3.028 163.83
52.726 -69.668 3.047 339.10
52.726 -68.183 3.014 145.14
52.726 -66.698 2.970 0.00
52.726 -65.213 2.953 0.00
52.726 -63.728 2.953 0.00
52.726 -62.243 2.956 0.00
52.726 -60.758 2.957 0.00
52.726 -59.273 2.957 0.00
52.726 -57.788 2.957 0.00
53.625 -141.829 2.957 0.00
53.625 -140.313 2.957 0.00
53.625 -138.796 2.957 0.00
53.625 -137.280 2.957 0.00
53.625 -135.763 2.957 0.00
53.625 -134.247 2.957 0.00
53.625 -132.730 2.957 0.00
53.625 -131.214 2.957 0.00
53.625 -129.697 2.957 0.00
53.625 -128.181 2.957 0.00
53.625 -126.665 2.957 0.00
53.625 -125.148 2.957 0.00
53.625 -123.632 2.954 0.00
53.625 -122.115 2.948 48.46
53.625 -120.599 2.948 50.23
53.625 -119.082 2.954 3.36
53.625 -117.566 2.958 0.00
53.625 -116.049 2.958 0.00
53.625 -114.533 2.956 0.00
53.625 -113.016 2.957 110.39
53.625 -111.500 2.956 14.99
53.625 -109.983 2.951 0.00
53.625 -108.467 2.944 37.96
53.625 -106.951 2.939 113.88
53.625 -105.434 2.940 103.89
53.625 -103.918 2.947 0.00
53.625 -102.401 2.957 19.98
53.625 -100.885 2.965 82.91
53.625 -99.368 2.961 0.00
53.625 -97.852 2.958 0.00
53.625 -96.335 2.958 0.00
53.625 -94.819 2.957 0.00
53.625 -93.302 2.957 0.00
53.625 -91.786 2.955 0.00
53.625 -90.269 2.953 0.00
53.625 -88.753 2.958 0.00
53.625 -87.237 2.974 0.00
53.625 -85.720 2.998 295.70
53.625 -84.204 3.007 35.97
53.625 -82.687 3.030 128.88
53.625 -81.171 3.061 114.90
53.625 -79.654 3.078 324.73
53.625 -78.138 3.054 178.82
53.625 -76.621 3.037 35.96
53.625 -75.105 3.045 202.85
53.625 -73.588 3.006 21.15
53.625 -72.072 2.995 52.96
53.625 -70.555 3.024 175.82
53.625 -69.039 3.031 219.20
53.625 -67.523 3.006 206.71
53.625 -66.006 2.968 0.00
53.625 -64.490 2.954 0.00
53.625 -62.973 2.955 0.00
53.625 -61.457 2.957 0.00
53.625 -59.940 2.957 0.00
53.625 -58.424 2.957 0.00
53.625 -56.907 2.957 0.00
54.525 -142.759 2.957 0.00
54.525 -141.209 2.957 0.00
54.525 -139.660 2.957 0.00
54.525 -138.110 2.957 0.00
54.525 -136.560 2.957 0.00
54.525 -135.011 2.957 0.00
54.525 -133.461 2.957 0.00
54.525 -131.911 2.957 0.00
54.525 -130.362 2.957 0.00
54.525 -128.812 2.957 0.00
54.525 -127.262 2.957 0.00
54.525 -125.713 2.957 0.00
54.525 -124.163 2.956 0.00
54.525 -122.613 2.952 0.00
54.525 -121.064 2.947 97.38
54.525 -119.514 2.950 5.58
54.525 -117.964 2.952 0.00
54.525 -116.415 2.951 0.00
54.525 -114.865 2.950 0.00
54.525 -113.315 2.951 0.00
54.525 -111.766 2.952 220.79
54.525 -110.216 2.948 126.87
54.525 -108.666 2.945 74.92
54.525 -107.117 2.946 0.00
54.525 -105.567 2.950 0.00
54.525 -104.017 2.956 0.00
54.525 -102.468 2.963 73.42
54.525 -100.918 2.963 0.00
54.525 -99.368 2.959 0.00
54.525 -97.819 2.957 0.00
54.525 -96.269 2.957 0.00
54.525 -94.719 2.956 0.00
54.525 -93.170 2.954 0.00
54.525 -91.620 2.954 0.00
54.525 -90.070 2.958 0.00
54.525 -88.520 2.969 0.00
54.525 -86.971 2.992 99.92
54.525 -85.421 3.014 177.95
54.525 -83.871 3.026 0.00
54.525 -82.322 3.059 304.73
54.525 -80.772 3.074 119.90
54.525 -79.222 3.055 263.77
54.525 -77.673 3.012 100.88
54.525 -76.123 3.013 0.00
54.525 -74.573 3.046 225.21
54.525 -73.024 3.015 51.96
54.525 -71.474 2.997 64.95
54.525 -69.924 3.010 138.60
54.525 -68.375 3.006 5.65
54.525 -66.825 2.995 352.51
54.525 -65.275 2.968 0.00
54.525 -63.726 2.957 0.00
54.525 -62.176 2.956 0.00
54.525 -60.626 2.957 0.00
54.525 -59.077 2.957 0.00
54.525 -57.527 2.957 0.00
54.525 -55.977 2.957 0.00
55.424 -143.742 2.957 0.00
55.424 -142.157 2.957 0.00
55.424 -140.572 2.957 0.00
55.424 -138.988 2.957 0.00
55.424 -137.403 2.957 0.00
55.424 -135.818 2.957 0.00
55.424 -134.233 2.957 0.00
55.424 -132.648 2.956 0.00
55.424 -131.064 2.955 0.00
55.424 -129.479 2.956 0.00
55.424 -127.894 2.957 0.00
55.424 -126.309 2.957 0.00
55.424 -124.725 2.957 0.00
55.424 -123.140 2.955 0.00
55.424 -121.555 2.950 2.32
55.424 -119.970 2.944 100.67
55.424 -118.385 2.942 26.97
55.424 -116.801 2.939 109.88
55.424 -115.216 2.938 111.88
55.424 -113.631 2.942 111.88
55.424 -112.046 2.953 5.99
55.424 -110.462 2.960 116.91
55.424 -108.877 2.960 13.99
55.424 -107.292 2.958 0.00
55.424 -105.707 2.957 0.00
55.424 -104.123 2.957 0.00
55.424 -102.538 2.959 0.00
55.424 -100.953 2.958 0.00
55.424 -99.368 2.957 0.00
55.424 -97.783 2.956 0.00
55.424 -96.199 2.955 0.00
55.424 -94.614 2.953 0.00
55.424 -93.029 2.954 0.00
55.424 -91.444 2.960 0.00
55.424 -89.860 2.973 0.00
55.424 -88.275 2.991 108.91
55.424 -86.690 3.009 28.98
55.424 -85.105 3.031 158.85
55.424 -83.520 3.050 216.81
55.424 -81.936 3.065 100.91
55.424 -80.351 3.060 295.75
55.424 -78.766 3.012 22.98
55.424 -77.181 2.984 33.21
55.424 -75.597 3.014 9.50
55.424 -74.012 3.055 266.45
55.424 -72.427 3.017 65.95
55.424 -70.842 2.991 0.00
55.424 -69.257 3.000 156.24
55.424 -67.673 2.988 101.93
55.424 -66.088 2.974 13.99
55.424 -64.503 2.961 0.00
55.424 -62.918 2.956 0.00
55.424 -61.334 2.956 0.00
55.424 -59.749 2.957 0.00
55.424 -58.164 2.957 0.00
55.424 -56.579 2.957 0.00
55.424 -54.995 2.957 0.00
56.324 -144.782 2.957 0.00
56.324 -143.160 2.957 0.00
56.324 -141.538 2.957 0.00
56.324 -139.916 2.957 0.00
56.324 -138.294 2.957 0.00
56.324 -136.672 2.957 0.00
56.324 -135.050 2.956 0.00
56.324 -133.428 2.953 0.00
56.324 -131.806 2.951 91.45
56.324 -130.184 2.954 0.00
56.324 -128.563 2.956 0.00
56.324 -126.941 2.957 0.00
56.324 -125.319 2.958 0.00
56.324 -123.697 2.957 0.00
56.324 -122.075 2.953 0.00
56.324 -120.453 2.947 45.08
56.324 -118.831 2.944 82.91
56.324 -117.209 2.946 0.00
56.324 -115.587 2.948 0.00
56.324 -113.965 2.951 0.00
56.324 -112.343 2.957 0.00
56.324 -110.722 2.964 0.00
56.324 -109.100 2.969 116.91
56.324 -107.478 2.966 15.99
56.324 -105.856 2.961 0.00
56.324 -104.234 2.957 0.00
56.324 -102.612 2.956 0.00
56.324 -100.990 2.956 0.00
56.324 -99.368 2.956 0.00
56.324 -97.746 2.955 0.00
56.324 -96.124 2.953 0.00
56.324 -94.502 2.955 0.00
56.324 -92.881 2.965 0.00
56.324 -91.259 2.980 0.00
56.324 -89.637 2.997 120.90
56.324 -88.015 3.007 46.96
56.324 -86.393 3.024 206.81
56.324 -84.771 3.033 45.96
56.324 -83.149 3.052 205.81
56.324 -81.527 3.058 163.86
56.324 -79.905 3.029 155.86
56.324 -78.283 2.985 0.00
56.324 -76.661 2.987 0.00
56.324 -75.040 3.039 158.30
56.324 -73.418 3.048 186.80
56.324 -71.796 3.001 0.00
56.324 -70.174 2.986 48.75
56.324 -68.552 2.997 226.72
56.324 -66.930 2.977 0.00
56.324 -65.308 2.961 0.00
56.324 -63.686 2.955 0.00
56.324 -62.064 2.955 0.00
56.324 -60.442 2.956 0.00
56.324 -58.820 2.957 0.00
56.324 -57.199 2.957 0.00
56.324 -55.577 2.957 0.00
56.324 -53.955 2.957 0.00
57.223 -145.883 2.957 0.00
57.223 -144.222 2.957 0.00
57.223 -142.561 2.957 0.00
57.223 -140.899 2.957 0.00
57.223 -139.238 2.957 0.00
57.223 -137.577 2.957 0.00
57.223 -135.916 2.954 0.00
57.223 -134.254 2.948 79.96
57.223 -132.593 2.948 101.92
57.223 -130.932 2.952 51.95
57.223 -129.271 2.955 0.00
57.223 -127.609 2.956 0.00
57.223 -125.948 2.957 0.00
57.223 -124.287 2.958 0.00
57.223 -122.626 2.956 0.00
57.223 -120.964 2.954 0.00
57.223 -119.303 2.953 0.00
57.223 -117.642 2.955 0.00
57.223 -115.981 2.956 0.00
57.223 -114.319 2.956 0.00
57.223 -112.658 2.957 0.00
57.223 -110.997 2.960 0.00
57.223 -109.336 2.965 0.00
57.223 -107.674 2.968 114.91
57.223 -106.013 2.965 20.98
57.223 -104.352 2.960 0.00
57.223 -102.691 2.957 0.00
57.223 -101.029 2.955 0.00
57.223 -99.368 2.955 0.00
57.223 -97.707 2.954 0.00
57.223 -96.046 2.957 0.00
57.223 -94.384 2.970 0.00
57.223 -92.723 2.992 8.99
57.223 -91.062 3.008 134.89
57.223 -89.401 3.008 112.91
57.223 -87.739 3.004 76.94
57.223 -86.078 3.017 99.90
57.223 -84.417 3.035 97.91
57.223 -82.756 3.053 120.89
57.223 -81.094 3.046 306.72
57.223 -79.433 3.001 0.00
57.223 -77.772 2.978 0.00
57.223 -76.111 3.008 75.30
57.223 -74.449 3.058 197.90
57.223 -72.788 3.031 70.92
57.223 -71.127 2.985 70.95
57.223 -69.466 2.980 93.32
57.223 -67.805 2.992 114.88
57.223 -66.143 2.972 0.00
57.223 -64.482 2.957 0.00
57.223 -62.821 2.954 0.00
57.223 -61.160 2.956 0.00
57.223 -59.498 2.957 0.00
57.223 -57.837 2.957 0.00
57.223 -56.176 2.957 0.00
57.223 -54.515 2.957 0.00
57.223 -52.853 2.957 0.00
58.122 -147.051 2.957 0.00
58.122 -145.348 2.957 0.00
58.122 -143.645 2.957 0.00
58.122 -141.942 2.957 0.00
58.122 -140.239 2.957 0.00
58.122 -138.537 2.956 0.00
58.122 -136.834 2.952 0.00
58.122 -135.131 2.945 128.94
58.122 -133.428 2.949 0.00
58.122 -131.725 2.952 77.93
58.122 -130.022 2.953 125.00
58.122 -128.319 2.954 0.00
58.122 -126.616 2.956 0.00
58.122 -124.913 2.957 0.00
58.122 -123.210 2.957 0.00
58.122 -121.507 2.957 0.00
58.122 -119.804 2.957 0.00
58.122 -118.101 2.957 0.00
58.122 -116.398 2.958 0.00
58.122 -114.695 2.957 0.00
58.122 -112.992 2.956 0.00
58.122 -111.289 2.957 0.00
58.122 -109.586 2.959 0.00
58.122 -107.883 2.964 0.00
58.122 -106.180 2.968 109.91
58.122 -104.477 2.965 28.98
58.122 -102.774 2.960 0.00
58.122 -101.071 2.956 0.00
58.122 -99.368 2.955 0.00
58.122 -97.665 2.959 0.00
58.122 -95.962 2.969 0.00
58.122 -94.259 2.989 28.98
58.122 -92.556 3.015 225.82
58.122 -90.853 3.008 97.92
58.122 -89.150 2.985 0.00
58.122 -87.447 2.986 0.00
58.122 -85.744 3.018 100.90
58.122 -84.041 3.050 207.81
58.122 -82.339 3.059 291.74
58.122 -80.636 3.023 29.97
58.122 -78.933 2.986 0.00
58.122 -77.230 2.984 67.13
58.122 -75.527 3.023 77.22
58.122 -73.824 3.061 203.76
58.122 -72.121 3.015 101.93
58.122 -70.418 2.972 31.98
58.122 -68.715 2.970 31.37
58.122 -67.012 2.981 115.88
58.122 -65.309 2.967 0.00
58.122 -63.606 2.956 0.00
58.122 -61.903 2.955 0.00
58.122 -60.200 2.957 0.00
58.122 -58.497 2.957 0.00
58.122 -56.794 2.957 0.00
58.122 -55.091 2.957 0.00
58.122 -53.388 2.957 0.00
58.122 -51.685 2.957 0.00
59.022 -148.292 2.957 0.00
59.022 -146.545 2.957 0.00
59.022 -144.798 2.957 0.00
59.022 -143.050 2.957 0.00
59.022 -141.303 2.957 0.00
59.022 -139.556 2.955 0.00
59.022 -137.808 2.950 36.10
59.022 -136.061 2.944 230.52
59.022 -134.314 2.950 436.18
59.022 -132.567 2.952 123.04
59.022 -130.819 2.951 117.88
59.022 -129.072 2.951 94.92
59.022 -127.325 2.954 0.00
59.022 -125.577 2.957 0.00
59.022 -123.830 2.957 0.00
59.022 -122.083 2.957 0.00
59.022 -120.336 2.957 0.00
59.022 -118.588 2.957 0.00
59.022 -116.841 2.957 0.00
59.022 -115.094 2.957 0.00
59.022 -113.346 2.956 0.00
59.022 -111.599 2.956 0.00
59.022 -109.852 2.956 0.00
59.022 -108.105 2.958 0.00
59.022 -106.357 2.963 0.00
59.022 -104.610 2.967 102.92
59.022 -102.863 2.966 39.97
59.022 -101.115 2.963 0.00
59.022 -99.368 2.964 0.00
59.022 -97.621 2.967 0.00
59.022 -95.874 2.974 159.85
59.022 -94.126 2.983 285.81
59.022 -92.379 2.985 0.00
59.022 -90.632 2.972 0.00
59.022 -88.884 2.963 0.00
59.022 -87.137 2.991 85.91
59.022 -85.390 3.036 104.90
59.022 -83.643 3.066 243.78
59.022 -81.895 3.049 194.82
59.022 -80.148 3.007 0.00
59.022 -78.401 2.985 67.94
59.022 -76.654 2.992 78.40
59.022 -74.906 3.027 34.98
59.022 -73.159 3.053 305.69
59.022 -71.412 2.999 0.00
59.022 -69.664 2.962 25.09
59.022 -67.917 2.960 6.27
59.022 -66.170 2.966 14.84
59.022 -64.423 2.960 0.00
59.022 -62.675 2.956 0.00
59.022 -60.928 2.956 0.00
59.022 -59.181 2.957 0.00
59.022 -57.433 2.957 0.00
59.022 -55.686 2.957 0.00
59.022 -53.939 2.957 0.00
59.022 -52.192 2.957 0.00
59.022 -50.444 2.957 0.00
59.921 -149.612 2.957 0.00
59.921 -147.818 2.957 0.00
59.921 -146.023 2.957 0.00
59.921 -144.229 2.957 0.00
59.921 -142.434 2.956 0.00
59.921 -140.640 2.954 18.12
59.921 -138.845 2.951 118.45
59.921 -137.051 2.948 55.10
59.921 -135.257 2.948 572.49
59.921 -133.462 2.947 185.91
59.921 -131.668 2.950 48.96
59.921 -129.873 2.950 162.85
59.921 -128.079 2.951 50.96
59.921 -126.284 2.955 0.00
59.921 -124.490 2.957 0.00
59.921 -122.696 2.957 0.00
59.921 -120.901 2.956 0.00
59.921 -119.107 2.957 0.00
59.921 -117.312 2.957 0.00
59.921 -115.518 2.957 0.00
59.921 -113.724 2.957 0.00
59.921 -111.929 2.956 0.00
