38.336 -82.170 3.094 73926.77
38.336 -81.023 3.146 72702.63
38.336 -79.876 3.254 73520.11
38.336 -78.730 3.310 68549.02
38.336 -77.583 3.268 38892.62
38.336 -76.437 3.262 15949.17
38.336 -75.290 3.312 5105.93
38.336 -74.143 3.304 483.70
38.336 -72.997 3.190 22.00
38.336 -71.850 3.141 0.00
38.336 -70.704 3.147 0.00
38.336 -69.557 3.153 0.00
38.336 -68.411 3.153 0.00
38.336 -67.264 3.152 0.00
39.236 -131.880 3.152 0.00
39.236 -130.719 3.152 0.00
39.236 -129.558 3.153 0.00
39.236 -128.397 3.154 0.00
39.236 -127.235 3.154 0.00
39.236 -126.074 3.157 8.57
39.236 -124.913 3.141 1.38
39.236 -123.752 3.060 1154.24
39.236 -122.591 3.058 15314.90
39.236 -121.430 3.178 23566.80
39.236 -120.269 3.120 50739.49
39.236 -119.107 3.074 85964.98
39.236 -117.946 3.107 57141.27
39.236 -116.785 3.127 58565.32
39.236 -115.624 3.168 68194.88
39.236 -114.463 3.149 73880.32
39.236 -113.302 3.259 79772.20
39.236 -112.141 3.125 82429.55
39.236 -110.980 3.018 72113.00
39.236 -109.818 3.042 65392.09
39.236 -108.657 3.082 68563.98
39.236 -107.496 2.944 70662.88
39.236 -106.335 2.888 65441.09
39.236 -105.174 2.971 47777.78
39.236 -104.013 3.066 39671.10
39.236 -102.852 3.100 47656.48
39.236 -101.690 3.131 47232.86
39.236 -100.529 3.100 51483.04
39.236 -99.368 3.076 65464.36
39.236 -98.207 3.115 66459.07
39.236 -97.046 3.156 77922.91
39.236 -95.885 3.188 70110.25
39.236 -94.724 3.125 77085.68
39.236 -93.563 3.143 97603.40
39.236 -92.401 3.167 91437.56
39.236 -91.240 3.183 98732.38
39.236 -90.079 3.136 82015.59
39.236 -88.918 3.148 83617.16
39.236 -87.757 3.183 75806.06
39.236 -86.596 3.152 56915.04
39.236 -85.435 3.093 55519.02
39.236 -84.273 3.146 67153.48
39.236 -83.112 3.160 64307.90
39.236 -81.951 3.118 71741.15
39.236 -80.790 3.161 59826.26
39.236 -79.629 3.208 52413.34
39.236 -78.468 3.206 37048.55
39.236 -77.307 3.221 24336.33
39.236 -76.145 3.271 18235.89
39.236 -74.984 3.324 7543.58
39.236 -73.823 3.282 551.74
39.236 -72.662 3.180 22.00
39.236 -71.501 3.132 0.00
39.236 -70.340 3.142 0.00
39.236 -69.179 3.152 0.00
39.236 -68.018 3.153 0.00
39.236 -66.856 3.152 0.00
40.135 -132.306 3.152 0.00
40.135 -131.130 3.153 0.00
40.135 -129.954 3.156 0.00
40.135 -128.777 3.142 0.00
40.135 -127.601 3.116 6.73
40.135 -126.424 3.125 3.36
40.135 -125.248 3.121 0.00
40.135 -124.072 2.852 11449.61
40.135 -122.895 2.667 33185.54
40.135 -121.719 2.880 32587.17
40.135 -120.543 2.978 70806.79
40.135 -119.366 3.131 80853.65
40.135 -118.190 3.190 57817.48
40.135 -117.014 3.218 62996.05
40.135 -115.837 3.182 67992.80
40.135 -114.661 3.324 88004.64
40.135 -113.484 3.460 84634.65
40.135 -112.308 3.210 83235.23
40.135 -111.132 2.966 71369.76
40.135 -109.955 2.870 66646.66
40.135 -108.779 2.893 72653.30
40.135 -107.603 2.913 68095.06
40.135 -106.426 2.884 53905.68
40.135 -105.250 2.884 46454.74
40.135 -104.074 2.866 39271.86
40.135 -102.897 2.927 37919.41
40.135 -101.721 3.043 38464.17
40.135 -100.545 3.044 40219.64
40.135 -99.368 3.077 49305.82
40.135 -98.192 3.085 55235.57
40.135 -97.015 3.105 68612.85
40.135 -95.839 3.148 77155.86
40.135 -94.663 3.144 75070.04
40.135 -93.486 3.146 75080.08
40.135 -92.310 3.193 75662.39
40.135 -91.134 3.194 66306.17
40.135 -89.957 3.142 53666.96
40.135 -88.781 3.126 45675.62
40.135 -87.605 3.185 53338.84
40.135 -86.428 3.209 47509.09
40.135 -85.252 3.184 66193.46
40.135 -84.076 3.159 72609.48
40.135 -82.899 3.183 56148.13
40.135 -81.723 3.149 64788.14
40.135 -80.546 3.092 53557.84
40.135 -79.370 3.112 49243.11
40.135 -78.194 3.120 37701.46
40.135 -77.017 3.147 37211.29
40.135 -75.841 3.187 19116.05
40.135 -74.665 3.253 13021.75
40.135 -73.488 3.261 2279.29
40.135 -72.312 3.204 22.00
40.135 -71.136 3.139 0.00
40.135 -69.959 3.136 0.00
40.135 -68.783 3.148 0.00
40.135 -67.607 3.152 0.00
40.135 -66.430 3.152 0.00
41.034 -132.752 3.155 0.00
41.034 -131.560 3.155 0.00
41.034 -130.368 3.140 0.00
41.034 -129.175 3.107 5.01
41.034 -127.983 3.141 5.28
41.034 -126.791 3.346 0.00
41.034 -125.598 3.503 237.08
41.034 -124.406 3.068 57305.93
41.034 -123.214 2.753 44567.05
41.034 -122.022 2.977 42420.13
41.034 -120.829 3.113 40784.24
41.034 -119.637 3.071 57254.83
41.034 -118.445 3.142 61664.05
41.034 -117.252 3.184 55803.89
41.034 -116.060 3.143 55537.68
41.034 -114.868 3.317 111380.23
41.034 -113.676 3.460 80429.33
41.034 -112.483 3.270 76261.87
41.034 -111.291 2.986 72294.05
41.034 -110.099 2.859 82126.44
41.034 -108.906 2.863 63435.27
41.034 -107.714 2.943 57464.29
41.034 -106.522 3.015 43159.75
41.034 -105.330 3.044 37801.43
41.034 -104.137 2.909 34631.04
41.034 -102.945 2.906 29660.52
41.034 -101.753 3.028 32187.91
41.034 -100.560 3.016 38076.22
41.034 -99.368 3.008 48373.90
41.034 -98.176 3.061 56653.68
41.034 -96.984 3.051 69201.88
41.034 -95.791 3.020 73643.10
41.034 -94.599 3.050 73594.73
41.034 -93.407 3.123 72106.38
41.034 -92.215 3.180 65181.59
41.034 -91.022 3.215 52613.04
41.034 -89.830 3.121 52148.36
41.034 -88.638 3.158 41335.89
41.034 -87.445 3.182 40988.36
41.034 -86.253 3.158 43532.11
41.034 -85.061 3.178 63567.34
41.034 -83.869 3.172 52336.39
41.034 -82.676 3.168 49906.50
41.034 -81.484 3.141 42965.08
41.034 -80.292 3.155 47460.23
41.034 -79.099 3.141 44782.15
41.034 -77.907 3.139 42222.89
41.034 -76.715 3.166 36605.09
41.034 -75.523 3.187 35216.96
41.034 -74.330 3.224 22602.77
41.034 -73.138 3.302 12331.91
41.034 -71.946 3.289 1547.53
41.034 -70.753 3.197 737.79
41.034 -69.561 3.142 0.00
41.034 -68.369 3.141 0.00
41.034 -67.177 3.150 0.00
41.034 -65.984 3.153 0.00
41.934 -133.219 3.155 0.00
41.934 -132.010 3.148 0.00
41.934 -130.801 3.116 3.56
41.934 -129.592 3.125 6.92
41.934 -128.383 3.311 0.00
41.934 -127.174 3.851 76.92
41.934 -125.965 4.404 1395.53
41.934 -124.756 3.730 16914.37
41.934 -123.547 2.924 26788.90
41.934 -122.338 2.895 26904.20
41.934 -121.129 3.059 28928.84
41.934 -119.920 3.109 41636.58
41.934 -118.711 3.180 45593.65
41.934 -117.502 3.232 54246.68
41.934 -116.293 3.156 65260.66
41.934 -115.085 3.110 79419.53
41.934 -113.876 3.367 68580.68
41.934 -112.667 3.505 70605.80
41.934 -111.458 3.093 86410.34
41.934 -110.249 2.912 81385.65
41.934 -109.040 2.913 66471.09
41.934 -107.831 2.933 52528.86
41.934 -106.622 3.029 44242.09
41.934 -105.413 3.109 37179.61
41.934 -104.204 2.952 30219.02
41.934 -102.995 2.971 28227.67
41.934 -101.786 3.045 29514.80
41.934 -100.577 3.071 35725.25
41.934 -99.368 3.065 51231.72
41.934 -98.159 3.134 54254.68
41.934 -96.950 3.138 65901.02
41.934 -95.741 3.009 74917.57
41.934 -94.532 3.033 73324.58
41.934 -93.323 3.116 64904.70
41.934 -92.115 3.184 52063.96
41.934 -90.906 3.177 58896.62
41.934 -89.697 3.107 41872.94
41.934 -88.488 3.218 45538.81
41.934 -87.279 3.280 43952.31
41.934 -86.070 3.294 47580.11
41.934 -84.861 3.238 48789.49
41.934 -83.652 3.185 41180.19
41.934 -82.443 3.153 39912.36
41.934 -81.234 3.143 40388.49
41.934 -80.025 3.140 42081.29
41.934 -78.816 3.122 47215.57
41.934 -77.607 3.085 42629.42
41.934 -76.398 3.138 38919.96
41.934 -75.189 3.259 32863.50
41.934 -73.980 3.339 27322.84
41.934 -72.771 3.429 15930.71
41.934 -71.562 3.427 10608.83
41.934 -70.353 3.313 7043.06
41.934 -69.145 3.187 0.00
41.934 -67.936 3.138 0.00
41.934 -66.727 3.144 0.00
41.934 -65.518 3.153 0.00
42.833 -133.707 3.142 0.00
42.833 -132.481 3.133 2.37
42.833 -131.254 3.130 8.37
42.833 -130.028 3.213 0.00
42.833 -128.802 3.508 7.99
42.833 -127.575 4.139 305.70
42.833 -126.349 4.511 10139.97
42.833 -125.122 3.745 11426.85
42.833 -123.896 3.108 9886.57
42.833 -122.670 2.960 20547.30
42.833 -121.443 2.993 22623.47
42.833 -120.217 3.047 28713.16
42.833 -118.990 3.048 37501.63
42.833 -117.764 3.221 47726.69
42.833 -116.538 3.252 60678.48
42.833 -115.311 3.132 56777.59
42.833 -114.085 3.266 63946.68
42.833 -112.858 3.381 62862.65
42.833 -111.632 3.094 66858.20
42.833 -110.406 2.860 67993.27
42.833 -109.179 2.892 61883.25
42.833 -107.953 2.949 49572.55
42.833 -106.727 2.994 44512.37
42.833 -105.500 3.091 38784.80
42.833 -104.274 3.120 35266.63
42.833 -103.047 3.135 32514.38
42.833 -101.821 3.052 33608.51
42.833 -100.595 3.040 35794.04
42.833 -99.368 3.161 42482.99
42.833 -98.142 3.186 60164.54
42.833 -96.915 3.165 64196.29
42.833 -95.689 3.132 66974.09
42.833 -94.463 3.047 67900.19
42.833 -93.236 3.071 55967.25
42.833 -92.010 3.167 44456.33
42.833 -90.783 3.172 59904.25
42.833 -89.557 3.141 44896.10
42.833 -88.331 3.216 42254.30
42.833 -87.104 3.241 49171.07
42.833 -85.878 3.236 42870.65
42.833 -84.652 3.213 43278.82
42.833 -83.425 3.183 41004.21
42.833 -82.199 3.162 38540.69
42.833 -80.972 3.152 43193.43
42.833 -79.746 3.168 41127.24
42.833 -78.520 3.112 44548.67
42.833 -77.293 3.111 43989.95
42.833 -76.067 3.169 39490.07
42.833 -74.840 3.301 34400.99
42.833 -73.614 3.408 36205.26
42.833 -72.388 3.522 33433.64
42.833 -71.161 3.541 11030.95
42.833 -69.935 3.389 1550.41
42.833 -68.708 3.239 26.90
42.833 -67.482 3.158 0.00
42.833 -66.256 3.143 0.00
42.833 -65.029 3.144 0.00
43.732 -134.219 3.124 1.52
43.732 -132.974 3.127 9.50
43.732 -131.729 3.205 0.00
43.732 -130.485 3.367 0.00
43.732 -129.240 3.595 283.72
43.732 -127.995 3.696 212.35
43.732 -126.751 3.476 34952.82
43.732 -125.506 3.119 17750.34
43.732 -124.261 2.924 16887.61
43.732 -123.017 2.974 22920.04
43.732 -121.772 3.030 25493.94
43.732 -120.527 3.010 29373.33
43.732 -119.283 3.008 35971.25
43.732 -118.038 3.209 39736.36
43.732 -116.793 3.251 50613.41
43.732 -115.549 3.122 44355.52
43.732 -114.304 3.116 51929.07
43.732 -113.059 3.165 45808.73
43.732 -111.815 3.086 45367.08
43.732 -110.570 2.891 55254.02
43.732 -109.325 2.976 47439.34
43.732 -108.081 3.032 44620.56
43.732 -106.836 2.960 41119.12
43.732 -105.591 3.025 36431.18
43.732 -104.347 3.094 33704.12
43.732 -103.102 3.146 30070.23
43.732 -101.858 3.065 30392.50
43.732 -100.613 3.074 35171.29
43.732 -99.368 3.209 45735.17
43.732 -98.124 3.205 58489.14
43.732 -96.879 3.239 73372.74
43.732 -95.634 3.280 69084.62
43.732 -94.390 3.174 62937.97
43.732 -93.145 3.111 58336.61
43.732 -91.900 3.193 41253.89
43.732 -90.656 3.198 52376.23
43.732 -89.411 3.148 47010.77
43.732 -88.166 3.209 41967.20
43.732 -86.922 3.210 42013.21
43.732 -85.677 3.224 61384.69
43.732 -84.432 3.217 42650.57
43.732 -83.188 3.198 39548.61
43.732 -81.943 3.200 34793.81
43.732 -80.698 3.185 45843.71
43.732 -79.454 3.156 49670.50
43.732 -78.209 3.096 47399.31
43.732 -76.964 3.181 49555.91
43.732 -75.720 3.302 43080.32
43.732 -74.475 3.388 43495.43
43.732 -73.230 3.383 33044.68
43.732 -71.986 3.460 27399.81
43.732 -70.741 3.492 27604.20
43.732 -69.496 3.340 6615.24
43.732 -68.252 3.239 401.67
43.732 -67.007 3.167 115.89
43.732 -65.763 3.149 0.00
43.732 -64.518 3.138 0.00
44.632 -134.754 3.132 11.34
44.632 -133.490 3.154 0.00
44.632 -132.227 3.344 0.00
44.632 -130.963 3.569 215.79
44.632 -129.699 3.619 210.14
44.632 -128.435 3.404 176.00
44.632 -127.172 3.087 1996.04
44.632 -125.908 2.866 10262.89
44.632 -124.644 2.805 13789.01
44.632 -123.380 2.943 23487.53
44.632 -122.116 3.078 22350.28
44.632 -120.853 3.086 24810.10
44.632 -119.589 3.137 28101.65
44.632 -118.325 3.175 36889.60
44.632 -117.061 3.201 42304.96
44.632 -115.797 3.171 38834.00
44.632 -114.534 3.146 42929.04
44.632 -113.270 3.092 48137.36
44.632 -112.006 3.071 42809.74
44.632 -110.742 2.966 42366.63
44.632 -109.479 3.008 35339.48
44.632 -108.215 3.132 29136.97
44.632 -106.951 3.045 28992.87
44.632 -105.687 3.015 26356.79
44.632 -104.423 3.093 23915.53
44.632 -103.160 3.134 25434.32
44.632 -101.896 3.119 27768.76
44.632 -100.632 3.110 28932.70
44.632 -99.368 3.151 36553.22
44.632 -98.104 3.274 49131.77
44.632 -96.841 3.238 68211.52
44.632 -95.577 3.243 61810.98
44.632 -94.313 3.200 58027.97
44.632 -93.049 3.110 51371.20
44.632 -91.785 3.183 45534.62
44.632 -90.522 3.213 45296.58
44.632 -89.258 3.165 47000.64
44.632 -87.994 3.255 40775.75
44.632 -86.730 3.240 37892.47
44.632 -85.467 3.202 41919.21
44.632 -84.203 3.202 42650.08
44.632 -82.939 3.307 23842.74
44.632 -81.675 3.362 22856.46
44.632 -80.411 3.277 26140.51
44.632 -79.148 3.155 35122.29
44.632 -77.884 3.035 48843.68
44.632 -76.620 3.120 47220.21
44.632 -75.356 3.318 43890.58
44.632 -74.092 3.332 40369.24
44.632 -72.829 3.285 28717.10
44.632 -71.565 3.288 20731.77
44.632 -70.301 3.277 18361.03
44.632 -69.037 3.220 11323.00
44.632 -67.773 3.202 10009.92
44.632 -66.510 3.170 133.64
44.632 -65.246 3.142 237.84
44.632 -63.982 3.141 239.55
45.531 -135.316 3.203 10.68
45.531 -134.032 3.249 0.00
45.531 -132.748 3.481 150.20
45.531 -131.464 3.621 229.36
45.531 -130.180 3.572 109.25
45.531 -128.897 3.499 255.76
45.531 -127.613 3.517 609.49
45.531 -126.329 3.550 1819.88
45.531 -125.045 3.318 4913.74
45.531 -123.761 3.097 12195.44
45.531 -122.477 3.053 18335.93
45.531 -121.193 3.117 21533.61
45.531 -119.910 3.207 27628.25
45.531 -118.626 3.187 38631.41
45.531 -117.342 3.103 37794.55
45.531 -116.058 3.171 32672.23
45.531 -114.774 3.130 33249.76
45.531 -113.490 3.115 37139.66
45.531 -112.207 3.182 49353.16
45.531 -110.923 3.119 29298.65
45.531 -109.639 3.077 21130.84
45.531 -108.355 3.144 21234.03
45.531 -107.071 3.078 23712.84
45.531 -105.787 3.020 22519.15
45.531 -104.504 3.133 17774.15
45.531 -103.220 3.172 17925.77
45.531 -101.936 3.180 25403.54
45.531 -100.652 3.205 28678.18
45.531 -99.368 3.198 36629.03
45.531 -98.084 3.299 48564.90
45.531 -96.801 3.257 55415.34
45.531 -95.517 3.180 57157.32
45.531 -94.233 3.149 47916.21
45.531 -92.949 3.054 40964.29
45.531 -91.665 3.114 45523.41
45.531 -90.381 3.220 32291.96
45.531 -89.097 3.236 40184.83
45.531 -87.814 3.255 33281.75
45.531 -86.530 3.214 34066.65
45.531 -85.246 3.170 30632.35
45.531 -83.962 3.241 28139.22
45.531 -82.678 3.381 33190.15
45.531 -81.394 3.438 23322.08
45.531 -80.111 3.445 21618.10
45.531 -78.827 3.337 23857.39
45.531 -77.543 3.113 31702.09
45.531 -76.259 3.046 44415.36
45.531 -74.975 3.298 25082.40
45.531 -73.691 3.365 25927.71
45.531 -72.408 3.303 21200.86
45.531 -71.124 3.275 18470.34
45.531 -69.840 3.233 15550.78
45.531 -68.556 3.171 6808.94
45.531 -67.272 3.167 1369.19
45.531 -65.988 3.160 923.06
45.531 -64.705 3.141 395.02
45.531 -63.421 3.178 211.09
46.431 -135.904 3.347 242.60
46.431 -134.600 3.409 105.46
46.431 -133.295 3.531 250.78
46.431 -131.990 3.498 152.86
46.431 -130.685 3.459 51.95
46.431 -129.380 3.695 311.69
46.431 -128.075 4.347 626.48
46.431 -126.770 4.728 1831.11
46.431 -125.466 4.202 3813.17
46.431 -124.161 3.414 5954.46
46.431 -122.856 3.114 14326.22
46.431 -121.551 3.091 21566.16
46.431 -120.246 3.242 28601.21
46.431 -118.941 3.279 35617.07
46.431 -117.636 3.259 27504.31
46.431 -116.331 3.259 22810.49
46.431 -115.027 3.195 28465.21
46.431 -113.722 3.101 32793.33
46.431 -112.417 3.116 26099.96
46.431 -111.112 3.028 18250.49
46.431 -109.807 2.960 15781.74
46.431 -108.502 3.098 17376.31
46.431 -107.197 3.154 19289.43
46.431 -105.893 3.044 24656.87
46.431 -104.588 3.120 15766.91
46.431 -103.283 3.136 16091.06
46.431 -101.978 3.144 23073.65
46.431 -100.673 3.126 26853.50
46.431 -99.368 3.156 28839.86
46.431 -98.063 3.288 34310.13
46.431 -96.758 3.352 43394.32
46.431 -95.454 3.272 46740.20
46.431 -94.149 3.223 35916.51
46.431 -92.844 3.127 31871.40
46.431 -91.539 3.069 24911.16
46.431 -90.234 3.155 18720.84
46.431 -88.929 3.227 17008.96
46.431 -87.624 3.257 16507.34
46.431 -86.320 3.181 22506.30
46.431 -85.015 3.202 22714.23
46.431 -83.710 3.256 19277.03
46.431 -82.405 3.323 19576.76
46.431 -81.100 3.360 15208.41
46.431 -79.795 3.280 21127.43
46.431 -78.490 3.193 21912.66
46.431 -77.185 3.153 22254.49
46.431 -75.881 3.154 19231.74
46.431 -74.576 3.261 15137.74
46.431 -73.271 3.257 21575.11
46.431 -71.966 3.173 19714.66
46.431 -70.661 3.188 14280.53
46.431 -69.356 3.170 9106.98
46.431 -68.051 3.120 9302.36
46.431 -66.747 3.157 508.89
46.431 -65.442 3.159 575.94
46.431 -64.137 3.134 369.58
46.431 -62.832 3.232 106.88
47.330 -136.522 3.540 181.12
47.330 -135.195 3.572 300.81
47.330 -133.868 3.514 144.86
47.330 -132.541 3.441 10.99
47.330 -131.214 3.551 141.86
47.330 -129.887 3.975 302.70
47.330 -128.561 4.934 985.64
47.330 -127.234 5.155 2672.60
47.330 -125.907 4.568 3160.67
47.330 -124.580 3.590 5164.63
47.330 -123.253 3.097 13714.23
47.330 -121.926 3.018 20064.87
47.330 -120.599 3.337 23431.81
47.330 -119.272 3.545 21908.00
47.330 -117.945 3.408 20605.78
47.330 -116.618 3.239 20843.12
47.330 -115.291 3.161 22594.04
47.330 -113.964 3.089 19502.40
47.330 -112.637 3.127 17860.04
47.330 -111.311 3.074 13918.50
47.330 -109.984 3.012 13485.75
47.330 -108.657 3.148 12899.34
47.330 -107.330 3.231 15934.83
47.330 -106.003 3.096 16956.68
47.330 -104.676 3.090 17258.53
47.330 -103.349 3.104 15121.66
47.330 -102.022 3.086 19154.42
47.330 -100.695 3.095 22993.74
47.330 -99.368 3.166 23319.21
47.330 -98.041 3.255 33566.72
47.330 -96.714 3.282 35096.31
47.330 -95.387 3.238 29397.78
47.330 -94.061 3.210 27467.42
47.330 -92.734 3.159 21390.34
47.330 -91.407 3.143 13160.70
47.330 -90.080 3.213 13343.70
47.330 -88.753 3.273 12875.23
47.330 -87.426 3.344 8292.47
47.330 -86.099 3.391 5223.20
47.330 -84.772 3.460 4538.54
47.330 -83.445 3.469 4853.52
47.330 -82.118 3.382 5982.82
47.330 -80.791 3.307 7488.73
47.330 -79.464 3.308 9008.85
47.330 -78.137 3.310 8617.62
47.330 -76.811 3.312 11488.94
47.330 -75.484 3.296 9673.60
47.330 -74.157 3.322 8233.47
47.330 -72.830 3.294 7145.49
47.330 -71.503 3.202 6579.41
47.330 -70.176 3.158 7515.70
47.330 -68.849 3.136 796.22
47.330 -67.522 3.124 419.70
47.330 -66.195 3.141 495.72
47.330 -64.868 3.133 342.99
47.330 -63.541 3.138 192.37
47.330 -62.214 3.306 261.69
48.229 -137.170 3.767 399.84
48.229 -135.820 3.722 104.51
48.229 -134.470 3.584 63.48
48.229 -133.120 3.575 149.39
48.229 -131.770 3.781 192.27
48.229 -130.420 4.298 734.71
48.229 -129.070 5.041 1187.29
48.229 -127.720 4.788 3066.55
48.229 -126.370 4.253 2884.57
48.229 -125.020 3.542 7104.55
48.229 -123.670 3.111 16821.34
48.229 -122.320 3.001 17168.48
48.229 -120.969 3.332 17706.27
48.229 -119.619 3.548 14694.45
48.229 -118.269 3.375 15562.11
48.229 -116.919 3.176 18798.85
48.229 -115.569 3.024 14944.28
48.229 -114.219 3.095 13743.43
48.229 -112.869 3.176 13954.34
48.229 -111.519 3.240 9538.80
48.229 -110.169 3.188 10669.31
48.229 -108.819 3.190 9848.92
48.229 -107.469 3.174 13071.13
48.229 -106.119 3.028 11574.09
48.229 -104.769 3.010 18266.74
48.229 -103.418 3.056 13237.92
48.229 -102.068 3.115 16742.27
48.229 -100.718 3.158 17092.24
48.229 -99.368 3.179 19766.81
48.229 -98.018 3.206 18463.04
48.229 -96.668 3.219 21619.84
48.229 -95.318 3.254 24046.10
48.229 -93.968 3.287 16472.69
48.229 -92.618 3.259 7541.19
48.229 -91.268 3.223 6367.07
48.229 -89.918 3.261 4128.90
48.229 -88.568 3.251 5547.48
48.229 -87.217 3.274 4020.75
48.229 -85.867 3.288 3464.44
48.229 -84.517 3.311 3058.08
48.229 -83.167 3.304 2949.82
48.229 -81.817 3.275 3835.63
48.229 -80.467 3.281 4120.25
48.229 -79.117 3.318 3946.29
48.229 -77.767 3.381 3836.79
48.229 -76.417 3.377 3356.15
48.229 -75.067 3.307 2093.89
48.229 -73.717 3.268 2050.14
48.229 -72.367 3.223 1227.79
48.229 -71.017 3.183 865.57
48.229 -69.666 3.174 257.92
48.229 -68.316 3.154 84.54
48.229 -66.966 3.113 384.81
48.229 -65.616 3.102 346.20
48.229 -64.266 3.121 337.79
48.229 -62.916 3.213 265.19
48.229 -61.566 3.486 265.59
49.129 -137.851 4.065 597.93
49.129 -136.477 3.990 167.83
49.129 -135.103 3.724 148.85
49.129 -133.728 3.703 405.59
49.129 -132.354 3.947 672.32
49.129 -130.979 4.571 958.98
49.129 -129.605 4.874 840.00
49.129 -128.231 4.275 3175.43
49.129 -126.856 3.807 4692.85
49.129 -125.482 3.478 15116.05
49.129 -124.107 3.203 18208.86
49.129 -122.733 3.067 13865.69
49.129 -121.359 3.202 12248.52
49.129 -119.984 3.370 13884.02
49.129 -118.610 3.245 11843.25
49.129 -117.235 3.067 11301.18
49.129 -115.861 3.058 9155.77
49.129 -114.487 3.144 8875.47
49.129 -113.112 3.246 10236.49
49.129 -111.738 3.245 8112.11
49.129 -110.363 3.119 7585.69
49.129 -108.989 3.006 8278.17
49.129 -107.615 3.033 8774.20
49.129 -106.240 2.985 10518.29
49.129 -104.866 2.944 11785.74
49.129 -103.491 2.983 13601.86
49.129 -102.117 3.075 10457.57
49.129 -100.743 3.144 11593.91
49.129 -99.368 3.219 9911.26
49.129 -97.994 3.265 10310.78
49.129 -96.619 3.268 9712.87
49.129 -95.245 3.311 7609.76
49.129 -93.871 3.357 2414.04
49.129 -92.496 3.324 2780.79
49.129 -91.122 3.274 3304.62
49.129 -89.747 3.244 3856.95
49.129 -88.373 3.192 4001.30
49.129 -86.999 3.181 4008.25
49.129 -85.624 3.146 3222.59
49.129 -84.250 3.181 3007.41
49.129 -82.875 3.222 3827.67
49.129 -81.501 3.233 2763.47
49.129 -80.127 3.254 3432.80
49.129 -78.752 3.276 2311.41
49.129 -77.378 3.307 2079.48
49.129 -76.003 3.303 1846.43
49.129 -74.629 3.242 1340.86
49.129 -73.255 3.209 1100.84
49.129 -71.880 3.175 721.30
49.129 -70.506 3.170 366.04
49.129 -69.131 3.172 254.06
49.129 -67.757 3.148 388.72
49.129 -66.383 3.123 243.02
49.129 -65.008 3.161 155.72
49.129 -63.634 3.267 96.04
49.129 -62.259 3.472 143.74
49.129 -60.885 3.833 470.56
50.028 -138.567 4.254 630.22
50.028 -137.167 4.137 703.73
50.028 -135.767 3.745 567.42
50.028 -134.367 3.703 526.44
50.028 -132.967 4.095 311.70
50.028 -131.567 4.645 703.24
50.028 -130.167 4.366 1284.19
50.028 -128.767 3.728 4043.40
50.028 -127.368 3.475 16165.36
50.028 -125.968 3.341 20027.23
50.028 -124.568 3.184 16138.45
50.028 -123.168 3.091 12893.92
50.028 -121.768 3.194 13884.12
50.028 -120.368 3.273 11146.27
50.028 -118.968 3.159 9630.89
50.028 -117.568 3.050 10348.68
50.028 -116.168 3.111 8407.15
50.028 -114.768 3.094 7795.18
50.028 -113.368 3.090 7761.18
50.028 -111.968 3.037 7703.44
50.028 -110.568 2.966 6438.50
50.028 -109.168 2.902 8187.05
50.028 -107.768 2.958 7769.52
50.028 -106.368 3.029 9343.77
50.028 -104.968 3.006 9120.18
50.028 -103.568 3.010 13819.86
50.028 -102.168 3.105 8753.39
50.028 -100.768 3.238 7953.15
50.028 -99.368 3.365 6684.60
50.028 -97.968 3.411 6281.29
50.028 -96.568 3.368 8244.93
50.028 -95.168 3.369 3206.13
50.028 -93.768 3.354 2929.83
50.028 -92.368 3.274 2438.48
50.028 -90.968 3.176 3759.15
50.028 -89.568 3.136 3283.34
50.028 -88.168 3.129 3323.53
50.028 -86.769 3.163 2801.57
50.028 -85.369 3.135 2375.14
50.028 -83.969 3.144 2785.78
50.028 -82.569 3.193 2745.84
50.028 -81.169 3.200 3040.22
50.028 -79.769 3.193 1855.66
50.028 -78.369 3.191 1160.83
50.028 -76.969 3.208 1703.23
50.028 -75.569 3.224 1965.34
50.028 -74.169 3.239 1441.55
50.028 -72.769 3.225 725.29
50.028 -71.369 3.192 437.59
50.028 -69.969 3.178 422.78
50.028 -68.569 3.174 313.83
50.028 -67.169 3.192 472.22
50.028 -65.769 3.273 88.48
50.028 -64.369 3.412 132.80
50.028 -62.969 3.623 163.84
50.028 -61.569 3.863 525.50
50.028 -60.169 4.028 195.25
50.927 -139.320 4.113 964.30
50.927 -137.893 4.023 803.21
50.927 -136.466 3.677 350.64
50.927 -135.040 3.749 2.00
50.927 -133.613 4.180 677.30
50.927 -132.186 4.344 460.51
50.927 -130.759 3.826 2261.50
50.927 -129.332 3.443 20175.94
50.927 -127.905 3.363 27337.56
50.927 -126.478 3.226 17892.66
50.927 -125.052 3.145 17048.92
50.927 -123.625 3.157 13341.80
50.927 -122.198 3.152 12045.40
50.927 -120.771 3.190 9652.36
50.927 -119.344 3.019 9432.31
50.927 -117.917 2.888 10151.11
50.927 -116.490 3.005 7403.71
50.927 -115.064 3.035 7165.01
50.927 -113.637 3.010 6352.41
50.927 -112.210 2.989 7196.58
50.927 -110.783 2.985 5750.74
50.927 -109.356 3.013 6750.50
50.927 -107.929 3.110 6720.55
50.927 -106.502 3.313 9013.16
50.927 -105.076 3.308 9956.96
50.927 -103.649 3.247 12347.82
50.927 -102.222 3.237 10937.43
50.927 -100.795 3.326 6302.04
50.927 -99.368 3.410 5395.11
50.927 -97.941 3.430 4955.34
50.927 -96.514 3.374 3597.81
50.927 -95.088 3.268 3257.48
50.927 -93.661 3.190 2409.97
50.927 -92.234 3.119 2797.60
50.927 -90.807 3.137 3219.41
50.927 -89.380 3.190 2563.52
50.927 -87.953 3.220 2810.91
50.927 -86.526 3.254 3130.32
50.927 -85.100 3.237 2640.85
50.927 -83.673 3.257 1305.38
50.927 -82.246 3.280 2794.17
50.927 -80.819 3.255 2647.00
50.927 -79.392 3.217 1000.41
50.927 -77.965 3.200 1831.12
50.927 -76.538 3.226 1215.75
50.927 -75.112 3.256 1519.44
50.927 -73.685 3.294 1312.36
50.927 -72.258 3.284 460.76
50.927 -70.831 3.238 538.00
50.927 -69.404 3.217 371.69
50.927 -67.977 3.274 440.49
50.927 -66.550 3.418 200.37
50.927 -65.124 3.631 259.76
50.927 -63.697 3.855 306.71
50.927 -62.270 3.963 529.04
50.927 -60.843 3.920 366.76
50.927 -59.416 3.913 783.15
51.827 -140.113 3.864 915.96
51.827 -138.658 3.820 218.79
51.827 -137.203 3.637 21.97
51.827 -135.747 3.806 155.82
51.827 -134.292 4.201 838.16
51.827 -132.837 4.160 671.30
51.827 -131.382 3.667 29681.86
51.827 -129.927 3.575 42238.00
51.827 -128.472 3.512 21801.68
51.827 -127.016 3.320 16142.42
51.827 -125.561 3.234 13049.53
51.827 -124.106 3.158 10884.27
51.827 -122.651 3.103 9285.38
51.827 -121.196 3.132 6557.56
51.827 -119.741 3.061 6608.59
51.827 -118.285 2.992 6035.24
51.827 -116.830 3.126 5786.82
51.827 -115.375 3.155 4295.62
51.827 -113.920 3.129 4586.91
51.827 -112.465 3.109 6385.62
51.827 -111.010 3.161 6236.05
51.827 -109.554 3.244 6757.47
51.827 -108.099 3.354 7606.24
51.827 -106.644 3.517 10349.60
51.827 -105.189 3.527 11357.62
51.827 -103.734 3.318 10867.28
51.827 -102.279 3.236 11736.46
51.827 -100.823 3.237 6418.48
51.827 -99.368 3.240 4535.06
51.827 -97.913 3.220 4300.89
51.827 -96.458 3.183 2303.61
51.827 -95.003 3.150 3114.89
51.827 -93.548 3.116 2744.62
51.827 -92.092 3.121 2361.84
51.827 -90.637 3.199 2954.84
51.827 -89.182 3.263 2534.90
51.827 -87.727 3.294 3302.74
51.827 -86.272 3.353 2770.66
51.827 -84.817 3.347 1880.05
51.827 -83.361 3.364 2185.75
51.827 -81.906 3.393 2070.41
51.827 -80.451 3.375 1467.31
51.827 -78.996 3.307 1939.12
51.827 -77.541 3.290 2042.47
51.827 -76.085 3.341 1477.97
51.827 -74.630 3.411 974.42
51.827 -73.175 3.456 1032.99
51.827 -71.720 3.468 813.58
51.827 -70.265 3.458 823.79
51.827 -68.810 3.477 403.38
51.827 -67.354 3.566 200.79
51.827 -65.899 3.752 205.39
51.827 -64.444 3.944 688.04
51.827 -62.989 3.990 723.43
51.827 -61.534 3.883 548.96
51.827 -60.079 3.758 735.24
51.827 -58.623 3.714 338.68
52.726 -140.948 3.747 278.74
52.726 -139.463 3.710 91.89
52.726 -137.978 3.679 135.84
52.726 -136.493 3.943 702.30
52.726 -135.008 4.244 610.43
52.726 -133.523 4.103 825.11
52.726 -132.038 3.699 4249.66
52.726 -130.553 3.568 6910.21
52.726 -129.068 3.534 5609.43
52.726 -127.583 3.425 5343.41
52.726 -126.098 3.354 5461.28
52.726 -124.613 3.310 7046.17
52.726 -123.128 3.359 4983.82
52.726 -121.643 3.431 4058.76
52.726 -120.158 3.308 5065.84
52.726 -118.673 3.217 5201.72
52.726 -117.188 3.276 4878.06
52.726 -115.703 3.324 4538.97
52.726 -114.218 3.313 4289.98
52.726 -112.733 3.258 7576.36
52.726 -111.248 3.195 7452.10
52.726 -109.763 3.255 7081.21
52.726 -108.278 3.242 9239.05
52.726 -106.793 3.238 11657.68
52.726 -105.308 3.299 11475.90
52.726 -103.823 3.161 10634.09
52.726 -102.338 3.095 10676.40
52.726 -100.853 3.086 7719.77
52.726 -99.368 3.144 4344.83
52.726 -97.883 3.165 3176.65
52.726 -96.398 3.170 2154.72
52.726 -94.913 3.165 2918.39
52.726 -93.428 3.173 1965.61
52.726 -91.943 3.209 2354.02
52.726 -90.458 3.252 2947.98
52.726 -88.973 3.236 2349.49
52.726 -87.488 3.223 2701.39
52.726 -86.003 3.291 2751.19
52.726 -84.518 3.285 1876.37
52.726 -83.033 3.315 1605.07
52.726 -81.548 3.377 1441.87
52.726 -80.063 3.386 1815.31
52.726 -78.578 3.319 2262.76
52.726 -77.093 3.316 1588.99
52.726 -75.608 3.368 1458.92
52.726 -74.123 3.444 1472.44
52.726 -72.638 3.508 707.32
52.726 -71.153 3.612 1261.44
52.726 -69.668 3.753 876.07
52.726 -68.183 3.837 623.84
52.726 -66.698 3.910 585.12
52.726 -65.213 3.974 866.29
52.726 -63.728 3.920 533.50
52.726 -62.243 3.800 538.44
52.726 -60.758 3.685 482.54
52.726 -59.273 3.593 31.97
52.726 -57.788 3.606 152.86
53.625 -141.829 3.719 586.42
53.625 -140.313 3.718 174.83
53.625 -138.796 3.782 382.65
53.625 -137.280 3.983 780.21
53.625 -135.763 4.097 195.80
53.625 -134.247 4.067 1127.94
53.625 -132.730 4.012 1786.02
53.625 -131.214 3.887 2400.96
53.625 -129.697 3.699 3212.05
53.625 -128.181 3.442 4100.36
53.625 -126.665 3.336 4397.99
53.625 -125.148 3.339 5591.77
53.625 -123.632 3.394 3847.53
53.625 -122.115 3.408 3384.81
53.625 -120.599 3.187 4529.41
53.625 -119.082 3.063 4168.43
53.625 -117.566 3.041 4540.98
53.625 -116.049 3.093 4391.21
53.625 -114.533 3.150 5388.35
53.625 -113.016 3.140 6127.44
53.625 -111.500 3.045 8186.92
53.625 -109.983 3.091 8902.72
53.625 -108.467 3.065 10473.59
53.625 -106.951 3.070 12811.15
53.625 -105.434 3.178 10693.27
53.625 -103.918 3.228 8538.49
53.625 -102.401 3.153 8283.95
53.625 -100.885 3.131 8860.31
53.625 -99.368 3.187 3639.71
53.625 -97.852 3.213 2914.35
53.625 -96.335 3.222 2397.86
53.625 -94.819 3.240 2217.70
53.625 -93.302 3.263 1892.06
53.625 -91.786 3.263 2124.61
53.625 -90.269 3.241 1927.55
53.625 -88.753 3.174 2540.98
53.625 -87.237 3.143 3264.74
53.625 -85.720 3.213 2467.46
53.625 -84.204 3.215 1163.83
53.625 -82.687 3.251 1406.60
53.625 -81.171 3.296 1310.22
53.625 -79.654 3.291 2109.08
53.625 -78.138 3.224 1763.20
53.625 -76.621 3.234 1436.92
53.625 -75.105 3.280 1291.20
53.625 -73.588 3.324 1673.96
53.625 -72.072 3.400 991.95
53.625 -70.555 3.590 1022.77
53.625 -69.039 3.863 1069.16
53.625 -67.523 4.019 1059.09
53.625 -66.006 3.986 681.37
53.625 -64.490 3.828 441.59
53.625 -62.973 3.690 438.03
53.625 -61.457 3.584 287.51
53.625 -59.940 3.504 106.90
53.625 -58.424 3.485 243.77
53.625 -56.907 3.539 265.72
54.525 -142.759 3.685 258.74
54.525 -141.209 3.698 317.70
54.525 -139.660 3.810 452.53
54.525 -138.110 3.880 317.70
54.525 -136.560 3.860 444.51
54.525 -135.011 3.951 1145.31
54.525 -133.461 4.190 1354.13
54.525 -131.911 4.022 2085.16
54.525 -130.362 3.700 3114.76
54.525 -128.812 3.322 4402.50
54.525 -127.262 3.236 4293.68
54.525 -125.713 3.233 4363.51
54.525 -124.163 3.277 4139.00
54.525 -122.613 3.282 3528.98
54.525 -121.064 3.099 3826.08
54.525 -119.514 2.982 3488.58
54.525 -117.964 2.941 3894.73
54.525 -116.415 3.002 4540.39
54.525 -114.865 3.124 5212.70
54.525 -113.315 3.163 6096.76
54.525 -111.766 3.152 8506.84
54.525 -110.216 3.147 10544.47
54.525 -108.666 3.094 11871.83
54.525 -107.117 3.060 12593.26
54.525 -105.567 3.214 8915.22
54.525 -104.017 3.337 6913.73
54.525 -102.468 3.232 7293.37
54.525 -100.918 3.193 7015.33
54.525 -99.368 3.180 5038.76
54.525 -97.819 3.203 2729.07
54.525 -96.269 3.248 2138.38
54.525 -94.719 3.292 2527.59
54.525 -93.170 3.294 2172.95
54.525 -91.620 3.271 1421.48
54.525 -90.070 3.236 2767.15
54.525 -88.520 3.160 2573.44
54.525 -86.971 3.126 2627.34
54.525 -85.421 3.208 1506.90
54.525 -83.871 3.237 1308.66
54.525 -82.322 3.252 1301.65
54.525 -80.772 3.249 1472.55
54.525 -79.222 3.214 2196.78
54.525 -77.673 3.177 1434.51
54.525 -76.123 3.191 923.09
54.525 -74.573 3.201 1370.78
54.525 -73.024 3.207 1098.82
54.525 -71.474 3.246 709.69
54.525 -69.924 3.394 638.19
54.525 -68.375 3.608 1124.44
54.525 -66.825 3.678 1120.83
54.525 -65.275 3.645 276.80
54.525 -63.726 3.537 355.40
54.525 -62.176 3.424 135.86
54.525 -60.626 3.398 99.88
54.525 -59.077 3.453 231.75
54.525 -57.527 3.486 186.80
54.525 -55.977 3.520 112.89
55.424 -143.742 3.630 495.54
55.424 -142.157 3.631 39.96
55.424 -140.572 3.727 564.41
55.424 -138.988 3.784 179.83
55.424 -137.403 3.801 609.32
55.424 -135.818 3.932 1380.46
55.424 -134.233 4.122 1062.44
55.424 -132.648 3.899 2485.00
55.424 -131.064 3.632 2984.43
55.424 -129.479 3.290 4406.55
55.424 -127.894 3.186 3466.02
55.424 -126.309 3.141 4034.23
55.424 -124.725 3.164 4817.37
55.424 -123.140 3.160 3198.61
55.424 -121.555 3.079 4436.66
55.424 -119.970 3.020 4432.36
55.424 -118.385 2.963 5029.17
55.424 -116.801 3.012 4443.14
55.424 -115.216 3.153 5610.54
55.424 -113.631 3.262 6806.48
55.424 -112.046 3.330 9949.96
55.424 -110.462 3.256 13293.15
55.424 -108.877 3.090 12927.34
55.424 -107.292 3.077 10595.20
55.424 -105.707 3.173 8181.20
55.424 -104.123 3.297 5501.06
55.424 -102.538 3.250 4546.95
55.424 -100.953 3.205 6422.59
55.424 -99.368 3.177 7753.06
55.424 -97.783 3.218 2349.44
55.424 -96.199 3.245 2267.18
55.424 -94.614 3.268 1447.69
55.424 -93.029 3.269 2051.89
55.424 -91.444 3.246 1869.75
55.424 -89.860 3.212 2792.19
55.424 -88.275 3.151 1972.98
55.424 -86.690 3.154 2386.60
55.424 -85.105 3.261 1387.52
55.424 -83.520 3.269 1634.29
55.424 -81.936 3.236 1173.15
55.424 -80.351 3.196 2150.83
55.424 -78.766 3.180 1754.92
55.424 -77.181 3.181 1256.67
55.424 -75.597 3.191 795.12
55.424 -74.012 3.206 1322.91
55.424 -72.427 3.199 725.27
55.424 -70.842 3.187 688.40
55.424 -69.257 3.230 835.12
55.424 -67.673 3.315 1147.78
55.424 -66.088 3.359 462.39
55.424 -64.503 3.358 445.85
55.424 -62.918 3.313 224.74
55.424 -61.334 3.295 127.85
55.424 -59.749 3.354 91.91
55.424 -58.164 3.457 117.89
55.424 -56.579 3.476 348.67
55.424 -54.995 3.481 293.73
56.324 -144.782 3.594 49.95
56.324 -143.160 3.602 453.52
56.324 -141.538 3.659 169.82
56.324 -139.916 3.762 423.57
56.324 -138.294 3.872 1066.87
56.324 -136.672 3.962 1183.97
56.324 -135.050 3.950 1052.54
56.324 -133.428 3.715 2324.69
56.324 -131.806 3.612 3529.71
56.324 -130.184 3.343 4026.95
56.324 -128.563 3.156 2954.70
56.324 -126.941 3.104 3431.72
56.324 -125.319 3.076 5715.86
56.324 -123.697 3.057 4383.75
56.324 -122.075 3.047 4992.80
56.324 -120.453 3.048 3910.33
56.324 -118.831 3.054 4729.53
56.324 -117.209 3.066 4389.44
56.324 -115.587 3.113 5939.69
56.324 -113.965 3.208 9113.15
56.324 -112.343 3.286 12771.78
56.324 -110.722 3.236 14772.64
56.324 -109.100 3.061 11225.69
56.324 -107.478 3.042 9229.49
56.324 -105.856 3.091 4898.41
56.324 -104.234 3.232 5713.78
56.324 -102.612 3.280 5188.26
56.324 -100.990 3.179 6536.78
56.324 -99.368 3.204 5933.63
56.324 -97.746 3.211 3795.80
56.324 -96.124 3.246 1555.40
56.324 -94.502 3.249 1842.03
56.324 -92.881 3.246 3021.12
56.324 -91.259 3.218 1480.13
56.324 -89.637 3.160 1714.23
56.324 -88.015 3.136 2218.76
56.324 -86.393 3.173 2200.77
56.324 -84.771 3.243 1258.65
56.324 -83.149 3.206 1572.46
56.324 -81.527 3.152 1536.53
56.324 -79.905 3.117 1992.05
56.324 -78.283 3.168 1329.68
56.324 -76.661 3.220 728.98
56.324 -75.040 3.217 1070.87
56.324 -73.418 3.234 1421.43
56.324 -71.796 3.237 602.36
56.324 -70.174 3.227 737.23
56.324 -68.552 3.219 741.99
56.324 -66.930 3.219 706.08
56.324 -65.308 3.186 459.05
56.324 -63.686 3.180 286.46
56.324 -62.064 3.197 34.12
56.324 -60.442 3.221 37.42
56.324 -58.820 3.289 74.93
56.324 -57.199 3.366 444.39
56.324 -55.577 3.341 61.94
56.324 -53.955 3.390 0.00
57.223 -145.883 3.626 144.85
57.223 -144.222 3.648 501.47
57.223 -142.561 3.694 22.97
57.223 -140.899 3.801 740.23
57.223 -139.238 3.952 1246.96
57.223 -137.577 3.954 1162.89
57.223 -135.916 3.781 1316.09
57.223 -134.254 3.571 1732.91
57.223 -132.593 3.555 3621.15
57.223 -130.932 3.318 3110.58
57.223 -129.271 3.133 3477.55
57.223 -127.609 3.118 3730.14
57.223 -125.948 3.077 5564.60
57.223 -124.287 2.999 4943.81
57.223 -122.626 2.990 4139.31
57.223 -120.964 3.042 3387.34
57.223 -119.303 3.157 3774.54
57.223 -117.642 3.158 3955.63
57.223 -115.981 3.106 7081.42
57.223 -114.319 3.147 11841.51
57.223 -112.658 3.204 15763.80
57.223 -110.997 3.243 14235.66
57.223 -109.336 3.120 9734.04
57.223 -107.674 2.969 7191.25
57.223 -106.013 3.037 5779.29
57.223 -104.352 3.188 4464.66
57.223 -102.691 3.278 5999.59
57.223 -101.029 3.159 4073.65
57.223 -99.368 3.148 4527.26
57.223 -97.707 3.175 6019.70
57.223 -96.046 3.218 3011.35
57.223 -94.384 3.252 2426.23
57.223 -92.723 3.233 2269.00
57.223 -91.062 3.186 1164.33
57.223 -89.401 3.129 1874.15
57.223 -87.739 3.116 2174.31
57.223 -86.078 3.142 1683.47
57.223 -84.417 3.204 2042.42
57.223 -82.756 3.171 1740.26
57.223 -81.094 3.123 1954.05
57.223 -79.433 3.114 1584.38
57.223 -77.772 3.183 1106.81
57.223 -76.111 3.255 932.02
57.223 -74.449 3.227 1139.86
57.223 -72.788 3.214 960.98
57.223 -71.127 3.214 607.41
57.223 -69.466 3.224 186.87
57.223 -67.805 3.220 623.43
57.223 -66.143 3.200 308.71
57.223 -64.482 3.141 200.83
57.223 -62.821 3.119 196.57
57.223 -61.160 3.128 205.10
57.223 -59.498 3.147 294.02
57.223 -57.837 3.178 35.98
57.223 -56.176 3.199 54.59
57.223 -54.515 3.191 284.43
57.223 -52.853 3.318 9.99
58.122 -147.051 3.731 590.38
58.122 -145.348 3.763 84.91
58.122 -143.645 3.813 323.66
58.122 -141.942 3.889 1016.92
58.122 -140.239 3.986 1206.62
58.122 -138.537 3.887 1307.66
58.122 -136.834 3.626 661.05
58.122 -135.131 3.437 2515.30
58.122 -133.428 3.426 4013.66
58.122 -131.725 3.270 3402.06
58.122 -130.022 3.145 4664.33
58.122 -128.319 3.185 2958.18
58.122 -126.616 3.147 5075.15
58.122 -124.913 2.986 5498.86
58.122 -123.210 2.974 3624.39
58.122 -121.507 3.037 4416.34
58.122 -119.804 3.205 3870.68
58.122 -118.101 3.242 5490.86
58.122 -116.398 3.139 9796.38
58.122 -114.695 3.126 16669.54
58.122 -112.992 3.230 15893.93
58.122 -111.289 3.351 12157.98
58.122 -109.586 3.214 6269.75
58.122 -107.883 3.045 6212.32
58.122 -106.180 3.005 5022.24
58.122 -104.477 3.125 4539.77
58.122 -102.774 3.277 4687.15
58.122 -101.071 3.226 4268.32
58.122 -99.368 3.119 4713.97
58.122 -97.665 3.138 6323.89
58.122 -95.962 3.209 4518.76
58.122 -94.259 3.268 2892.10
58.122 -92.556 3.254 1729.98
58.122 -90.853 3.226 1523.21
58.122 -89.150 3.143 1736.12
58.122 -87.447 3.087 2398.48
58.122 -85.744 3.117 1834.16
58.122 -84.041 3.191 2264.71
58.122 -82.339 3.187 1762.29
58.122 -80.636 3.163 1366.62
58.122 -78.933 3.165 1235.28
58.122 -77.230 3.220 812.17
58.122 -75.527 3.266 1401.59
58.122 -73.824 3.206 1343.55
58.122 -72.121 3.168 489.55
58.122 -70.418 3.165 363.55
58.122 -68.715 3.181 232.77
58.122 -67.012 3.202 445.57
58.122 -65.309 3.184 144.86
58.122 -63.606 3.153 176.82
58.122 -61.903 3.152 51.95
58.122 -60.200 3.150 226.82
58.122 -58.497 3.128 126.80
58.122 -56.794 3.110 183.45
58.122 -55.091 3.094 183.75
58.122 -53.388 3.107 71.00
58.122 -51.685 3.281 293.34
59.022 -148.292 3.772 795.57
59.022 -146.545 3.829 98.33
59.022 -144.798 3.887 875.08
59.022 -143.050 3.945 1196.74
59.022 -141.303 3.928 1207.08
59.022 -139.556 3.757 807.21
59.022 -137.808 3.498 759.20
59.022 -136.061 3.355 4394.04
59.022 -134.314 3.420 5822.65
59.022 -132.567 3.319 3579.89
59.022 -130.819 3.246 3918.07
59.022 -129.072 3.287 2981.43
59.022 -127.325 3.210 5475.11
59.022 -125.577 3.022 6336.21
59.022 -123.830 3.047 4192.91
59.022 -122.083 3.095 4187.41
59.022 -120.336 3.216 4033.10
59.022 -118.588 3.246 8233.79
59.022 -116.841 3.211 15807.32
59.022 -115.094 3.176 18950.50
59.022 -113.346 3.291 13018.23
59.022 -111.599 3.346 7716.58
59.022 -109.852 3.233 5129.89
59.022 -108.105 3.081 5173.65
59.022 -106.357 2.997 3474.38
59.022 -104.610 3.043 4727.27
59.022 -102.863 3.223 4086.73
59.022 -101.115 3.334 4434.75
59.022 -99.368 3.164 5234.21
59.022 -97.621 3.146 3762.88
59.022 -95.874 3.182 5899.73
59.022 -94.126 3.278 2771.23
59.022 -92.379 3.301 1099.47
59.022 -90.632 3.266 1224.70
59.022 -88.884 3.147 1292.64
59.022 -87.137 3.097 2786.18
59.022 -85.390 3.144 1873.09
59.022 -83.643 3.214 2237.85
59.022 -81.895 3.202 1564.34
59.022 -80.148 3.182 962.05
59.022 -78.401 3.182 1334.63
59.022 -76.654 3.219 1104.88
59.022 -74.906 3.252 1007.97
59.022 -73.159 3.194 1146.44
59.022 -71.412 3.153 575.44
59.022 -69.664 3.163 109.01
59.022 -67.917 3.186 369.64
59.022 -66.170 3.185 229.63
59.022 -64.423 3.173 104.89
59.022 -62.675 3.180 11.99
59.022 -60.928 3.197 117.90
59.022 -59.181 3.185 96.91
59.022 -57.433 3.145 44.96
59.022 -55.686 3.106 149.89
59.022 -53.939 3.088 101.04
59.022 -52.192 3.104 145.62
59.022 -50.444 3.251 185.56
59.921 -149.612 3.604 1071.16
59.921 -147.818 3.671 437.80
59.921 -146.023 3.762 1013.51
59.921 -144.229 3.804 1406.54
59.921 -142.434 3.736 1063.92
59.921 -140.640 3.542 423.51
59.921 -138.845 3.361 1653.94
59.921 -137.051 3.400 2416.41
59.921 -135.257 3.537 3531.25
59.921 -133.462 3.453 3737.86
59.921 -131.668 3.386 3269.20
59.921 -129.873 3.387 3389.32
59.921 -128.079 3.293 4607.49
59.921 -126.284 3.111 6868.93
59.921 -124.490 3.130 5641.77
59.921 -122.696 3.148 3599.39
59.921 -120.901 3.178 5058.56
59.921 -119.107 3.186 14272.46
59.921 -117.312 3.163 22065.00
59.921 -115.518 3.206 14150.79
59.921 -113.724 3.244 7576.75
59.921 -111.929 3.285 6545.73
59.921 -110.135 3.239 5223.47
59.921 -108.340 3.163 3686.10
59.921 -106.546 3.086 3654.21
59.921 -104.751 3.013 5439.36
59.921 -102.957 3.081 5158.52
59.921 -101.163 3.309 4124.01
59.921 -99.368 3.247 3656.60
59.921 -97.574 3.138 5014.00
59.921 -95.779 3.150 5094.33
59.921 -93.985 3.238 2396.54
59.921 -92.191 3.283 1068.88
59.921 -90.396 3.243 1267.70
59.921 -88.602 3.166 1334.62
59.921 -86.807 3.142 2450.46
59.921 -85.013 3.176 2185.82
59.921 -83.218 3.217 2646.36
59.921 -81.424 3.182 1494.42
59.921 -79.630 3.159 1283.66
59.921 -77.835 3.171 1103.92
59.921 -76.041 3.202 737.27
59.921 -74.246 3.221 1450.00
59.921 -72.452 3.187 710.96
59.921 -70.657 3.180 329.63
59.921 -68.863 3.186 172.82
59.921 -67.069 3.196 344.67
59.921 -65.274 3.179 120.88
59.921 -63.480 3.175 64.93
59.921 -61.685 3.193 35.97
59.921 -59.891 3.199 65.95
59.921 -58.097 3.180 14.99
59.921 -56.302 3.156 75.93
59.921 -54.508 3.135 21.98
59.921 -52.713 3.126 76.94
59.921 -50.919 3.142 162.84
59.921 -49.124 3.236 254.09
60.820 -151.018 3.375 559.91
60.820 -149.173 3.400 1749.79
60.820 -147.329 3.501 1301.68
60.820 -145.484 3.520 2157.38
60.820 -143.639 3.445 1189.51
60.820 -141.795 3.270 471.30
60.820 -139.950 3.194 1815.57
60.820 -138.106 3.313 1346.42
60.820 -136.261 3.393 2573.33
60.820 -134.416 3.417 4272.79
60.820 -132.572 3.405 3325.46
60.820 -130.727 3.350 3532.66
60.820 -128.882 3.283 3969.89
60.820 -127.038 3.114 7471.37
60.820 -125.193 3.108 5130.98
60.820 -123.348 3.096 4077.37
60.820 -121.504 3.082 10607.01
60.820 -119.659 3.095 26332.62
60.820 -117.815 3.179 17417.78
60.820 -115.970 3.221 7215.74
60.820 -114.125 3.210 6764.45
60.820 -112.281 3.207 4999.46
60.820 -110.436 3.235 4589.38
60.820 -108.591 3.223 4740.28
60.820 -106.747 3.194 4770.09
60.820 -104.902 3.102 3759.18
60.820 -103.057 3.029 3421.06
60.820 -101.213 3.147 4175.94
60.820 -99.368 3.305 4250.28
60.820 -97.524 3.170 4300.69
60.820 -95.679 3.129 3100.59
60.820 -93.834 3.171 5874.78
60.820 -91.990 3.257 1285.93
60.820 -90.145 3.234 1276.72
60.820 -88.300 3.182 1287.66
60.820 -86.456 3.160 2661.26
60.820 -84.611 3.158 3432.20
60.820 -82.766 3.187 2301.19
60.820 -80.922 3.173 681.30
60.820 -79.077 3.155 1515.72
60.820 -77.233 3.157 1119.67
60.820 -75.388 3.167 935.40
60.820 -73.543 3.192 1194.53
60.820 -71.699 3.217 528.43
60.820 -69.854 3.217 207.76
60.820 -68.009 3.204 426.59
60.820 -66.165 3.185 175.83
60.820 -64.320 3.175 100.89
60.820 -62.475 3.186 6.99
60.820 -60.631 3.194 94.92
60.820 -58.786 3.180 0.00
60.820 -56.942 3.165 0.00
60.820 -55.097 3.160 0.00
60.820 -53.252 3.164 54.95
60.820 -51.408 3.170 59.94
60.820 -49.563 3.184 0.00
60.820 -47.718 3.219 223.45
61.720 -152.518 3.262 480.38
61.720 -150.620 3.274 536.61
61.720 -148.722 3.335 2712.44
61.720 -146.824 3.327 2490.59
61.720 -144.926 3.222 2497.61
61.720 -143.027 3.088 2060.68
61.720 -141.129 3.082 1739.20
61.720 -139.231 3.168 1646.32
61.720 -137.333 3.189 2744.90
61.720 -135.434 3.277 4373.87
61.720 -133.536 3.331 3340.56
61.720 -131.638 3.227 5228.47
61.720 -129.740 3.176 3732.28
61.720 -127.842 3.061 7579.29
61.720 -125.943 3.085 4576.98
61.720 -124.045 3.064 6501.13
61.720 -122.147 3.037 31471.38
61.720 -120.249 3.109 21941.44
61.720 -118.350 3.213 7653.20
61.720 -116.452 3.269 5339.31
61.720 -114.554 3.266 5372.11
61.720 -112.656 3.223 4633.27
61.720 -110.758 3.203 5393.49
61.720 -108.859 3.217 4930.95
61.720 -106.961 3.277 3830.16
61.720 -105.063 3.240 3058.89
61.720 -103.165 3.093 2888.01
61.720 -101.266 3.034 3350.37
61.720 -99.368 3.237 3990.49
61.720 -97.470 3.257 4225.61
61.720 -95.572 3.209 3311.16
61.720 -93.674 3.174 4630.43
61.720 -91.775 3.250 3085.83
61.720 -89.877 3.238 1484.49
61.720 -87.979 3.184 1746.21
61.720 -86.081 3.168 3018.94
61.720 -84.182 3.164 2969.08
61.720 -82.284 3.199 1377.57
61.720 -80.386 3.191 927.03
61.720 -78.488 3.164 1498.27
61.720 -76.590 3.149 911.90
61.720 -74.691 3.156 853.14
61.720 -72.793 3.189 858.08
61.720 -70.895 3.257 591.46
61.720 -68.997 3.238 318.67
61.720 -67.098 3.202 313.70
61.720 -65.200 3.180 130.87
61.720 -63.302 3.187 13.99
61.720 -61.404 3.196 101.92
61.720 -59.505 3.182 0.00
61.720 -57.607 3.169 0.00
61.720 -55.709 3.168 0.00
61.720 -53.811 3.178 0.00
61.720 -51.913 3.186 0.00
61.720 -50.014 3.187 123.86
61.720 -48.116 3.189 224.75
61.720 -46.218 3.195 102.89
62.619 -154.123 3.201 285.41
62.619 -152.167 3.203 596.12
62.619 -150.212 3.262 683.60
62.619 -148.256 3.268 1638.94
62.619 -146.301 3.203 2515.76
62.619 -144.345 3.110 3551.82
62.619 -142.390 3.136 2684.07
62.619 -140.434 3.119 2831.65
62.619 -138.479 3.083 4516.79
62.619 -136.523 3.158 4573.92
62.619 -134.567 3.209 4384.58
62.619 -132.612 3.051 5634.09
62.619 -130.656 2.998 5695.60
62.619 -128.701 2.969 6530.13
62.619 -126.745 3.043 4918.12
62.619 -124.790 3.064 35067.84
62.619 -122.834 3.026 29707.23
62.619 -120.879 3.122 8127.62
62.619 -118.923 3.243 5139.85
62.619 -116.968 3.303 5527.44
62.619 -115.012 3.288 5958.59
62.619 -113.057 3.244 3986.48
62.619 -111.101 3.200 4597.92
62.619 -109.146 3.215 5009.26
62.619 -107.190 3.284 3921.14
62.619 -105.235 3.324 2762.25
62.619 -103.279 3.219 2374.64
62.619 -101.324 3.069 2280.87
62.619 -99.368 3.081 2864.25
62.619 -97.413 3.222 3361.53
62.619 -95.457 3.218 4744.52
62.619 -93.502 3.206 2707.35
62.619 -91.546 3.201 6848.32
62.619 -89.591 3.225 1494.75
62.619 -87.635 3.209 2423.53
62.619 -85.680 3.172 3545.14
62.619 -83.724 3.176 2141.44
62.619 -81.769 3.210 1367.02
62.619 -79.813 3.194 819.06
62.619 -77.858 3.170 1356.59
62.619 -75.902 3.166 933.00
62.619 -73.946 3.165 1203.74
62.619 -71.991 3.203 456.53
62.619 -70.035 3.283 499.43
62.619 -68.080 3.247 435.58
62.619 -66.124 3.193 180.82
62.619 -64.169 3.185 61.94
62.619 -62.213 3.196 80.93
62.619 -60.258 3.186 20.98
62.619 -58.302 3.168 0.00
62.619 -56.347 3.163 0.00
62.619 -54.391 3.169 124.14
62.619 -52.436 3.181 126.85
62.619 -50.480 3.186 133.84
62.619 -48.525 3.185 33.96
62.619 -46.569 3.182 0.00
62.619 -44.614 3.176 51.95
63.518 -155.841 3.163 103.90
63.518 -153.824 3.165 153.83
63.518 -151.807 3.212 1485.79
63.518 -149.790 3.236 3199.72
63.518 -147.773 3.217 3292.73
63.518 -145.757 3.186 3590.51
63.518 -143.740 3.238 3734.27
63.518 -141.723 3.166 3296.79
63.518 -139.706 3.096 5137.96
63.518 -137.689 3.120 6691.69
63.518 -135.672 3.119 6534.16
63.518 -133.655 2.982 7793.79
63.518 -131.638 2.956 7851.94
63.518 -129.622 2.996 7939.37
63.518 -127.605 3.130 8409.72
63.518 -125.588 3.143 37407.29
63.518 -123.571 3.114 9106.13
63.518 -121.554 3.117 5789.52
63.518 -119.537 3.160 5404.89
63.518 -117.520 3.245 4803.02
63.518 -115.503 3.271 3442.66
63.518 -113.486 3.228 2635.18
63.518 -111.470 3.226 3392.91
63.518 -109.453 3.237 4683.27
63.518 -107.436 3.283 3092.53
63.518 -105.419 3.342 2117.23
63.518 -103.402 3.310 1839.19
63.518 -101.385 3.152 1795.87
63.518 -99.368 2.998 2261.65
63.518 -97.351 3.086 3164.86
63.518 -95.334 3.125 4201.69
63.518 -93.318 3.200 2998.91
63.518 -91.301 3.198 5846.15
63.518 -89.284 3.178 5515.83
63.518 -87.267 3.206 4468.52
63.518 -85.250 3.156 2884.23
63.518 -83.233 3.177 1648.32
63.518 -81.216 3.224 1230.48
63.518 -79.199 3.220 829.15
63.518 -77.182 3.195 1375.56
63.518 -75.166 3.182 1043.93
63.518 -73.149 3.181 1289.62
63.518 -71.132 3.228 853.14
63.518 -69.115 3.286 980.37
63.518 -67.098 3.234 290.72
63.518 -65.081 3.194 103.89
63.518 -63.064 3.196 54.96
63.518 -61.047 3.190 47.96
63.518 -59.030 3.169 0.00
63.518 -57.014 3.154 0.00
63.518 -54.997 3.156 0.00
63.518 -52.980 3.168 0.00
63.518 -50.963 3.175 0.00
63.518 -48.946 3.171 0.00
63.518 -46.929 3.167 0.00
63.518 -44.912 3.165 0.00
63.518 -42.895 3.161 0.00
64.418 -157.686 3.152 87.92
64.418 -155.603 3.153 30.97
64.418 -153.520 3.177 56.94
64.418 -151.437 3.209 1434.54
64.418 -149.355 3.231 2802.65
64.418 -147.272 3.241 4002.27
64.418 -145.189 3.244 4135.20
64.418 -143.106 3.157 3900.82
64.418 -141.023 3.107 4759.80
64.418 -138.941 3.112 7471.56
64.418 -136.858 3.069 7553.79
64.418 -134.775 3.025 8797.34
64.418 -132.692 3.086 8290.20
64.418 -130.610 3.188 7868.78
64.418 -128.527 3.359 12980.90
64.418 -126.444 3.322 8215.72
64.418 -124.361 3.208 6026.27
64.418 -122.279 3.153 5364.30
64.418 -120.196 3.165 3938.87
64.418 -118.113 3.213 2660.22
64.418 -116.030 3.272 2847.06
