35.638 -69.490 3.539 0.00
35.638 -68.383 3.548 0.00
36.538 -130.710 3.569 0.00
36.538 -129.591 3.573 32.96
36.538 -128.471 3.577 97.88
36.538 -127.352 3.574 85.90
36.538 -126.233 3.565 0.00
36.538 -125.113 3.559 0.00
36.538 -123.994 3.555 0.00
36.538 -122.875 3.530 0.00
36.538 -121.755 3.451 0.00
36.538 -120.636 3.331 622.81
36.538 -119.516 3.296 1590.70
36.538 -118.397 3.367 1756.21
36.538 -117.278 3.432 1871.13
36.538 -116.158 3.448 2722.41
36.538 -115.039 3.453 2314.07
36.538 -113.920 3.470 1385.52
36.538 -112.800 3.459 1308.11
36.538 -111.681 3.419 1670.74
36.538 -110.562 3.396 1751.49
36.538 -109.442 3.434 2423.60
36.538 -108.323 3.508 2384.50
36.538 -107.204 3.567 3027.02
36.538 -106.084 3.554 2606.41
36.538 -104.965 3.552 2475.83
36.538 -103.846 3.579 1642.47
36.538 -102.726 3.579 1374.53
36.538 -101.607 3.568 1004.88
36.538 -100.488 3.627 533.31
36.538 -99.368 3.680 484.51
36.538 -98.249 3.698 530.46
36.538 -97.130 3.695 419.57
36.538 -96.010 3.672 347.67
36.538 -94.891 3.644 258.73
36.538 -93.771 3.621 108.89
36.538 -92.652 3.622 182.81
36.538 -91.533 3.645 454.52
36.538 -90.413 3.670 573.02
36.538 -89.294 3.675 439.90
36.538 -88.175 3.652 467.64
36.538 -87.055 3.610 168.80
36.538 -85.936 3.596 133.57
36.538 -84.817 3.630 8.84
36.538 -83.697 3.662 333.05
36.538 -82.578 3.642 414.59
36.538 -81.459 3.623 273.71
36.538 -80.339 3.609 201.81
36.538 -79.220 3.588 64.94
36.538 -78.101 3.565 0.00
36.538 -76.981 3.545 0.00
36.538 -75.862 3.538 0.00
36.538 -74.743 3.539 0.00
36.538 -73.623 3.540 0.00
36.538 -72.504 3.540 0.00
36.538 -71.384 3.540 0.00
36.538 -70.265 3.539 0.00
36.538 -69.146 3.538 0.00
36.538 -68.026 3.540 0.00
37.437 -131.083 3.546 0.00
37.437 -129.950 3.546 0.00
37.437 -128.817 3.556 0.00
37.437 -127.685 3.566 10.99
37.437 -126.552 3.577 97.88
37.437 -125.419 3.581 97.89
37.437 -124.287 3.575 18.98
37.437 -123.154 3.535 0.00
37.437 -122.021 3.433 2584.07
37.437 -120.889 3.289 4456.81
37.437 -119.756 3.278 3020.61
37.437 -118.623 3.376 2318.05
37.437 -117.491 3.470 3024.85
37.437 -116.358 3.513 2999.33
37.437 -115.225 3.566 1988.53
37.437 -114.093 3.602 1800.86
37.437 -112.960 3.572 2323.57
37.437 -111.827 3.505 2393.03
37.437 -110.695 3.501 2864.47
37.437 -109.562 3.559 2615.84
37.437 -108.429 3.631 3187.14
37.437 -107.297 3.640 2937.07
37.437 -106.164 3.587 2792.10
37.437 -105.032 3.579 2034.84
37.437 -103.899 3.605 1355.71
37.437 -102.766 3.605 896.21
37.437 -101.634 3.604 1136.48
37.437 -100.501 3.677 832.74
37.437 -99.368 3.688 376.42
37.437 -98.236 3.655 292.72
37.437 -97.103 3.635 382.64
37.437 -95.970 3.622 295.69
37.437 -94.838 3.611 121.88
37.437 -93.705 3.615 476.48
37.437 -92.572 3.629 547.42
37.437 -91.440 3.642 566.41
37.437 -90.307 3.637 331.64
37.437 -89.174 3.629 294.98
37.437 -88.042 3.612 36.96
37.437 -86.909 3.595 0.00
37.437 -85.776 3.584 142.84
37.437 -84.644 3.615 203.38
37.437 -83.511 3.639 130.88
37.437 -82.378 3.633 366.66
37.437 -81.246 3.590 403.59
37.437 -80.113 3.582 65.40
37.437 -78.980 3.584 95.91
37.437 -77.848 3.569 59.94
37.437 -76.715 3.545 0.00
37.437 -75.582 3.536 0.00
37.437 -74.450 3.538 0.00
37.437 -73.317 3.540 0.00
37.437 -72.184 3.540 0.00
37.437 -71.052 3.540 0.00
37.437 -69.919 3.540 0.00
37.437 -68.786 3.540 0.00
37.437 -67.654 3.539 0.00
38.336 -131.472 3.537 0.00
38.336 -130.326 3.536 0.00
38.336 -129.179 3.540 0.00
38.336 -128.033 3.546 0.00
38.336 -126.886 3.555 0.00
38.336 -125.740 3.572 0.00
38.336 -124.593 3.589 79.91
38.336 -123.446 3.542 105.51
38.336 -122.300 3.424 827.09
38.336 -121.153 3.322 3226.35
38.336 -120.007 3.308 848.76
38.336 -118.860 3.383 2129.13
38.336 -117.713 3.486 2789.78
38.336 -116.567 3.556 1403.23
38.336 -115.420 3.596 1789.66
38.336 -114.274 3.560 1972.80
38.336 -113.127 3.489 1917.05
38.336 -111.981 3.461 2511.89
38.336 -110.834 3.529 2840.79
38.336 -109.687 3.644 3370.06
38.336 -108.541 3.724 3243.74
38.336 -107.394 3.697 3109.05
38.336 -106.248 3.643 2451.54
38.336 -105.101 3.636 1712.21
38.336 -103.955 3.630 1439.56
38.336 -102.808 3.613 1377.58
38.336 -101.661 3.612 790.40
38.336 -100.515 3.645 629.67
38.336 -99.368 3.622 424.07
38.336 -98.222 3.580 314.70
38.336 -97.075 3.572 298.67
38.336 -95.928 3.578 391.58
38.336 -94.782 3.592 710.26
38.336 -93.635 3.605 570.42
38.336 -92.489 3.605 497.48
38.336 -91.342 3.594 316.66
38.336 -90.196 3.589 385.60
38.336 -89.049 3.585 121.89
38.336 -87.902 3.601 147.48
38.336 -86.756 3.618 257.74
38.336 -85.609 3.596 194.82
38.336 -84.463 3.574 283.38
38.336 -83.316 3.587 121.03
38.336 -82.170 3.605 118.88
38.336 -81.023 3.599 268.76
38.336 -79.876 3.590 221.78
38.336 -78.730 3.599 84.90
38.336 -77.583 3.584 125.83
38.336 -76.437 3.552 0.00
38.336 -75.290 3.537 0.00
38.336 -74.143 3.536 0.00
38.336 -72.997 3.539 0.00
38.336 -71.850 3.540 0.00
38.336 -70.704 3.540 0.00
38.336 -69.557 3.540 0.00
38.336 -68.411 3.540 0.00
38.336 -67.264 3.540 0.00
39.236 -131.880 3.539 0.00
39.236 -130.719 3.539 0.00
39.236 -129.558 3.538 0.00
39.236 -128.397 3.537 0.00
39.236 -127.235 3.539 0.00
39.236 -126.074 3.559 0.00
39.236 -124.913 3.568 0.00
39.236 -123.752 3.490 0.00
39.236 -122.591 3.374 407.23
39.236 -121.430 3.385 2258.77
39.236 -120.269 3.440 2671.23
39.236 -119.107 3.518 2252.08
39.236 -117.946 3.574 1294.11
39.236 -116.785 3.597 1488.08
39.236 -115.624 3.543 1341.15
39.236 -114.463 3.449 1366.15
39.236 -113.302 3.358 1890.18
39.236 -112.141 3.358 3518.87
39.236 -110.980 3.417 3816.40
39.236 -109.818 3.526 3555.84
39.236 -108.657 3.617 3523.54
39.236 -107.496 3.639 2661.42
39.236 -106.335 3.690 2204.51
39.236 -105.174 3.700 1479.41
39.236 -104.013 3.661 1265.70
39.236 -102.852 3.627 858.22
39.236 -101.690 3.662 848.56
39.236 -100.529 3.709 763.46
39.236 -99.368 3.686 507.82
39.236 -98.207 3.652 565.39
39.236 -97.046 3.645 654.95
39.236 -95.885 3.655 472.50
39.236 -94.724 3.662 308.67
39.236 -93.563 3.664 212.78
39.236 -92.401 3.666 254.71
39.236 -91.240 3.664 220.77
39.236 -90.079 3.663 184.82
39.236 -88.918 3.661 323.67
39.236 -87.757 3.659 330.67
39.236 -86.596 3.636 156.83
39.236 -85.435 3.605 100.88
39.236 -84.273 3.586 113.87
39.236 -83.112 3.604 55.40
39.236 -81.951 3.641 40.95
39.236 -80.790 3.677 219.77
39.236 -79.629 3.675 470.26
39.236 -78.468 3.650 258.72
39.236 -77.307 3.612 159.37
39.236 -76.145 3.564 0.00
39.236 -74.984 3.544 0.00
39.236 -73.823 3.537 0.00
39.236 -72.662 3.536 0.00
39.236 -71.501 3.539 0.00
39.236 -70.340 3.540 0.00
39.236 -69.179 3.540 0.00
39.236 -68.018 3.540 0.00
39.236 -66.856 3.540 0.00
40.135 -132.306 3.540 0.00
40.135 -131.130 3.540 0.00
40.135 -129.954 3.539 0.00
40.135 -128.777 3.536 0.00
40.135 -127.601 3.544 0.00
40.135 -126.424 3.562 0.00
40.135 -125.248 3.524 0.00
40.135 -124.072 3.422 91.92
40.135 -122.895 3.362 403.24
40.135 -121.719 3.448 2037.84
40.135 -120.543 3.569 3574.30
40.135 -119.366 3.633 2454.39
40.135 -118.190 3.594 1607.33
40.135 -117.014 3.519 1210.91
40.135 -115.837 3.456 912.89
40.135 -114.661 3.390 1602.58
40.135 -113.484 3.360 4648.55
40.135 -112.308 3.414 4381.41
40.135 -111.132 3.469 3906.04
40.135 -109.955 3.514 3601.29
40.135 -108.779 3.536 2989.40
40.135 -107.603 3.569 2547.31
40.135 -106.426 3.589 1729.79
40.135 -105.250 3.568 1328.68
40.135 -104.074 3.542 876.98
40.135 -102.897 3.537 851.07
40.135 -101.721 3.613 884.50
40.135 -100.545 3.681 1013.95
40.135 -99.368 3.707 598.38
40.135 -98.192 3.728 497.47
40.135 -97.015 3.746 363.61
40.135 -95.839 3.761 337.63
40.135 -94.663 3.763 295.67
40.135 -93.486 3.772 558.40
40.135 -92.310 3.770 411.58
40.135 -91.134 3.761 392.58
40.135 -89.957 3.744 402.18
40.135 -88.781 3.727 315.66
40.135 -87.605 3.698 188.06
40.135 -86.428 3.679 99.88
40.135 -85.252 3.673 115.86
40.135 -84.076 3.683 268.70
40.135 -82.899 3.708 380.57
40.135 -81.723 3.750 288.05
40.135 -80.546 3.780 257.70
40.135 -79.370 3.768 318.68
40.135 -78.194 3.691 412.58
40.135 -77.017 3.619 88.92
40.135 -75.841 3.576 0.00
40.135 -74.665 3.557 0.00
40.135 -73.488 3.547 0.00
40.135 -72.312 3.538 0.00
40.135 -71.136 3.537 0.00
40.135 -69.959 3.540 0.00
40.135 -68.783 3.540 0.00
40.135 -67.607 3.540 0.00
40.135 -66.430 3.540 0.00
41.034 -132.752 3.540 0.00
41.034 -131.560 3.540 0.00
41.034 -130.368 3.537 0.00
41.034 -129.175 3.541 0.00
41.034 -127.983 3.568 0.00
41.034 -126.791 3.558 0.00
41.034 -125.598 3.466 0.00
41.034 -124.406 3.386 327.14
41.034 -123.214 3.413 1051.76
41.034 -122.022 3.496 3169.48
41.034 -120.829 3.556 2340.50
41.034 -119.637 3.508 2741.32
41.034 -118.445 3.390 1559.30
41.034 -117.252 3.302 1488.35
41.034 -116.060 3.309 2378.66
41.034 -114.868 3.379 5906.49
41.034 -113.676 3.452 5617.02
41.034 -112.483 3.525 4769.76
41.034 -111.291 3.593 4270.13
41.034 -110.099 3.611 3588.29
41.034 -108.906 3.629 2744.84
41.034 -107.714 3.654 1852.02
41.034 -106.522 3.630 1427.58
41.034 -105.330 3.582 1271.77
41.034 -104.137 3.564 1366.45
41.034 -102.945 3.586 1379.97
41.034 -101.753 3.662 881.50
41.034 -100.560 3.706 403.88
41.034 -99.368 3.734 323.67
41.034 -98.176 3.773 270.04
41.034 -96.984 3.812 415.58
41.034 -95.791 3.826 438.55
41.034 -94.599 3.817 534.45
41.034 -93.407 3.788 211.77
41.034 -92.215 3.774 321.65
41.034 -91.022 3.769 319.68
41.034 -89.830 3.747 155.85
41.034 -88.638 3.719 128.85
41.034 -87.445 3.700 232.74
41.034 -86.253 3.693 257.72
41.034 -85.061 3.697 285.69
41.034 -83.869 3.714 308.67
41.034 -82.676 3.736 629.38
41.034 -81.484 3.755 631.71
41.034 -80.292 3.770 730.73
41.034 -79.099 3.777 720.33
41.034 -77.907 3.738 560.36
41.034 -76.715 3.655 393.60
41.034 -75.523 3.601 399.59
41.034 -74.330 3.576 344.48
41.034 -73.138 3.559 0.00
41.034 -71.946 3.543 0.00
41.034 -70.753 3.537 0.00
41.034 -69.561 3.538 0.00
41.034 -68.369 3.540 0.00
41.034 -67.177 3.540 0.00
41.034 -65.984 3.540 0.00
41.934 -133.219 3.540 0.00
41.934 -132.010 3.539 0.00
41.934 -130.801 3.539 0.00
41.934 -129.592 3.560 0.00
41.934 -128.383 3.574 0.00
41.934 -127.174 3.486 0.00
41.934 -125.965 3.361 58.51
41.934 -124.756 3.301 1219.89
41.934 -123.547 3.360 3096.35
41.934 -122.338 3.396 2275.56
41.934 -121.129 3.346 1859.96
41.934 -119.920 3.238 2583.93
41.934 -118.711 3.160 3238.92
41.934 -117.502 3.153 3236.84
41.934 -116.293 3.242 3856.72
41.934 -115.085 3.342 6259.86
41.934 -113.876 3.456 4160.00
41.934 -112.667 3.553 4787.97
41.934 -111.458 3.612 4920.82
41.934 -110.249 3.637 4336.43
41.934 -109.040 3.669 3842.11
41.934 -107.831 3.735 2891.99
41.934 -106.622 3.766 2258.40
41.934 -105.413 3.752 1744.33
41.934 -104.204 3.735 1287.70
41.934 -102.995 3.771 989.55
41.934 -101.786 3.812 1344.67
41.934 -100.577 3.799 1372.64
41.934 -99.368 3.793 1348.78
41.934 -98.159 3.802 1375.59
41.934 -96.950 3.815 1342.63
41.934 -95.741 3.818 1130.87
41.934 -94.532 3.807 1047.96
41.934 -93.323 3.796 1022.88
41.934 -92.115 3.791 717.25
41.934 -90.906 3.768 769.19
41.934 -89.697 3.744 903.08
41.934 -88.488 3.729 786.22
41.934 -87.279 3.731 703.30
41.934 -86.070 3.732 638.37
41.934 -84.861 3.723 687.34
41.934 -83.652 3.712 808.46
41.934 -82.443 3.710 393.63
41.934 -81.234 3.718 383.64
41.934 -80.025 3.734 222.39
41.934 -78.816 3.757 338.68
41.934 -77.607 3.772 449.58
41.934 -76.398 3.746 383.50
41.934 -75.189 3.672 274.71
41.934 -73.980 3.619 28.97
41.934 -72.771 3.585 0.00
41.934 -71.562 3.556 0.00
41.934 -70.353 3.541 0.00
41.934 -69.145 3.538 0.00
41.934 -67.936 3.539 0.00
41.934 -66.727 3.540 0.00
41.934 -65.518 3.540 0.00
42.833 -133.707 3.540 0.00
42.833 -132.481 3.539 0.00
42.833 -131.254 3.546 0.00
42.833 -130.028 3.560 0.00
42.833 -128.802 3.518 0.00
42.833 -127.575 3.374 0.00
42.833 -126.349 3.219 1267.23
42.833 -125.122 3.184 4380.41
42.833 -123.896 3.184 3001.55
42.833 -122.670 3.169 3290.85
42.833 -121.443 3.164 3779.01
42.833 -120.217 3.164 3306.38
42.833 -118.990 3.174 3291.28
42.833 -117.764 3.203 4019.43
42.833 -116.538 3.237 7420.42
42.833 -115.311 3.288 5180.17
42.833 -114.085 3.395 4826.21
42.833 -112.858 3.502 4304.27
42.833 -111.632 3.554 3234.63
42.833 -110.406 3.571 2366.47
42.833 -109.179 3.629 1526.39
42.833 -107.953 3.755 1504.34
42.833 -106.727 3.819 1431.49
42.833 -105.500 3.810 1301.71
42.833 -104.274 3.774 1601.79
42.833 -103.047 3.808 1656.72
42.833 -101.821 3.868 1343.54
42.833 -100.595 3.855 1029.95
42.833 -99.368 3.841 764.21
42.833 -98.142 3.839 716.27
42.833 -96.915 3.823 490.50
42.833 -95.689 3.802 755.23
42.833 -94.463 3.793 854.13
42.833 -93.236 3.778 685.30
42.833 -92.010 3.760 853.12
42.833 -90.783 3.742 824.50
42.833 -89.557 3.719 510.50
42.833 -88.331 3.710 709.31
42.833 -87.104 3.725 628.38
42.833 -85.878 3.735 595.42
42.833 -84.652 3.732 500.51
42.833 -83.425 3.724 168.84
42.833 -82.199 3.715 280.74
42.833 -80.972 3.700 299.72
42.833 -79.746 3.691 518.49
42.833 -78.520 3.700 541.47
42.833 -77.293 3.737 498.51
42.833 -76.067 3.780 559.04
42.833 -74.840 3.740 436.42
42.833 -73.614 3.660 351.65
42.833 -72.388 3.613 203.76
42.833 -71.161 3.573 56.35
42.833 -69.935 3.548 0.00
42.833 -68.708 3.540 0.00
42.833 -67.482 3.540 0.00
42.833 -66.256 3.540 0.00
42.833 -65.029 3.540 0.00
43.732 -134.219 3.540 0.00
43.732 -132.974 3.540 0.00
43.732 -131.729 3.543 0.00
43.732 -130.485 3.549 0.00
43.732 -129.240 3.506 0.00
43.732 -127.995 3.358 0.00
43.732 -126.751 3.156 12220.85
43.732 -125.506 3.071 8495.59
43.732 -124.261 3.079 5586.36
43.732 -123.017 3.151 3936.90
43.732 -121.772 3.247 3837.30
43.732 -120.527 3.313 3181.28
43.732 -119.283 3.380 3845.65
43.732 -118.038 3.383 4888.47
43.732 -116.793 3.323 7102.74
43.732 -115.549 3.305 5271.36
43.732 -114.304 3.376 4552.58
43.732 -113.059 3.459 3116.99
43.732 -111.815 3.476 2385.88
43.732 -110.570 3.496 1877.00
43.732 -109.325 3.568 1830.63
43.732 -108.081 3.632 1497.24
43.732 -106.836 3.649 1125.66
43.732 -105.591 3.626 1054.00
43.732 -104.347 3.619 1283.15
43.732 -103.102 3.709 969.70
43.732 -101.858 3.786 1012.93
43.732 -100.613 3.804 1016.92
43.732 -99.368 3.793 1088.90
43.732 -98.124 3.783 1180.79
43.732 -96.879 3.786 1241.18
43.732 -95.634 3.796 841.14
43.732 -94.390 3.798 766.21
43.732 -93.145 3.799 927.04
43.732 -91.900 3.793 679.31
43.732 -90.656 3.766 528.48
43.732 -89.411 3.737 501.51
43.732 -88.166 3.726 307.70
43.732 -86.922 3.721 459.57
43.732 -85.677 3.717 496.54
43.732 -84.432 3.700 597.43
43.732 -83.188 3.668 744.28
43.732 -81.943 3.637 709.31
43.732 -80.698 3.623 735.28
43.732 -79.454 3.628 559.45
43.732 -78.209 3.644 393.61
43.732 -76.964 3.689 439.56
43.732 -75.720 3.739 408.59
43.732 -74.475 3.738 654.85
43.732 -73.230 3.664 278.12
43.732 -71.986 3.590 212.79
43.732 -70.741 3.559 0.00
43.732 -69.496 3.542 0.00
43.732 -68.252 3.537 0.00
43.732 -67.007 3.539 0.00
43.732 -65.763 3.540 0.00
43.732 -64.518 3.540 0.00
44.632 -134.754 3.540 0.00
44.632 -133.490 3.539 0.00
44.632 -132.227 3.545 0.00
44.632 -130.963 3.560 0.00
44.632 -129.699 3.531 0.00
44.632 -128.435 3.422 0.00
44.632 -127.172 3.304 218.05
44.632 -125.908 3.242 985.50
44.632 -124.644 3.263 2210.20
44.632 -123.380 3.348 3259.91
44.632 -122.116 3.450 3435.91
44.632 -120.853 3.517 3402.22
44.632 -119.589 3.543 4145.83
44.632 -118.325 3.466 6961.26
44.632 -117.061 3.365 6972.19
44.632 -115.797 3.361 5616.08
44.632 -114.534 3.414 4041.65
44.632 -113.270 3.423 3042.52
44.632 -112.006 3.442 2360.21
44.632 -110.742 3.513 2333.67
44.632 -109.479 3.568 1966.16
44.632 -108.215 3.590 1793.18
44.632 -106.951 3.557 1879.85
44.632 -105.687 3.528 1510.43
44.632 -104.423 3.571 990.95
44.632 -103.160 3.662 1125.52
44.632 -101.896 3.702 984.97
44.632 -100.632 3.702 685.30
44.632 -99.368 3.707 781.20
44.632 -98.104 3.714 584.41
44.632 -96.841 3.709 403.58
44.632 -95.577 3.708 441.53
44.632 -94.313 3.718 404.57
44.632 -93.049 3.727 358.64
44.632 -91.785 3.722 399.60
44.632 -90.522 3.702 434.57
44.632 -89.258 3.676 583.43
44.632 -87.994 3.660 582.43
44.632 -86.730 3.643 443.56
44.632 -85.467 3.635 556.44
44.632 -84.203 3.630 408.47
44.632 -82.939 3.627 217.77
44.632 -81.675 3.627 129.85
44.632 -80.411 3.639 220.76
44.632 -79.148 3.660 263.73
44.632 -77.884 3.676 290.71
44.632 -76.620 3.703 365.21
44.632 -75.356 3.716 432.53
44.632 -74.092 3.678 116.75
44.632 -72.829 3.624 94.89
44.632 -71.565 3.577 57.13
44.632 -70.301 3.545 148.86
44.632 -69.037 3.539 0.00
44.632 -67.773 3.537 0.00
44.632 -66.510 3.539 0.00
44.632 -65.246 3.540 0.00
44.632 -63.982 3.540 0.00
45.531 -135.316 3.540 0.00
45.531 -134.032 3.539 0.00
45.531 -132.748 3.538 0.00
45.531 -131.464 3.553 0.00
45.531 -130.180 3.570 0.00
45.531 -128.897 3.529 4.00
45.531 -127.613 3.489 207.78
45.531 -126.329 3.504 111.96
45.531 -125.045 3.571 201.71
45.531 -123.761 3.620 978.42
45.531 -122.477 3.671 1406.70
45.531 -121.193 3.666 2326.71
45.531 -119.910 3.602 5791.42
45.531 -118.626 3.483 8026.79
45.531 -117.342 3.445 6034.23
45.531 -116.058 3.460 4387.77
45.531 -114.774 3.460 3361.74
45.531 -113.490 3.462 2753.78
45.531 -112.207 3.527 2659.24
45.531 -110.923 3.605 2127.59
45.531 -109.639 3.644 1992.18
45.531 -108.355 3.629 1871.21
45.531 -107.071 3.613 1390.86
45.531 -105.787 3.603 1292.63
45.531 -104.504 3.661 1050.33
45.531 -103.220 3.722 629.47
45.531 -101.936 3.720 432.55
45.531 -100.652 3.700 574.43
45.531 -99.368 3.685 486.51
45.531 -98.084 3.670 523.46
45.531 -96.801 3.656 560.42
45.531 -95.517 3.635 486.50
45.531 -94.233 3.616 379.62
45.531 -92.949 3.605 358.63
45.531 -91.665 3.601 397.58
45.531 -90.381 3.604 366.62
45.531 -89.097 3.614 213.78
45.531 -87.814 3.617 205.78
45.531 -86.530 3.608 318.66
45.531 -85.246 3.598 246.74
45.531 -83.962 3.604 294.70
45.531 -82.678 3.618 294.70
45.531 -81.394 3.641 332.67
45.531 -80.111 3.670 283.72
45.531 -78.827 3.693 311.66
45.531 -77.543 3.689 374.58
45.531 -76.259 3.662 232.73
45.531 -74.975 3.634 33.96
45.531 -73.691 3.605 0.00
45.531 -72.408 3.589 0.00
45.531 -71.124 3.587 48.94
45.531 -69.840 3.576 126.04
45.531 -68.556 3.555 6.26
45.531 -67.272 3.543 0.00
45.531 -65.988 3.540 0.00
45.531 -64.705 3.540 0.00
45.531 -63.421 3.540 0.00
46.431 -135.904 3.540 0.00
46.431 -134.600 3.540 0.00
46.431 -133.295 3.537 0.00
46.431 -131.990 3.535 0.00
46.431 -130.685 3.548 0.00
46.431 -129.380 3.556 108.88
46.431 -128.075 3.565 104.89
46.431 -126.770 3.615 269.80
46.431 -125.466 3.640 677.38
46.431 -124.161 3.635 873.19
46.431 -122.856 3.637 1052.39
46.431 -121.551 3.589 3947.48
46.431 -120.246 3.482 6408.27
46.431 -118.941 3.420 6713.08
46.431 -117.636 3.434 3923.55
46.431 -116.331 3.456 2884.88
46.431 -115.027 3.459 3012.80
46.431 -113.722 3.508 2875.01
46.431 -112.417 3.603 2356.34
46.431 -111.112 3.647 2294.53
46.431 -109.807 3.644 1883.16
46.431 -108.502 3.631 1596.38
46.431 -107.197 3.615 1502.47
46.431 -105.893 3.602 1296.00
46.431 -104.588 3.651 1085.36
46.431 -103.283 3.710 1089.36
46.431 -101.978 3.701 657.32
46.431 -100.673 3.673 538.42
46.431 -99.368 3.675 512.43
46.431 -98.063 3.668 401.55
46.431 -96.758 3.643 386.59
46.431 -95.454 3.620 400.58
46.431 -94.149 3.600 395.58
46.431 -92.844 3.585 365.62
46.431 -91.539 3.576 298.70
46.431 -90.234 3.577 297.70
46.431 -88.929 3.585 331.67
46.431 -87.624 3.593 389.62
46.431 -86.320 3.603 348.65
46.431 -85.015 3.619 283.71
46.431 -83.710 3.639 195.79
46.431 -82.405 3.658 195.79
46.431 -81.100 3.675 217.75
46.431 -79.795 3.672 217.74
46.431 -78.490 3.651 109.87
46.431 -77.185 3.629 17.98
46.431 -75.881 3.608 0.00
46.431 -74.576 3.592 0.00
46.431 -73.271 3.588 50.94
46.431 -71.966 3.592 95.89
46.431 -70.661 3.590 47.94
46.431 -69.356 3.573 0.00
46.431 -68.051 3.551 0.00
46.431 -66.747 3.540 0.00
46.431 -65.442 3.539 0.00
46.431 -64.137 3.540 0.00
46.431 -62.832 3.540 0.00
47.330 -136.522 3.539 0.00
47.330 -135.195 3.538 0.00
47.330 -133.868 3.537 0.00
47.330 -132.541 3.536 0.00
47.330 -131.214 3.542 0.00
47.330 -129.887 3.563 186.80
47.330 -128.561 3.582 316.67
47.330 -127.234 3.609 576.55
47.330 -125.907 3.614 710.33
47.330 -124.580 3.592 802.85
47.330 -123.253 3.561 3156.17
47.330 -121.926 3.481 6301.76
47.330 -120.599 3.400 7110.98
47.330 -119.272 3.393 4707.52
47.330 -117.945 3.414 2532.05
47.330 -116.618 3.450 2305.49
47.330 -115.291 3.468 2165.45
47.330 -113.964 3.501 2160.92
47.330 -112.637 3.543 1948.45
47.330 -111.311 3.586 1482.08
47.330 -109.984 3.596 1373.62
47.330 -108.657 3.585 1280.75
47.330 -107.330 3.588 1498.53
47.330 -106.003 3.626 1393.05
47.330 -104.676 3.679 938.07
47.330 -103.349 3.706 711.15
47.330 -102.022 3.684 584.35
47.330 -100.695 3.652 505.48
47.330 -99.368 3.632 400.60
47.330 -98.041 3.622 399.60
47.330 -96.714 3.616 314.68
47.330 -95.387 3.610 298.70
47.330 -94.061 3.600 291.70
47.330 -92.734 3.585 198.79
47.330 -91.407 3.580 198.79
47.330 -90.080 3.584 198.79
47.330 -88.753 3.593 163.82
47.330 -87.426 3.605 98.88
47.330 -86.099 3.620 7.99
47.330 -84.772 3.640 11.99
47.330 -83.445 3.660 103.88
47.330 -82.118 3.660 201.76
47.330 -80.791 3.641 104.88
47.330 -79.464 3.620 13.98
47.330 -78.137 3.603 0.00
47.330 -76.811 3.594 0.00
47.330 -75.484 3.594 61.94
47.330 -74.157 3.593 96.91
47.330 -72.830 3.585 45.95
47.330 -71.503 3.574 0.00
47.330 -70.176 3.562 0.00
47.330 -68.849 3.548 0.00
47.330 -67.522 3.539 0.00
47.330 -66.195 3.537 0.00
47.330 -64.868 3.539 0.00
47.330 -63.541 3.540 0.00
47.330 -62.214 3.539 0.00
48.229 -137.170 3.537 0.00
48.229 -135.820 3.536 0.00
48.229 -134.470 3.542 0.00
48.229 -133.120 3.554 43.95
48.229 -131.770 3.573 140.85
48.229 -130.420 3.590 317.66
48.229 -129.070 3.581 474.50
48.229 -127.720 3.594 415.71
48.229 -126.370 3.596 797.27
48.229 -125.020 3.553 2262.79
48.229 -123.670 3.503 7124.92
48.229 -122.320 3.426 7732.36
48.229 -120.969 3.392 5192.61
48.229 -119.619 3.432 3025.86
48.229 -118.269 3.490 2571.50
48.229 -116.919 3.509 2194.08
48.229 -115.569 3.507 1977.07
48.229 -114.219 3.510 1663.56
48.229 -112.869 3.521 1346.82
48.229 -111.519 3.525 1099.90
48.229 -110.169 3.535 1244.31
48.229 -108.819 3.575 1223.79
48.229 -107.469 3.609 973.08
48.229 -106.119 3.625 795.24
48.229 -104.769 3.635 588.47
48.229 -103.418 3.631 391.61
48.229 -102.068 3.594 199.81
48.229 -100.718 3.563 200.81
48.229 -99.368 3.549 200.81
48.229 -98.018 3.544 199.81
48.229 -96.668 3.543 199.81
48.229 -95.318 3.545 108.74
48.229 -93.968 3.549 99.88
48.229 -92.618 3.553 99.88
48.229 -91.268 3.568 35.26
48.229 -89.918 3.593 0.00
48.229 -88.568 3.616 0.00
48.229 -87.217 3.636 44.95
48.229 -85.867 3.649 133.84
48.229 -84.517 3.649 190.78
48.229 -83.167 3.633 98.88
48.229 -81.817 3.618 0.00
48.229 -80.467 3.604 0.00
48.229 -79.117 3.595 0.00
48.229 -77.767 3.596 82.92
48.229 -76.417 3.595 97.91
48.229 -75.067 3.586 35.97
48.229 -73.717 3.573 0.00
48.229 -72.367 3.559 0.00
48.229 -71.017 3.547 0.00
48.229 -69.666 3.539 0.00
48.229 -68.316 3.536 0.00
48.229 -66.966 3.537 0.00
48.229 -65.616 3.539 0.00
48.229 -64.266 3.539 0.00
48.229 -62.916 3.538 0.00
48.229 -61.566 3.539 0.00
49.129 -137.851 3.546 0.00
49.129 -136.477 3.546 41.96
49.129 -135.103 3.561 133.86
49.129 -133.728 3.584 182.81
49.129 -132.354 3.601 269.72
49.129 -130.979 3.583 396.58
49.129 -129.605 3.559 213.79
49.129 -128.231 3.573 712.43
49.129 -126.856 3.538 1544.54
49.129 -125.482 3.501 8112.93
49.129 -124.107 3.455 8669.33
49.129 -122.733 3.422 5389.50
49.129 -121.359 3.431 4088.92
49.129 -119.984 3.509 2927.17
49.129 -118.610 3.549 2412.28
49.129 -117.235 3.554 1832.25
49.129 -115.861 3.557 1397.62
49.129 -114.487 3.540 1331.83
49.129 -113.112 3.538 1470.18
49.129 -111.738 3.566 1400.99
49.129 -110.363 3.591 956.99
49.129 -108.989 3.606 691.32
49.129 -107.615 3.606 364.62
49.129 -106.240 3.594 179.84
49.129 -104.866 3.573 40.97
49.129 -103.491 3.552 0.00
49.129 -102.117 3.530 0.00
49.129 -100.743 3.518 0.00
49.129 -99.368 3.518 0.00
49.129 -97.994 3.524 0.00
49.129 -96.619 3.531 0.00
49.129 -95.245 3.544 0.00
49.129 -93.871 3.564 0.00
49.129 -92.496 3.586 0.00
49.129 -91.122 3.610 0.00
49.129 -89.747 3.639 98.88
49.129 -88.373 3.654 185.78
49.129 -86.999 3.652 159.81
49.129 -85.624 3.642 68.92
49.129 -84.250 3.633 0.00
49.129 -82.875 3.617 34.91
49.129 -81.501 3.604 20.98
49.129 -80.127 3.601 98.91
49.129 -78.752 3.596 97.91
49.129 -77.378 3.583 14.99
49.129 -76.003 3.571 0.00
49.129 -74.629 3.557 0.00
49.129 -73.255 3.546 0.00
49.129 -71.880 3.538 0.00
49.129 -70.506 3.536 0.00
49.129 -69.131 3.536 0.00
49.129 -67.757 3.538 0.00
49.129 -66.383 3.538 0.00
49.129 -65.008 3.539 0.00
49.129 -63.634 3.539 0.00
49.129 -62.259 3.540 0.00
49.129 -60.885 3.548 0.00
50.028 -138.567 3.574 210.80
50.028 -137.167 3.576 158.83
50.028 -135.767 3.586 137.86
50.028 -134.367 3.596 334.65
50.028 -132.967 3.584 159.83
50.028 -131.567 3.562 203.77
50.028 -130.167 3.562 321.73
50.028 -128.767 3.551 1164.01
50.028 -127.368 3.512 9510.57
50.028 -125.968 3.458 10529.43
50.028 -124.568 3.457 5936.06
50.028 -123.168 3.454 4683.43
50.028 -121.768 3.472 3694.47
50.028 -120.368 3.531 2309.78
50.028 -118.968 3.567 1791.25
50.028 -117.568 3.566 1807.23
50.028 -116.168 3.576 1694.38
50.028 -114.768 3.594 1360.67
50.028 -113.368 3.601 891.12
50.028 -111.968 3.601 517.48
50.028 -110.568 3.600 263.74
50.028 -109.168 3.583 80.93
50.028 -107.768 3.562 0.00
50.028 -106.368 3.544 0.00
50.028 -104.968 3.533 0.00
50.028 -103.568 3.531 0.00
50.028 -102.168 3.530 0.00
50.028 -100.768 3.534 0.00
50.028 -99.368 3.549 0.00
50.028 -97.968 3.571 0.00
50.028 -96.568 3.592 0.00
50.028 -95.168 3.612 0.00
50.028 -93.768 3.638 81.90
50.028 -92.368 3.656 164.81
50.028 -90.968 3.662 205.76
50.028 -89.568 3.653 105.88
50.028 -88.168 3.650 17.98
50.028 -86.769 3.642 29.97
50.028 -85.369 3.631 99.91
50.028 -83.969 3.627 178.83
50.028 -82.569 3.616 131.88
50.028 -81.169 3.599 77.93
50.028 -79.769 3.579 0.00
50.028 -78.369 3.566 0.00
50.028 -76.969 3.553 0.00
50.028 -75.569 3.542 0.00
50.028 -74.169 3.536 0.00
50.028 -72.769 3.535 0.00
50.028 -71.369 3.535 0.00
50.028 -69.969 3.537 0.00
50.028 -68.569 3.540 0.00
50.028 -67.169 3.542 0.00
50.028 -65.769 3.541 0.00
50.028 -64.369 3.541 0.00
50.028 -62.969 3.545 66.94
50.028 -61.569 3.553 124.88
50.028 -60.169 3.569 125.88
50.927 -139.320 3.603 263.76
50.927 -137.893 3.603 268.75
50.927 -136.466 3.592 285.70
50.927 -135.040 3.579 2.00
50.927 -133.613 3.572 129.85
50.927 -132.186 3.578 177.80
50.927 -130.759 3.600 543.61
50.927 -129.332 3.601 12250.90
50.927 -127.905 3.545 13746.26
50.927 -126.478 3.525 6946.28
50.927 -125.052 3.489 5161.07
50.927 -123.625 3.468 4199.88
50.927 -122.198 3.515 2839.19
50.927 -120.771 3.568 2144.90
50.927 -119.344 3.616 1657.35
50.927 -117.917 3.619 980.03
50.927 -116.490 3.608 498.50
50.927 -115.064 3.604 239.77
50.927 -113.637 3.591 63.95
50.927 -112.210 3.575 0.00
50.927 -110.783 3.559 0.00
50.927 -109.356 3.541 0.00
50.927 -107.929 3.532 0.00
50.927 -106.502 3.537 0.00
50.927 -105.076 3.556 0.00
50.927 -103.649 3.579 0.00
50.927 -102.222 3.596 0.00
50.927 -100.795 3.611 0.00
50.927 -99.368 3.629 16.98
50.927 -97.941 3.654 103.88
50.927 -96.514 3.667 193.77
50.927 -95.088 3.671 205.76
50.927 -93.661 3.668 123.85
50.927 -92.234 3.668 39.95
50.927 -90.807 3.659 26.97
50.927 -89.380 3.644 143.12
50.927 -87.953 3.638 180.83
50.927 -86.526 3.633 171.84
50.927 -85.100 3.622 99.91
50.927 -83.673 3.601 19.98
50.927 -82.246 3.582 0.00
50.927 -80.819 3.564 0.00
50.927 -79.392 3.551 0.00
50.927 -77.965 3.543 0.00
50.927 -76.538 3.538 0.00
50.927 -75.112 3.536 0.00
50.927 -73.685 3.537 0.00
50.927 -72.258 3.538 0.00
50.927 -70.831 3.540 0.00
50.927 -69.404 3.541 0.00
50.927 -67.977 3.545 112.89
50.927 -66.550 3.551 115.89
50.927 -65.124 3.555 118.89
50.927 -63.697 3.557 119.89
50.927 -62.270 3.563 84.92
50.927 -60.843 3.574 127.88
50.927 -59.416 3.588 129.88
51.827 -140.113 3.610 515.52
51.827 -138.658 3.603 79.92
51.827 -137.203 3.582 21.97
51.827 -135.747 3.572 155.82
51.827 -134.292 3.564 29.96
51.827 -132.837 3.594 112.88
51.827 -131.382 3.699 15418.03
51.827 -129.927 3.759 18412.83
51.827 -128.472 3.730 6347.88
51.827 -127.016 3.676 3804.33
51.827 -125.561 3.638 2607.41
51.827 -124.106 3.643 1768.24
51.827 -122.651 3.685 599.38
51.827 -121.196 3.692 197.81
51.827 -119.741 3.679 37.97
51.827 -118.285 3.659 0.00
51.827 -116.830 3.641 0.00
51.827 -115.375 3.627 0.00
51.827 -113.920 3.614 0.00
51.827 -112.465 3.605 0.00
51.827 -111.010 3.600 0.00
51.827 -109.554 3.600 0.00
51.827 -108.099 3.604 0.00
51.827 -106.644 3.617 0.00
51.827 -105.189 3.641 74.92
51.827 -103.734 3.664 121.87
51.827 -102.279 3.681 206.78
51.827 -100.823 3.693 205.76
51.827 -99.368 3.696 188.78
51.827 -97.913 3.687 102.88
51.827 -96.458 3.677 11.99
51.827 -95.003 3.664 86.92
51.827 -93.548 3.650 109.90
51.827 -92.092 3.648 201.81
51.827 -90.637 3.640 174.84
51.827 -89.182 3.627 100.91
51.827 -87.727 3.607 108.88
51.827 -86.272 3.591 89.89
51.827 -84.817 3.576 91.89
51.827 -83.361 3.560 92.89
51.827 -81.906 3.549 94.90
51.827 -80.451 3.545 96.91
51.827 -78.996 3.548 97.91
51.827 -77.541 3.553 99.91
51.827 -76.085 3.554 101.90
51.827 -74.630 3.554 103.90
51.827 -73.175 3.555 105.90
51.827 -71.720 3.554 107.90
51.827 -70.265 3.554 108.90
51.827 -68.810 3.554 111.90
51.827 -67.354 3.557 1.00
51.827 -65.899 3.567 109.90
51.827 -64.444 3.576 120.89
51.827 -62.989 3.581 122.89
51.827 -61.534 3.582 121.89
51.827 -60.079 3.586 261.76
51.827 -58.623 3.593 267.75
52.726 -140.948 3.604 83.92
52.726 -139.463 3.597 91.89
52.726 -137.978 3.575 135.84
52.726 -136.493 3.558 119.89
52.726 -135.008 3.556 120.89
52.726 -133.523 3.606 231.78
52.726 -132.038 3.746 285.70
52.726 -130.553 3.950 1024.95
52.726 -129.068 4.017 909.08
52.726 -127.583 3.944 1095.91
52.726 -126.098 3.840 958.00
52.726 -124.613 3.769 900.09
52.726 -123.128 3.773 404.58
52.726 -121.643 3.760 202.79
52.726 -120.158 3.738 198.79
52.726 -118.673 3.726 197.79
52.726 -117.188 3.721 199.79
52.726 -115.703 3.721 200.79
52.726 -114.218 3.722 201.79
52.726 -112.733 3.725 202.79
52.726 -111.248 3.728 203.79
52.726 -109.763 3.730 203.79
52.726 -108.278 3.729 204.78
52.726 -106.793 3.720 204.78
52.726 -105.308 3.701 130.86
52.726 -103.823 3.686 91.91
52.726 -102.338 3.679 101.91
52.726 -100.853 3.679 101.91
52.726 -99.368 3.679 173.84
52.726 -97.883 3.667 201.81
52.726 -96.398 3.652 203.81
52.726 -94.913 3.639 115.89
52.726 -93.428 3.620 92.91
52.726 -91.943 3.596 0.00
52.726 -90.458 3.582 0.00
52.726 -88.973 3.569 0.00
52.726 -87.488 3.556 0.00
52.726 -86.003 3.546 0.00
52.726 -84.518 3.540 0.00
52.726 -83.033 3.537 0.00
52.726 -81.548 3.537 0.00
52.726 -80.063 3.543 0.00
52.726 -78.578 3.555 99.28
52.726 -77.093 3.565 189.82
52.726 -75.608 3.569 138.87
52.726 -74.123 3.574 104.90
52.726 -72.638 3.580 106.90
52.726 -71.153 3.582 108.90
52.726 -69.668 3.583 110.90
52.726 -68.183 3.583 113.89
52.726 -66.698 3.583 115.89
52.726 -65.213 3.584 103.90
52.726 -63.728 3.589 245.77
52.726 -62.243 3.591 251.77
52.726 -60.758 3.586 231.78
52.726 -59.273 3.580 0.00
52.726 -57.788 3.584 83.93
53.625 -141.829 3.597 414.58
53.625 -140.313 3.590 174.83
53.625 -138.796 3.566 114.90
53.625 -137.280 3.548 0.00
53.625 -135.763 3.530 0.00
53.625 -134.247 3.544 111.88
53.625 -132.730 3.637 55.95
53.625 -131.214 3.792 533.45
53.625 -129.697 3.916 1102.98
53.625 -128.181 3.843 724.22
53.625 -126.665 3.720 1001.95
53.625 -125.148 3.684 247.72
53.625 -123.632 3.699 59.94
53.625 -122.115 3.705 186.82
53.625 -120.599 3.701 193.81
53.625 -119.082 3.703 196.81
53.625 -117.566 3.704 195.81
53.625 -116.049 3.706 197.80
53.625 -114.533 3.708 198.80
53.625 -113.016 3.712 199.80
53.625 -111.500 3.714 199.80
53.625 -109.983 3.717 201.80
53.625 -108.467 3.716 200.80
53.625 -106.951 3.706 202.80
53.625 -105.434 3.685 202.80
53.625 -103.918 3.661 194.81
53.625 -102.401 3.645 100.89
53.625 -100.885 3.631 101.90
53.625 -99.368 3.612 29.97
53.625 -97.852 3.593 0.00
53.625 -96.335 3.582 0.00
53.625 -94.819 3.574 0.00
53.625 -93.302 3.562 0.00
53.625 -91.786 3.548 0.00
53.625 -90.269 3.540 0.00
53.625 -88.753 3.537 0.00
53.625 -87.237 3.535 0.00
53.625 -85.720 3.534 0.00
53.625 -84.204 3.535 0.00
53.625 -82.687 3.537 0.00
53.625 -81.171 3.538 0.00
53.625 -79.654 3.540 0.00
53.625 -78.138 3.545 0.00
53.625 -76.621 3.551 0.00
53.625 -75.105 3.559 52.95
53.625 -73.588 3.573 194.51
53.625 -72.072 3.589 309.71
53.625 -70.555 3.597 314.71
53.625 -69.039 3.600 319.70
53.625 -67.523 3.600 327.70
53.625 -66.006 3.594 335.69
53.625 -64.490 3.584 247.77
53.625 -62.973 3.578 102.90
53.625 -61.457 3.579 104.90
53.625 -59.940 3.578 106.90
53.625 -58.424 3.573 141.86
53.625 -56.907 3.572 168.81
54.525 -142.759 3.572 105.88
54.525 -141.209 3.564 0.00
54.525 -139.660 3.548 0.00
54.525 -138.110 3.541 0.00
54.525 -136.560 3.536 0.00
54.525 -135.011 3.526 111.88
54.525 -133.461 3.546 312.70
54.525 -131.911 3.598 447.59
54.525 -130.362 3.649 750.25
54.525 -128.812 3.663 759.23
54.525 -127.262 3.628 860.13
54.525 -125.713 3.653 263.70
54.525 -124.163 3.656 189.78
54.525 -122.613 3.636 151.82
54.525 -121.064 3.617 13.98
54.525 -119.514 3.611 0.00
54.525 -117.964 3.605 0.00
54.525 -116.415 3.597 0.00
54.525 -114.865 3.592 0.00
54.525 -113.315 3.590 0.00
54.525 -111.766 3.589 0.00
54.525 -110.216 3.588 0.00
54.525 -108.666 3.590 0.00
54.525 -107.117 3.591 0.00
54.525 -105.567 3.587 0.00
54.525 -104.017 3.579 0.00
54.525 -102.468 3.571 0.00
54.525 -100.918 3.562 0.00
54.525 -99.368 3.550 0.00
54.525 -97.819 3.541 0.00
54.525 -96.269 3.538 0.00
54.525 -94.719 3.538 0.00
54.525 -93.170 3.537 0.00
54.525 -91.620 3.534 0.00
54.525 -90.070 3.534 0.00
54.525 -88.520 3.536 0.00
54.525 -86.971 3.537 0.00
54.525 -85.421 3.538 0.00
54.525 -83.871 3.538 0.00
54.525 -82.322 3.538 0.00
54.525 -80.772 3.537 0.00
54.525 -79.222 3.537 0.00
54.525 -77.673 3.538 0.00
54.525 -76.123 3.540 0.00
54.525 -74.573 3.546 0.00
54.525 -73.024 3.558 0.00
54.525 -71.474 3.572 0.00
54.525 -69.924 3.579 0.00
54.525 -68.375 3.581 9.99
54.525 -66.825 3.579 29.86
54.525 -65.275 3.572 0.00
54.525 -63.726 3.566 0.00
54.525 -62.176 3.563 0.00
54.525 -60.626 3.566 99.88
54.525 -59.077 3.569 134.84
54.525 -57.527 3.564 105.88
54.525 -55.977 3.556 0.00
55.424 -143.742 3.548 0.00
55.424 -142.157 3.542 0.00
55.424 -140.572 3.538 0.00
55.424 -138.988 3.540 0.00
55.424 -137.403 3.548 0.00
55.424 -135.818 3.550 365.65
55.424 -134.233 3.532 71.93
55.424 -132.648 3.517 734.27
55.424 -131.064 3.515 415.55
55.424 -129.479 3.558 680.29
55.424 -127.894 3.609 596.43
55.424 -126.309 3.690 374.60
55.424 -124.725 3.686 91.90
55.424 -123.140 3.637 37.96
55.424 -121.555 3.603 177.80
55.424 -119.970 3.583 192.78
55.424 -118.385 3.573 111.87
55.424 -116.801 3.564 2.00
55.424 -115.216 3.558 0.00
55.424 -113.631 3.551 0.00
55.424 -112.046 3.543 0.00
55.424 -110.462 3.536 0.00
55.424 -108.877 3.533 0.00
55.424 -107.292 3.534 0.00
55.424 -105.707 3.535 0.00
55.424 -104.123 3.535 0.00
55.424 -102.538 3.534 0.00
55.424 -100.953 3.534 0.00
55.424 -99.368 3.532 0.00
55.424 -97.783 3.531 0.00
55.424 -96.199 3.532 0.00
55.424 -94.614 3.534 0.00
55.424 -93.029 3.536 0.00
55.424 -91.444 3.536 0.00
55.424 -89.860 3.537 0.00
55.424 -88.275 3.537 0.00
55.424 -86.690 3.538 0.00
55.424 -85.105 3.540 0.00
55.424 -83.520 3.541 0.00
55.424 -81.936 3.540 0.00
55.424 -80.351 3.540 0.00
55.424 -78.766 3.543 0.00
55.424 -77.181 3.549 0.00
55.424 -75.597 3.557 0.00
55.424 -74.012 3.566 0.00
55.424 -72.427 3.573 10.99
55.424 -70.842 3.582 92.89
55.424 -69.257 3.584 90.89
55.424 -67.673 3.580 81.90
55.424 -66.088 3.570 88.90
55.424 -64.503 3.565 120.86
55.424 -62.918 3.562 123.85
55.424 -61.334 3.559 127.85
55.424 -59.749 3.555 30.96
55.424 -58.164 3.552 0.00
55.424 -56.579 3.547 0.00
55.424 -54.995 3.542 0.00
56.324 -144.782 3.538 0.00
56.324 -143.160 3.537 0.00
56.324 -141.538 3.540 0.00
56.324 -139.916 3.545 0.00
56.324 -138.294 3.555 163.85
56.324 -136.672 3.560 286.72
56.324 -135.050 3.544 158.86
56.324 -133.428 3.490 591.42
56.324 -131.806 3.473 419.54
56.324 -130.184 3.480 800.16
56.324 -128.563 3.578 210.77
56.324 -126.941 3.674 167.84
56.324 -125.319 3.700 236.77
56.324 -123.697 3.678 138.85
56.324 -122.075 3.639 52.94
56.324 -120.453 3.602 0.00
56.324 -118.831 3.583 81.91
56.324 -117.209 3.582 192.78
56.324 -115.587 3.581 195.77
56.324 -113.965 3.578 103.88
56.324 -112.343 3.572 44.95
56.324 -110.722 3.565 0.00
56.324 -109.100 3.559 0.00
56.324 -107.478 3.555 0.00
56.324 -105.856 3.550 0.00
56.324 -104.234 3.543 0.00
56.324 -102.612 3.539 0.00
56.324 -100.990 3.537 0.00
56.324 -99.368 3.537 0.00
56.324 -97.746 3.537 0.00
56.324 -96.124 3.538 0.00
56.324 -94.502 3.539 0.00
56.324 -92.881 3.539 0.00
56.324 -91.259 3.540 0.00
56.324 -89.637 3.540 0.00
56.324 -88.015 3.540 0.00
56.324 -86.393 3.544 0.00
56.324 -84.771 3.551 0.00
56.324 -83.149 3.556 0.00
56.324 -81.527 3.559 0.00
56.324 -79.905 3.560 0.00
56.324 -78.283 3.563 0.00
56.324 -76.661 3.572 64.92
56.324 -75.040 3.583 115.97
56.324 -73.418 3.592 196.77
56.324 -71.796 3.592 186.78
56.324 -70.174 3.584 107.87
56.324 -68.552 3.579 110.87
56.324 -66.930 3.570 113.87
56.324 -65.308 3.558 28.97
56.324 -63.686 3.550 0.00
56.324 -62.064 3.548 0.00
56.324 -60.442 3.547 0.00
56.324 -58.820 3.543 0.00
56.324 -57.199 3.540 0.00
56.324 -55.577 3.539 0.00
56.324 -53.955 3.538 0.00
57.223 -145.883 3.539 0.00
57.223 -144.222 3.539 0.00
57.223 -142.561 3.545 0.00
57.223 -140.899 3.550 103.90
57.223 -139.238 3.558 249.77
57.223 -137.577 3.569 172.83
57.223 -135.916 3.552 413.34
57.223 -134.254 3.488 316.64
57.223 -132.593 3.467 386.58
57.223 -130.932 3.452 725.21
57.223 -129.271 3.542 165.81
57.223 -127.609 3.621 90.91
57.223 -125.948 3.661 88.92
57.223 -124.287 3.680 236.78
57.223 -122.626 3.670 126.87
57.223 -120.964 3.644 99.89
57.223 -119.303 3.608 20.98
57.223 -117.642 3.588 0.00
57.223 -115.981 3.577 0.00
57.223 -114.319 3.577 91.89
57.223 -112.658 3.583 152.82
57.223 -110.997 3.590 197.77
57.223 -109.336 3.592 160.81
57.223 -107.674 3.591 99.88
57.223 -106.013 3.587 99.88
57.223 -104.352 3.579 35.96
57.223 -102.691 3.572 0.00
57.223 -101.029 3.567 0.00
57.223 -99.368 3.563 0.00
57.223 -97.707 3.561 0.00
57.223 -96.046 3.560 0.00
57.223 -94.384 3.559 0.00
57.223 -92.723 3.558 0.00
57.223 -91.062 3.558 0.00
57.223 -89.401 3.559 0.00
57.223 -87.739 3.560 0.00
57.223 -86.078 3.564 0.00
57.223 -84.417 3.572 71.92
57.223 -82.756 3.577 97.88
57.223 -81.094 3.579 95.89
57.223 -79.433 3.578 96.89
57.223 -77.772 3.574 94.89
57.223 -76.111 3.567 29.96
57.223 -74.449 3.564 0.00
57.223 -72.788 3.565 0.00
57.223 -71.127 3.561 0.00
57.223 -69.466 3.554 0.00
57.223 -67.805 3.550 0.00
57.223 -66.143 3.547 0.00
57.223 -64.482 3.542 0.00
57.223 -62.821 3.539 0.00
57.223 -61.160 3.539 0.00
57.223 -59.498 3.540 0.00
57.223 -57.837 3.539 0.00
57.223 -56.176 3.539 0.00
57.223 -54.515 3.539 0.00
57.223 -52.853 3.540 0.00
58.122 -147.051 3.545 0.00
58.122 -145.348 3.546 0.00
58.122 -143.645 3.548 78.93
58.122 -141.942 3.551 295.73
58.122 -140.239 3.566 0.00
58.122 -138.537 3.577 358.65
58.122 -136.834 3.543 301.67
58.122 -135.131 3.492 473.32
58.122 -133.428 3.457 593.32
58.122 -131.725 3.464 209.81
58.122 -130.022 3.534 210.60
58.122 -128.319 3.577 36.96
58.122 -126.616 3.604 71.93
58.122 -124.913 3.635 43.96
58.122 -123.210 3.666 240.79
58.122 -121.507 3.660 109.89
58.122 -119.804 3.646 97.90
58.122 -118.101 3.620 96.90
58.122 -116.398 3.587 0.00
58.122 -114.695 3.570 0.00
58.122 -112.992 3.565 0.00
58.122 -111.289 3.566 0.00
58.122 -109.586 3.569 37.96
58.122 -107.883 3.574 98.88
58.122 -106.180 3.580 100.88
58.122 -104.477 3.590 163.81
58.122 -102.774 3.596 199.77
58.122 -101.071 3.598 200.76
58.122 -99.368 3.596 128.85
58.122 -97.665 3.594 99.88
58.122 -95.962 3.591 99.88
58.122 -94.259 3.587 99.88
58.122 -92.556 3.583 99.88
58.122 -90.853 3.581 99.88
58.122 -89.150 3.581 98.88
58.122 -87.447 3.579 98.88
58.122 -85.744 3.575 97.88
58.122 -84.041 3.567 25.97
58.122 -82.339 3.562 0.00
58.122 -80.636 3.559 0.00
58.122 -78.933 3.558 0.00
58.122 -77.230 3.554 0.00
58.122 -75.527 3.547 0.00
58.122 -73.824 3.542 0.00
58.122 -72.121 3.541 0.00
58.122 -70.418 3.539 0.00
58.122 -68.715 3.538 0.00
58.122 -67.012 3.538 0.00
58.122 -65.309 3.539 0.00
58.122 -63.606 3.538 0.00
58.122 -61.903 3.538 0.00
58.122 -60.200 3.539 0.00
58.122 -58.497 3.539 0.00
58.122 -56.794 3.540 0.00
58.122 -55.091 3.539 0.00
58.122 -53.388 3.540 0.00
58.122 -51.685 3.542 0.00
59.022 -148.292 3.553 0.00
59.022 -146.545 3.556 86.37
59.022 -144.798 3.552 304.72
59.022 -143.050 3.560 0.00
59.022 -141.303 3.583 156.85
59.022 -139.556 3.585 453.52
59.022 -137.808 3.527 188.78
59.022 -136.061 3.486 364.62
59.022 -134.314 3.452 674.13
59.022 -132.567 3.495 19.98
59.022 -130.819 3.547 105.88
59.022 -129.072 3.556 0.00
59.022 -127.325 3.564 55.94
59.022 -125.577 3.587 53.95
59.022 -123.830 3.617 1.00
59.022 -122.083 3.651 211.82
59.022 -120.336 3.657 143.86
59.022 -118.588 3.645 71.92
59.022 -116.841 3.629 101.89
59.022 -115.094 3.603 79.92
59.022 -113.346 3.577 0.00
59.022 -111.599 3.563 0.00
59.022 -109.852 3.552 0.00
59.022 -108.105 3.547 0.00
59.022 -106.357 3.548 0.00
59.022 -104.610 3.556 0.00
59.022 -102.863 3.564 0.00
59.022 -101.115 3.570 0.00
59.022 -99.368 3.574 72.91
59.022 -97.621 3.576 99.88
59.022 -95.874 3.575 100.88
59.022 -94.126 3.569 53.85
59.022 -92.379 3.562 0.00
59.022 -90.632 3.559 0.00
59.022 -88.884 3.559 0.00
59.022 -87.137 3.558 0.00
59.022 -85.390 3.554 0.00
59.022 -83.643 3.547 0.00
59.022 -81.895 3.542 0.00
59.022 -80.148 3.540 0.00
59.022 -78.401 3.540 0.00
59.022 -76.654 3.540 0.00
59.022 -74.906 3.538 0.00
59.022 -73.159 3.537 0.00
59.022 -71.412 3.538 0.00
59.022 -69.664 3.538 0.00
59.022 -67.917 3.538 0.00
59.022 -66.170 3.539 0.00
59.022 -64.423 3.539 0.00
59.022 -62.675 3.540 0.00
59.022 -60.928 3.540 0.00
59.022 -59.181 3.540 0.00
59.022 -57.433 3.540 0.00
59.022 -55.686 3.540 0.00
59.022 -53.939 3.540 0.00
59.022 -52.192 3.540 0.00
59.022 -50.444 3.543 0.00
59.921 -149.612 3.556 44.66
59.921 -147.818 3.561 108.90
59.921 -146.023 3.561 0.00
59.921 -144.229 3.580 113.89
59.921 -142.434 3.603 325.67
59.921 -140.640 3.594 197.79
59.921 -138.845 3.548 313.84
59.921 -137.051 3.484 129.87
59.921 -135.257 3.468 277.74
59.921 -133.462 3.527 128.85
59.921 -131.668 3.553 0.00
59.921 -129.873 3.547 0.00
59.921 -128.079 3.545 0.00
59.921 -126.284 3.560 73.93
59.921 -124.490 3.579 36.96
59.921 -122.696 3.605 0.00
59.921 -120.901 3.636 159.85
59.921 -119.107 3.650 154.85
59.921 -117.312 3.644 105.89
59.921 -115.518 3.627 35.96
59.921 -113.724 3.615 102.89
59.921 -111.929 3.597 77.92
59.921 -110.135 3.577 0.00
59.921 -108.340 3.562 0.00
59.921 -106.546 3.548 0.00
59.921 -104.751 3.540 0.00
59.921 -102.957 3.537 0.00
59.921 -101.163 3.538 0.00
59.921 -99.368 3.542 0.00
59.921 -97.574 3.546 0.00
59.921 -95.779 3.547 0.00
59.921 -93.985 3.544 0.00
59.921 -92.191 3.541 0.00
59.921 -90.396 3.539 0.00
59.921 -88.602 3.540 0.00
59.921 -86.807 3.541 0.00
59.921 -85.013 3.540 0.00
59.921 -83.218 3.539 0.00
59.921 -81.424 3.537 0.00
59.921 -79.630 3.538 0.00
59.921 -77.835 3.538 0.00
59.921 -76.041 3.539 0.00
59.921 -74.246 3.539 0.00
59.921 -72.452 3.539 0.00
59.921 -70.657 3.540 0.00
59.921 -68.863 3.540 0.00
59.921 -67.069 3.540 0.00
59.921 -65.274 3.540 0.00
59.921 -63.480 3.540 0.00
59.921 -61.685 3.540 0.00
59.921 -59.891 3.540 0.00
59.921 -58.097 3.540 0.00
59.921 -56.302 3.540 0.00
59.921 -54.508 3.540 0.00
59.921 -52.713 3.540 0.00
59.921 -50.919 3.539 0.00
59.921 -49.124 3.540 0.00
60.820 -151.018 3.545 0.00
60.820 -149.173 3.549 0.00
60.820 -147.329 3.571 93.91
60.820 -145.484 3.596 258.75
60.820 -143.639 3.607 198.78
60.820 -141.795 3.593 195.77
60.820 -139.950 3.545 236.76
60.820 -138.106 3.481 208.81
60.820 -136.261 3.487 183.82
60.820 -134.416 3.547 130.85
60.820 -132.572 3.555 0.00
60.820 -130.727 3.542 0.00
60.820 -128.882 3.540 0.00
60.820 -127.038 3.548 0.00
60.820 -125.193 3.561 89.91
60.820 -123.348 3.573 20.98
60.820 -121.504 3.592 0.00
60.820 -119.659 3.621 100.91
60.820 -117.815 3.643 183.83
60.820 -115.970 3.637 91.90
60.820 -114.125 3.624 73.92
60.820 -112.281 3.613 24.97
60.820 -110.436 3.611 103.89
60.820 -108.591 3.602 93.90
60.820 -106.747 3.583 0.00
60.820 -104.902 3.569 0.00
60.820 -103.057 3.552 0.00
60.820 -101.213 3.542 0.00
60.820 -99.368 3.538 0.00
60.820 -97.524 3.536 0.00
60.820 -95.679 3.534 0.00
60.820 -93.834 3.533 0.00
60.820 -91.990 3.534 0.00
60.820 -90.145 3.536 0.00
60.820 -88.300 3.536 0.00
60.820 -86.456 3.537 0.00
60.820 -84.611 3.539 0.00
60.820 -82.766 3.539 0.00
60.820 -80.922 3.539 0.00
60.820 -79.077 3.540 0.00
60.820 -77.233 3.539 0.00
60.820 -75.388 3.538 0.00
60.820 -73.543 3.539 0.00
60.820 -71.699 3.539 0.00
60.820 -69.854 3.539 0.00
60.820 -68.009 3.540 0.00
60.820 -66.165 3.540 0.00
60.820 -64.320 3.540 0.00
60.820 -62.475 3.540 0.00
60.820 -60.631 3.540 0.00
60.820 -58.786 3.540 0.00
60.820 -56.942 3.540 0.00
60.820 -55.097 3.540 0.00
60.820 -53.252 3.540 0.00
60.820 -51.408 3.540 0.00
60.820 -49.563 3.538 0.00
60.820 -47.718 3.539 0.00
61.720 -152.518 3.546 0.00
61.720 -150.620 3.551 0.00
61.720 -148.722 3.582 182.56
61.720 -146.824 3.602 274.70
61.720 -144.926 3.597 0.00
61.720 -143.027 3.578 449.51
61.720 -141.129 3.516 0.00
61.720 -139.231 3.475 291.73
61.720 -137.333 3.504 109.87
61.720 -135.434 3.555 133.84
61.720 -133.536 3.552 0.00
61.720 -131.638 3.540 0.00
61.720 -129.740 3.539 0.00
61.720 -127.842 3.543 0.00
61.720 -125.943 3.551 0.00
61.720 -124.045 3.562 106.89
61.720 -122.147 3.566 5.99
61.720 -120.249 3.579 0.00
61.720 -118.350 3.607 34.97
61.720 -116.452 3.635 219.79
61.720 -114.554 3.633 69.93
61.720 -112.656 3.620 106.89
61.720 -110.758 3.607 36.96
61.720 -108.859 3.601 9.99
61.720 -106.961 3.609 103.89
61.720 -105.063 3.609 104.89
61.720 -103.165 3.595 34.96
61.720 -101.266 3.581 0.00
61.720 -99.368 3.569 0.00
61.720 -97.470 3.554 0.00
61.720 -95.572 3.542 0.00
61.720 -93.674 3.539 0.00
61.720 -91.775 3.540 0.00
61.720 -89.877 3.540 0.00
61.720 -87.979 3.536 0.00
61.720 -86.081 3.535 0.00
61.720 -84.182 3.536 0.00
61.720 -82.284 3.537 0.00
61.720 -80.386 3.537 0.00
61.720 -78.488 3.536 0.00
61.720 -76.590 3.535 0.00
61.720 -74.691 3.537 0.00
61.720 -72.793 3.542 0.00
61.720 -70.895 3.542 0.00
61.720 -68.997 3.539 0.00
61.720 -67.098 3.538 0.00
61.720 -65.200 3.540 0.00
61.720 -63.302 3.540 0.00
61.720 -61.404 3.540 0.00
61.720 -59.505 3.540 0.00
61.720 -57.607 3.540 0.00
61.720 -55.709 3.540 0.00
61.720 -53.811 3.540 0.00
61.720 -51.913 3.540 0.00
61.720 -50.014 3.539 0.00
61.720 -48.116 3.538 0.00
61.720 -46.218 3.543 0.00
62.619 -154.123 3.563 0.00
62.619 -152.167 3.570 80.83
62.619 -150.212 3.590 296.68
62.619 -148.256 3.591 0.00
62.619 -146.301 3.587 233.75
62.619 -144.345 3.542 234.75
62.619 -142.390 3.487 151.86
62.619 -140.434 3.485 151.86
62.619 -138.479 3.527 242.71
62.619 -136.523 3.551 4.99
62.619 -134.567 3.546 0.00
62.619 -132.612 3.539 0.00
62.619 -130.656 3.538 0.00
62.619 -128.701 3.540 0.00
62.619 -126.745 3.545 0.00
62.619 -124.790 3.554 0.00
62.619 -122.834 3.561 112.88
62.619 -120.879 3.559 0.00
62.619 -118.923 3.569 0.00
62.619 -116.968 3.596 0.00
62.619 -115.012 3.628 181.83
62.619 -113.057 3.635 122.89
62.619 -111.101 3.619 69.93
62.619 -109.146 3.599 107.89
62.619 -107.190 3.590 8.99
62.619 -105.235 3.592 0.00
62.619 -103.279 3.605 69.93
62.619 -101.324 3.614 103.90
62.619 -99.368 3.611 104.90
62.619 -97.413 3.596 34.97
62.619 -95.457 3.583 0.00
62.619 -93.502 3.578 0.00
62.619 -91.546 3.575 0.00
62.619 -89.591 3.566 0.00
62.619 -87.635 3.551 0.00
62.619 -85.680 3.541 0.00
62.619 -83.724 3.539 0.00
62.619 -81.769 3.539 0.00
62.619 -79.813 3.539 0.00
62.619 -77.858 3.539 0.00
62.619 -75.902 3.541 0.00
62.619 -73.946 3.551 0.00
62.619 -71.991 3.562 0.00
62.619 -70.035 3.558 0.00
62.619 -68.080 3.545 0.00
62.619 -66.124 3.539 0.00
62.619 -64.169 3.539 0.00
62.619 -62.213 3.540 0.00
62.619 -60.258 3.540 0.00
62.619 -58.302 3.540 0.00
62.619 -56.347 3.540 0.00
62.619 -54.391 3.540 0.00
62.619 -52.436 3.540 0.00
62.619 -50.480 3.539 0.00
62.619 -48.525 3.538 0.00
62.619 -46.569 3.541 0.00
62.619 -44.614 3.553 0.00
63.518 -155.841 3.585 75.91
63.518 -153.824 3.587 158.81
63.518 -151.807 3.576 0.00
63.518 -149.790 3.575 99.88
63.518 -147.773 3.561 221.57
63.518 -145.757 3.510 124.85
63.518 -143.740 3.474 317.70
63.518 -141.723 3.505 0.00
63.518 -139.706 3.544 252.70
63.518 -137.689 3.549 0.00
63.518 -135.672 3.542 0.00
63.518 -133.655 3.539 0.00
63.518 -131.638 3.539 0.00
63.518 -129.622 3.538 0.00
63.518 -127.605 3.540 0.00
