41.034 -96.984 3.952 10692.46
41.034 -95.791 4.047 12008.63
41.034 -94.599 4.083 14782.97
41.034 -93.407 4.050 16351.35
41.034 -92.215 3.952 13782.56
41.034 -91.022 3.888 10460.50
41.034 -89.830 3.906 10180.14
41.034 -88.638 4.075 8701.82
41.034 -87.445 4.292 8086.10
41.034 -86.253 4.378 7741.89
41.034 -85.061 4.255 7401.62
41.034 -83.869 4.136 7224.51
41.034 -82.676 4.073 7398.08
41.034 -81.484 4.006 4973.38
41.034 -80.292 3.952 3743.11
41.034 -79.099 4.004 3019.46
41.034 -77.907 4.035 2750.12
41.034 -76.715 3.968 2322.37
41.034 -75.523 3.885 2498.37
41.034 -74.330 3.843 2151.89
41.034 -73.138 3.831 238.83
41.034 -71.946 3.816 187.80
41.034 -70.753 3.785 9.99
41.034 -69.561 3.773 0.00
41.034 -68.369 3.774 0.00
41.034 -67.177 3.777 0.00
41.034 -65.984 3.776 0.00
41.934 -133.219 3.766 0.00
41.934 -132.010 3.755 0.00
41.934 -130.801 3.721 53.95
41.934 -129.592 3.758 104.90
41.934 -128.383 3.806 0.00
41.934 -127.174 3.724 76.92
41.934 -125.965 3.573 1744.46
41.934 -124.756 3.526 10938.56
41.934 -123.547 3.691 12152.53
41.934 -122.338 3.861 17468.77
41.934 -121.129 3.588 17388.62
41.934 -119.920 3.349 22143.94
41.934 -118.711 3.229 21627.85
41.934 -117.502 3.271 22488.82
41.934 -116.293 3.373 30402.27
41.934 -115.085 3.478 38348.85
41.934 -113.876 3.516 32558.29
41.934 -112.667 3.566 33873.00
41.934 -111.458 3.601 36295.18
41.934 -110.249 3.752 29090.65
41.934 -109.040 3.906 24786.17
41.934 -107.831 3.765 21390.19
41.934 -106.622 3.638 18514.18
41.934 -105.413 3.700 17229.34
41.934 -104.204 3.862 15262.38
41.934 -102.995 3.905 12608.54
41.934 -101.786 3.990 10704.94
41.934 -100.577 3.960 12477.80
41.934 -99.368 3.907 11913.27
41.934 -98.159 3.871 12902.30
41.934 -96.950 3.889 13577.90
41.934 -95.741 3.963 15058.34
41.934 -94.532 4.022 15119.28
41.934 -93.323 4.064 13972.77
41.934 -92.115 4.008 11187.22
41.934 -90.906 3.951 9246.02
41.934 -89.697 3.881 8829.13
41.934 -88.488 3.966 7998.44
41.934 -87.279 4.167 6801.43
41.934 -86.070 4.186 6632.45
41.934 -84.861 4.068 7077.91
41.934 -83.652 3.982 7500.20
41.934 -82.443 3.932 4954.77
41.934 -81.234 3.933 5007.53
41.934 -80.025 3.992 4590.33
41.934 -78.816 4.064 3639.38
41.934 -77.607 4.025 3082.36
41.934 -76.398 3.953 2690.24
41.934 -75.189 3.906 1000.96
41.934 -73.980 3.854 1057.87
41.934 -72.771 3.819 926.11
41.934 -71.562 3.783 189.27
41.934 -70.353 3.769 33.89
41.934 -69.145 3.769 0.00
41.934 -67.936 3.774 0.00
41.934 -66.727 3.779 0.00
41.934 -65.518 3.771 0.00
42.833 -133.707 3.736 0.00
42.833 -132.481 3.725 35.97
42.833 -131.254 3.726 126.88
42.833 -130.028 3.786 0.00
42.833 -128.802 3.769 7.99
42.833 -127.575 3.554 305.70
42.833 -126.349 3.283 10711.89
42.833 -125.122 3.262 14965.73
42.833 -123.896 3.462 9558.50
42.833 -122.670 3.618 12478.09
42.833 -121.443 3.534 12676.55
42.833 -120.217 3.392 15430.10
42.833 -118.990 3.260 18505.01
42.833 -117.764 3.348 20217.82
42.833 -116.538 3.525 26565.31
42.833 -115.311 3.546 24457.62
42.833 -114.085 3.576 28250.67
42.833 -112.858 3.619 27722.27
42.833 -111.632 3.592 31459.79
42.833 -110.406 3.662 28432.62
42.833 -109.179 3.804 24223.47
42.833 -107.953 3.765 21938.20
42.833 -106.727 3.648 21171.88
42.833 -105.500 3.713 19587.84
42.833 -104.274 3.844 18749.50
42.833 -103.047 3.881 16272.96
42.833 -101.821 4.020 15870.70
42.833 -100.595 4.003 14629.39
42.833 -99.368 3.918 13495.23
42.833 -98.142 3.903 13856.16
42.833 -96.915 3.941 13329.03
42.833 -95.689 3.968 11320.32
42.833 -94.463 3.950 11104.29
42.833 -93.236 3.943 10496.32
42.833 -92.010 3.955 10470.84
42.833 -90.783 3.885 9698.97
42.833 -89.557 3.819 7629.18
42.833 -88.331 3.897 8521.81
42.833 -87.104 4.064 6767.80
42.833 -85.878 4.082 6230.68
42.833 -84.652 3.975 5556.04
42.833 -83.425 3.918 3122.70
42.833 -82.199 3.930 3135.66
42.833 -80.972 3.963 3292.61
42.833 -79.746 4.007 3105.19
42.833 -78.520 4.021 2831.04
42.833 -77.293 3.985 3349.94
42.833 -76.067 3.941 3205.15
42.833 -74.840 3.940 2678.07
42.833 -73.614 3.897 1854.69
42.833 -72.388 3.838 1594.25
42.833 -71.161 3.785 529.56
42.833 -69.935 3.766 0.00
42.833 -68.708 3.767 0.00
42.833 -67.482 3.776 0.00
42.833 -66.256 3.779 0.00
42.833 -65.029 3.760 0.00
43.732 -134.219 3.702 22.98
43.732 -132.974 3.697 143.87
43.732 -131.729 3.752 0.00
43.732 -130.485 3.835 0.00
43.732 -129.240 3.781 283.72
43.732 -127.995 3.412 199.81
43.732 -126.751 3.021 41534.39
43.732 -125.506 2.945 21603.56
43.732 -124.261 3.101 14049.32
43.732 -123.017 3.328 13405.32
43.732 -121.772 3.434 12356.91
43.732 -120.527 3.419 13009.31
43.732 -119.283 3.371 15214.50
43.732 -118.038 3.518 17883.28
43.732 -116.793 3.608 22743.37
43.732 -115.549 3.482 19681.54
43.732 -114.304 3.412 21003.99
43.732 -113.059 3.427 17266.80
43.732 -111.815 3.474 18835.66
43.732 -110.570 3.565 21203.63
43.732 -109.325 3.715 20503.67
43.732 -108.081 3.807 21523.32
43.732 -106.836 3.753 22118.74
43.732 -105.591 3.714 19458.00
43.732 -104.347 3.724 19679.76
43.732 -103.102 3.840 18309.60
43.732 -101.858 3.995 17290.80
43.732 -100.613 4.084 16799.64
43.732 -99.368 4.099 16650.89
43.732 -98.124 4.114 14710.85
43.732 -96.879 4.073 14713.22
43.732 -95.634 4.097 12091.52
43.732 -94.390 4.002 11585.34
43.732 -93.145 3.881 11459.49
43.732 -91.900 3.905 10451.63
43.732 -90.656 3.954 9041.89
43.732 -89.411 3.953 8214.33
43.732 -88.166 4.043 8379.25
43.732 -86.922 4.084 7504.67
43.732 -85.677 4.036 5993.61
43.732 -84.432 3.953 4566.83
43.732 -83.188 3.906 4747.54
43.732 -81.943 3.901 4263.77
43.732 -80.698 3.903 4210.21
43.732 -79.454 3.919 3483.08
43.732 -78.209 3.972 3116.21
43.732 -76.964 4.002 3285.14
43.732 -75.720 4.021 2488.87
43.732 -74.475 4.045 3250.03
43.732 -73.230 3.996 2182.29
43.732 -71.986 3.919 1139.49
43.732 -70.741 3.839 118.86
43.732 -69.496 3.798 0.00
43.732 -68.252 3.778 0.00
43.732 -67.007 3.780 0.00
43.732 -65.763 3.776 0.00
43.732 -64.518 3.746 0.00
44.632 -134.754 3.684 171.84
44.632 -133.490 3.705 0.00
44.632 -132.227 3.802 0.00
44.632 -130.963 3.895 215.79
44.632 -129.699 3.802 194.81
44.632 -128.435 3.459 300.73
44.632 -127.172 3.093 2470.51
44.632 -125.908 3.003 8432.30
44.632 -124.644 3.014 10509.80
44.632 -123.380 3.192 12541.76
44.632 -122.116 3.393 11686.93
44.632 -120.853 3.455 11532.42
44.632 -119.589 3.518 13359.48
44.632 -118.325 3.681 19362.00
44.632 -117.061 3.786 19307.38
44.632 -115.797 3.641 16741.23
44.632 -114.534 3.537 15781.51
44.632 -113.270 3.469 15096.80
44.632 -112.006 3.438 14824.98
44.632 -110.742 3.485 16741.61
44.632 -109.479 3.616 17319.28
44.632 -108.215 3.829 15295.38
44.632 -106.951 3.871 16529.96
44.632 -105.687 3.782 17183.03
44.632 -104.423 3.755 16595.72
44.632 -103.160 3.789 16758.12
44.632 -101.896 3.839 15789.58
44.632 -100.632 4.000 13880.29
44.632 -99.368 4.099 13460.01
44.632 -98.104 4.143 11901.24
44.632 -96.841 4.191 11453.40
44.632 -95.577 4.179 10744.56
44.632 -94.313 3.987 10754.50
44.632 -93.049 3.898 9825.50
44.632 -91.785 3.944 9565.80
44.632 -90.522 4.021 8021.04
44.632 -89.258 3.999 8165.31
44.632 -87.994 4.086 7752.19
44.632 -86.730 4.093 6774.02
44.632 -85.467 4.021 5961.67
44.632 -84.203 3.975 4619.25
44.632 -82.939 3.962 4093.42
44.632 -81.675 3.952 3855.22
44.632 -80.411 3.909 3891.14
44.632 -79.148 3.923 4344.35
44.632 -77.884 3.993 4364.35
44.632 -76.620 4.014 4099.83
44.632 -75.356 3.997 5181.67
44.632 -74.092 3.933 3528.65
44.632 -72.829 3.925 1674.92
44.632 -71.565 3.899 1093.98
44.632 -70.301 3.855 860.86
44.632 -69.037 3.825 538.43
44.632 -67.773 3.805 363.88
44.632 -66.510 3.789 0.00
44.632 -65.246 3.762 0.00
44.632 -63.982 3.727 64.04
45.531 -135.316 3.706 161.85
45.531 -134.032 3.733 0.00
45.531 -132.748 3.825 148.86
45.531 -131.464 3.931 211.79
45.531 -130.180 3.909 166.85
45.531 -128.897 3.644 200.82
45.531 -127.613 3.400 1270.20
45.531 -126.329 3.323 1216.70
45.531 -125.045 3.247 3216.17
45.531 -123.761 3.334 7340.81
45.531 -122.477 3.449 9527.35
45.531 -121.193 3.526 11815.94
45.531 -119.910 3.562 15501.46
45.531 -118.626 3.595 20514.26
45.531 -117.342 3.664 16765.20
45.531 -116.058 3.630 13401.21
45.531 -114.774 3.584 14960.96
45.531 -113.490 3.554 13120.88
45.531 -112.207 3.450 14991.86
45.531 -110.923 3.501 14443.66
45.531 -109.639 3.620 13582.62
45.531 -108.355 3.814 13075.69
45.531 -107.071 3.931 13811.14
45.531 -105.787 3.878 13439.19
45.531 -104.504 3.804 11737.55
45.531 -103.220 3.813 12188.07
45.531 -101.936 3.844 11529.60
45.531 -100.652 4.035 12414.88
45.531 -99.368 4.152 11513.12
45.531 -98.084 4.170 11528.30
45.531 -96.801 4.133 11493.41
45.531 -95.517 4.051 10425.13
45.531 -94.233 3.986 8822.29
45.531 -92.949 3.937 8867.99
45.531 -91.665 3.981 8189.21
45.531 -90.381 3.984 7308.14
45.531 -89.097 3.926 7119.61
45.531 -87.814 4.023 6416.15
45.531 -86.530 4.077 5227.42
45.531 -85.246 4.053 4360.04
45.531 -83.962 4.007 3660.84
45.531 -82.678 3.985 3583.50
45.531 -81.394 3.964 3064.59
45.531 -80.111 3.923 3023.79
45.531 -78.827 3.948 2741.98
45.531 -77.543 4.040 2320.31
45.531 -76.259 4.072 2415.55
45.531 -74.975 4.054 1862.95
45.531 -73.691 4.017 1763.80
45.531 -72.408 3.998 1212.67
45.531 -71.124 3.954 1163.09
45.531 -69.840 3.906 1372.04
45.531 -68.556 3.889 228.01
45.531 -67.272 3.860 426.99
45.531 -65.988 3.801 184.06
45.531 -64.705 3.738 92.76
45.531 -63.421 3.711 260.76
46.431 -135.904 3.766 55.93
46.431 -134.600 3.794 98.96
46.431 -133.295 3.849 234.78
46.431 -131.990 3.875 152.86
46.431 -130.685 3.874 144.86
46.431 -129.380 3.771 240.77
46.431 -128.075 3.705 1154.30
46.431 -126.770 3.697 935.59
46.431 -125.466 3.592 2657.92
46.431 -124.161 3.541 4236.37
46.431 -122.856 3.572 7667.55
46.431 -121.551 3.625 11707.67
46.431 -120.246 3.608 16867.45
46.431 -118.941 3.526 17419.61
46.431 -117.636 3.535 13281.18
46.431 -116.331 3.610 11729.69
46.431 -115.027 3.643 11455.33
46.431 -113.722 3.684 14272.15
46.431 -112.417 3.660 12938.03
46.431 -111.112 3.682 10245.49
46.431 -109.807 3.745 11214.30
46.431 -108.502 3.806 11402.50
46.431 -107.197 3.884 11521.03
46.431 -105.893 3.910 13255.86
46.431 -104.588 3.917 10678.88
46.431 -103.283 3.866 10417.66
46.431 -101.978 3.821 8229.58
46.431 -100.673 3.934 6690.83
46.431 -99.368 4.022 7634.46
46.431 -98.063 4.043 7542.96
46.431 -96.758 4.095 8234.50
46.431 -95.454 4.090 8214.05
46.431 -94.149 4.039 7600.02
46.431 -92.844 4.025 7029.81
46.431 -91.539 4.047 5984.38
46.431 -90.234 3.959 5149.84
46.431 -88.929 3.877 5368.37
46.431 -87.624 4.020 3745.28
46.431 -86.320 4.093 3421.27
46.431 -85.015 4.060 3245.19
46.431 -83.710 4.009 2536.37
46.431 -82.405 3.952 2448.85
46.431 -81.100 3.914 2457.02
46.431 -79.795 3.900 2231.32
46.431 -78.490 3.977 1822.91
46.431 -77.185 4.058 1885.37
46.431 -75.881 4.086 1620.37
46.431 -74.576 4.083 1029.97
46.431 -73.271 4.048 711.28
46.431 -71.966 3.989 436.54
46.431 -70.661 3.943 430.56
46.431 -69.356 3.907 456.52
46.431 -68.051 3.890 238.69
46.431 -66.747 3.846 194.79
46.431 -65.442 3.779 142.87
46.431 -64.137 3.722 284.74
46.431 -62.832 3.743 5.99
47.330 -136.522 3.829 145.84
47.330 -135.195 3.850 289.73
47.330 -133.868 3.868 144.86
47.330 -132.541 3.842 140.87
47.330 -131.214 3.782 17.98
47.330 -129.887 3.736 419.58
47.330 -128.561 3.732 1205.75
47.330 -127.234 3.784 1675.49
47.330 -125.907 3.786 2131.78
47.330 -124.580 3.693 3699.76
47.330 -123.253 3.626 9360.58
47.330 -121.926 3.624 13559.88
47.330 -120.599 3.679 15299.67
47.330 -119.272 3.602 12946.73
47.330 -117.945 3.627 9745.00
47.330 -116.618 3.712 10667.83
47.330 -115.291 3.714 11095.21
47.330 -113.964 3.690 10618.25
47.330 -112.637 3.733 9927.96
47.330 -111.311 3.821 9031.63
47.330 -109.984 3.912 9890.68
47.330 -108.657 3.916 9419.00
47.330 -107.330 3.877 9431.75
47.330 -106.003 3.887 9912.43
47.330 -104.676 4.020 10312.15
47.330 -103.349 4.023 7424.45
47.330 -102.022 4.013 7876.74
47.330 -100.695 4.024 6957.33
47.330 -99.368 4.069 6304.90
47.330 -98.041 4.082 6560.73
47.330 -96.714 4.062 5789.32
47.330 -95.387 4.074 4489.67
47.330 -94.061 4.030 4377.73
47.330 -92.734 4.028 4226.78
47.330 -91.407 3.991 2772.33
47.330 -90.080 3.895 3011.06
47.330 -88.753 3.899 3688.72
47.330 -87.426 4.064 2722.27
47.330 -86.099 4.130 2486.71
47.330 -84.772 4.135 2157.85
47.330 -83.445 4.058 1945.47
47.330 -82.118 3.971 2149.54
47.330 -80.791 3.948 1752.94
47.330 -79.464 3.974 2015.80
47.330 -78.137 4.038 1434.22
47.330 -76.811 4.059 1206.07
47.330 -75.484 4.055 842.18
47.330 -74.157 4.028 905.08
47.330 -72.830 3.986 765.77
47.330 -71.503 3.931 809.28
47.330 -70.176 3.893 467.54
47.330 -68.849 3.847 94.89
47.330 -67.522 3.812 238.74
47.330 -66.195 3.774 290.86
47.330 -64.868 3.749 304.72
47.330 -63.541 3.744 94.91
47.330 -62.214 3.785 80.90
48.229 -137.170 3.884 366.65
48.229 -135.820 3.884 100.91
48.229 -134.470 3.856 118.89
48.229 -133.120 3.810 135.87
48.229 -131.770 3.754 145.85
48.229 -130.420 3.697 761.22
48.229 -129.070 3.677 1464.48
48.229 -127.720 3.770 1477.07
48.229 -126.370 3.810 2214.68
48.229 -125.020 3.736 5815.73
48.229 -123.670 3.647 13584.45
48.229 -122.320 3.665 14068.62
48.229 -120.969 3.719 12856.57
48.229 -119.619 3.701 8410.87
48.229 -118.269 3.776 9109.58
48.229 -116.919 3.846 10426.52
48.229 -115.569 3.802 8980.11
48.229 -114.219 3.728 8650.45
48.229 -112.869 3.776 7412.84
48.229 -111.519 3.862 6778.62
48.229 -110.169 3.932 7124.41
48.229 -108.819 3.947 7492.25
48.229 -107.469 3.914 8103.04
48.229 -106.119 4.000 7358.88
48.229 -104.769 4.037 9790.29
48.229 -103.418 4.061 7389.63
48.229 -102.068 4.092 7123.72
48.229 -100.718 4.040 6283.30
48.229 -99.368 4.023 6124.54
48.229 -98.018 4.002 4615.90
48.229 -96.668 4.000 4214.01
48.229 -95.318 4.008 2790.59
48.229 -93.968 4.065 2391.97
48.229 -92.618 4.140 2134.97
48.229 -91.268 4.083 2185.17
48.229 -89.918 4.021 1693.36
48.229 -88.568 4.089 1980.08
48.229 -87.217 4.184 1578.35
48.229 -85.867 4.174 1146.57
48.229 -84.517 4.091 1277.66
48.229 -83.167 4.001 1366.59
48.229 -81.817 3.985 1469.67
48.229 -80.467 4.019 1324.30
48.229 -79.117 4.045 961.71
48.229 -77.767 4.068 859.76
48.229 -76.417 4.036 971.73
48.229 -75.067 4.006 569.93
48.229 -73.717 3.959 642.63
48.229 -72.367 3.931 694.94
48.229 -71.017 3.895 306.66
48.229 -69.666 3.832 70.92
48.229 -68.316 3.770 0.00
48.229 -66.966 3.736 216.77
48.229 -65.616 3.743 161.85
48.229 -64.266 3.762 193.82
48.229 -62.916 3.784 134.87
48.229 -61.566 3.831 228.76
49.129 -137.851 3.919 411.62
49.129 -136.477 3.905 143.86
49.129 -135.103 3.834 287.72
49.129 -133.728 3.767 272.71
49.129 -132.354 3.728 672.32
49.129 -130.979 3.722 860.05
49.129 -129.605 3.691 802.52
49.129 -128.231 3.742 2098.27
49.129 -126.856 3.764 3713.95
49.129 -125.482 3.714 13465.62
49.129 -124.107 3.699 16013.19
49.129 -122.733 3.730 12081.33
49.129 -121.359 3.756 9650.04
49.129 -119.984 3.719 9702.58
49.129 -118.610 3.777 7998.76
49.129 -117.235 3.889 7497.36
49.129 -115.861 3.872 5922.35
49.129 -114.487 3.801 5990.87
49.129 -113.112 3.781 5983.77
49.129 -111.738 3.793 5179.37
49.129 -110.363 3.823 4899.47
49.129 -108.989 3.876 5129.81
49.129 -107.615 3.893 5102.50
49.129 -106.240 3.958 6343.89
49.129 -104.866 3.980 7420.13
49.129 -103.491 4.049 7968.16
49.129 -102.117 4.040 6209.79
49.129 -100.743 4.013 5518.35
49.129 -99.368 4.009 5049.12
49.129 -97.994 4.040 3913.68
49.129 -96.619 4.017 2925.01
49.129 -95.245 3.995 2144.46
49.129 -93.871 4.045 1191.77
49.129 -92.496 4.095 1099.86
49.129 -91.122 4.081 1317.29
49.129 -89.747 4.115 1666.32
49.129 -88.373 4.163 2153.75
49.129 -86.999 4.200 1450.48
49.129 -85.624 4.102 1462.50
49.129 -84.250 4.005 1693.25
49.129 -82.875 3.961 1262.49
49.129 -81.501 3.973 731.19
49.129 -80.127 3.998 1107.84
49.129 -78.752 4.022 949.03
49.129 -77.378 4.025 433.58
49.129 -76.003 3.978 369.64
49.129 -74.629 3.920 296.70
49.129 -73.255 3.867 355.62
49.129 -71.880 3.845 284.73
49.129 -70.506 3.818 99.88
49.129 -69.131 3.757 19.98
49.129 -67.757 3.717 224.10
49.129 -66.383 3.736 92.90
49.129 -65.008 3.777 120.89
49.129 -63.634 3.801 79.93
49.129 -62.259 3.830 117.87
49.129 -60.885 3.877 352.67
50.028 -138.567 3.931 512.52
50.028 -137.167 3.911 519.04
50.028 -135.767 3.790 422.56
50.028 -134.367 3.740 526.44
50.028 -132.967 3.738 277.74
50.028 -131.567 3.765 687.21
50.028 -130.167 3.729 780.33
50.028 -128.767 3.744 3214.86
50.028 -127.368 3.749 14598.38
50.028 -125.968 3.724 17761.25
50.028 -124.568 3.727 14744.25
50.028 -123.168 3.699 11983.47
50.028 -121.768 3.663 10414.44
50.028 -120.368 3.648 8091.52
50.028 -118.968 3.739 7203.03
50.028 -117.568 3.846 7094.99
50.028 -116.168 3.872 5989.45
50.028 -114.768 3.826 5363.13
50.028 -113.368 3.769 4774.05
50.028 -111.968 3.753 4020.11
50.028 -110.568 3.726 3713.38
50.028 -109.168 3.729 4543.53
50.028 -107.768 3.833 4736.17
50.028 -106.368 3.879 5204.59
50.028 -104.968 3.895 5438.35
50.028 -103.568 3.943 7178.58
50.028 -102.168 3.944 5869.32
50.028 -100.768 3.955 5688.13
50.028 -99.368 3.974 3838.06
50.028 -97.968 4.055 3025.91
50.028 -96.568 4.083 3098.05
50.028 -95.168 4.041 1434.48
50.028 -93.768 4.007 984.00
50.028 -92.368 3.999 993.91
50.028 -90.968 4.000 1491.46
50.028 -89.568 4.060 1629.32
50.028 -88.168 4.118 1615.35
50.028 -86.769 4.085 1166.77
50.028 -85.369 3.997 1132.80
50.028 -83.969 3.957 850.09
50.028 -82.569 3.939 451.52
50.028 -81.169 3.932 752.21
50.028 -79.769 3.941 692.64
50.028 -78.369 3.983 557.43
50.028 -76.969 3.981 339.26
50.028 -75.569 3.907 366.65
50.028 -74.169 3.827 375.60
50.028 -72.769 3.778 104.89
50.028 -71.369 3.768 183.84
50.028 -69.969 3.750 213.78
50.028 -68.569 3.729 137.87
50.028 -67.169 3.758 200.79
50.028 -65.769 3.798 72.93
50.028 -64.369 3.822 127.88
50.028 -62.969 3.843 163.84
50.028 -61.569 3.869 525.50
50.028 -60.169 3.887 151.86
50.927 -139.320 3.896 913.13
50.927 -137.893 3.871 715.31
50.927 -136.466 3.788 285.70
50.927 -135.040 3.770 2.00
50.927 -133.613 3.796 388.60
50.927 -132.186 3.798 643.29
50.927 -130.759 3.768 1548.71
50.927 -129.332 3.767 18698.36
50.927 -127.905 3.772 24699.39
50.927 -126.478 3.712 16723.93
50.927 -125.052 3.570 15258.84
50.927 -123.625 3.485 11581.60
50.927 -122.198 3.526 9235.16
50.927 -120.771 3.599 7809.95
50.927 -119.344 3.663 6624.13
50.927 -117.917 3.757 6086.40
50.927 -116.490 3.788 4865.11
50.927 -115.064 3.712 3905.19
50.927 -113.637 3.664 3747.29
50.927 -112.210 3.728 3207.50
50.927 -110.783 3.766 2537.39
50.927 -109.356 3.780 2283.69
50.927 -107.929 3.874 4926.95
50.927 -106.502 3.885 4559.24
50.927 -105.076 3.902 6024.74
50.927 -103.649 3.927 7294.08
50.927 -102.222 3.942 6999.32
50.927 -100.795 3.931 5061.72
50.927 -99.368 4.010 3323.12
50.927 -97.941 4.074 2127.66
50.927 -96.514 4.092 1447.56
50.927 -95.088 4.003 1081.90
50.927 -93.661 3.981 1227.69
50.927 -92.234 4.006 1238.67
50.927 -90.807 4.005 1771.20
50.927 -89.380 4.056 1013.20
50.927 -87.953 4.043 873.17
50.927 -86.526 4.005 1401.50
50.927 -85.100 3.983 1049.88
50.927 -83.673 3.978 516.47
50.927 -82.246 3.958 654.31
50.927 -80.819 3.933 594.35
50.927 -79.392 3.923 395.61
50.927 -77.965 3.935 140.87
50.927 -76.538 3.913 542.49
50.927 -75.112 3.847 285.71
50.927 -73.685 3.764 266.72
50.927 -72.258 3.719 193.82
50.927 -70.831 3.734 328.68
50.927 -69.404 3.756 72.93
50.927 -67.977 3.785 229.78
50.927 -66.550 3.824 198.80
50.927 -65.124 3.852 259.76
50.927 -63.697 3.853 306.71
50.927 -62.270 3.859 479.53
50.927 -60.843 3.864 311.71
50.927 -59.416 3.867 651.39
51.827 -140.113 3.849 1038.03
51.827 -138.658 3.829 79.92
51.827 -137.203 3.792 21.97
51.827 -135.747 3.807 155.82
51.827 -134.292 3.832 545.44
51.827 -132.837 3.769 607.36
51.827 -131.382 3.689 27945.49
51.827 -129.927 3.644 39111.68
51.827 -128.472 3.600 18971.59
51.827 -127.016 3.483 13747.92
51.827 -125.561 3.365 10659.84
51.827 -124.106 3.361 8519.65
51.827 -122.651 3.473 6217.27
51.827 -121.196 3.554 4362.39
51.827 -119.741 3.611 3431.22
51.827 -118.285 3.712 3301.26
51.827 -116.830 3.762 2729.33
51.827 -115.375 3.712 1828.25
51.827 -113.920 3.734 2171.83
51.827 -112.465 3.858 2281.74
51.827 -111.010 3.915 2713.25
51.827 -109.554 3.902 3308.58
51.827 -108.099 3.893 4492.36
51.827 -106.644 3.949 6041.65
51.827 -105.189 3.992 6049.45
51.827 -103.734 4.023 6946.88
51.827 -102.279 4.030 7569.08
51.827 -100.823 4.030 5023.83
51.827 -99.368 4.038 2879.50
51.827 -97.913 4.051 1845.16
51.827 -96.458 4.000 880.13
51.827 -95.003 3.945 1514.46
51.827 -93.548 4.000 1080.93
51.827 -92.092 4.057 1044.94
51.827 -90.637 4.069 1331.11
51.827 -89.182 4.071 1106.79
51.827 -87.727 4.009 1475.43
51.827 -86.272 4.013 937.98
51.827 -84.817 4.034 594.37
51.827 -83.361 4.027 823.14
51.827 -81.906 3.971 741.54
51.827 -80.451 3.923 537.42
51.827 -78.996 3.891 485.55
51.827 -77.541 3.875 281.72
51.827 -76.085 3.842 487.53
51.827 -74.630 3.791 520.52
51.827 -73.175 3.724 478.53
51.827 -71.720 3.710 259.76
51.827 -70.265 3.756 208.78
51.827 -68.810 3.796 223.80
51.827 -67.354 3.827 200.79
51.827 -65.899 3.856 194.82
51.827 -64.444 3.854 637.41
51.827 -62.989 3.839 673.35
51.827 -61.534 3.842 509.52
51.827 -60.079 3.855 615.43
51.827 -58.623 3.852 361.66
52.726 -140.948 3.809 267.75
52.726 -139.463 3.795 91.89
52.726 -137.978 3.793 135.84
52.726 -136.493 3.821 368.64
52.726 -135.008 3.784 643.37
52.726 -133.523 3.649 585.39
52.726 -132.038 3.470 2540.58
52.726 -130.553 3.408 6295.19
52.726 -129.068 3.480 5219.31
52.726 -127.583 3.469 5185.84
52.726 -126.098 3.412 4876.10
52.726 -124.613 3.517 4627.62
52.726 -123.128 3.620 3658.16
52.726 -121.643 3.650 3339.87
52.726 -120.158 3.717 2664.86
52.726 -118.673 3.829 2759.67
52.726 -117.188 3.881 2774.16
52.726 -115.703 3.844 2035.91
52.726 -114.218 3.880 1977.97
52.726 -112.733 4.020 2736.28
52.726 -111.248 4.058 3426.48
52.726 -109.763 4.010 3874.99
52.726 -108.278 3.926 4336.40
52.726 -106.793 3.960 6113.65
52.726 -105.308 4.029 6308.02
52.726 -103.823 4.062 8016.61
52.726 -102.338 4.094 7180.51
52.726 -100.853 4.078 5328.71
52.726 -99.368 4.065 2534.02
52.726 -97.883 4.033 883.16
52.726 -96.398 3.968 897.08
52.726 -94.913 3.953 1021.95
52.726 -93.428 4.026 877.10
52.726 -91.943 4.075 904.07
52.726 -90.458 4.118 1620.61
52.726 -88.973 4.122 1151.72
52.726 -87.488 4.036 853.17
52.726 -86.003 4.038 782.18
52.726 -84.518 4.037 796.31
52.726 -83.033 3.993 334.68
52.726 -81.548 3.926 296.66
52.726 -80.063 3.887 430.55
52.726 -78.578 3.838 789.04
52.726 -77.093 3.812 678.33
52.726 -75.608 3.789 573.46
52.726 -74.123 3.766 437.57
52.726 -72.638 3.734 545.49
52.726 -71.153 3.751 449.57
52.726 -69.668 3.798 391.62
52.726 -68.183 3.833 563.48
52.726 -66.698 3.847 534.49
52.726 -65.213 3.855 826.23
52.726 -63.728 3.848 533.50
52.726 -62.243 3.845 463.55
52.726 -60.758 3.847 396.63
52.726 -59.273 3.853 36.97
52.726 -57.788 3.838 332.70
53.625 -141.829 3.764 414.58
53.625 -140.313 3.765 174.83
53.625 -138.796 3.804 382.65
53.625 -137.280 3.851 349.65
53.625 -135.763 3.793 184.80
53.625 -134.247 3.694 478.48
53.625 -132.730 3.582 646.12
53.625 -131.214 3.587 1999.97
53.625 -129.697 3.637 2844.22
53.625 -128.181 3.605 2474.48
53.625 -126.665 3.570 2426.46
53.625 -125.148 3.660 2973.88
53.625 -123.632 3.721 1676.28
53.625 -122.115 3.751 1938.23
53.625 -120.599 3.820 1899.48
53.625 -119.082 3.932 1858.18
53.625 -117.566 3.985 2087.89
53.625 -116.049 3.970 2012.88
53.625 -114.533 3.974 2244.80
53.625 -113.016 4.022 2623.64
53.625 -111.500 4.050 3140.83
53.625 -109.983 4.014 4587.24
53.625 -108.467 3.935 4809.94
53.625 -106.951 3.943 5694.17
53.625 -105.434 4.016 7250.79
53.625 -103.918 4.060 6024.70
53.625 -102.401 4.107 5999.33
53.625 -100.885 4.123 5079.30
53.625 -99.368 4.097 2355.55
53.625 -97.852 4.052 1461.45
53.625 -96.335 4.018 574.37
53.625 -94.819 4.002 987.98
53.625 -93.302 4.035 674.28
53.625 -91.786 4.015 1223.72
53.625 -90.269 4.071 966.00
53.625 -88.753 4.122 786.19
53.625 -87.237 4.048 920.13
53.625 -85.720 4.049 932.02
53.625 -84.204 4.025 604.41
53.625 -82.687 3.972 286.73
53.625 -81.171 3.900 380.59
53.625 -79.654 3.872 357.61
53.625 -78.138 3.862 261.74
53.625 -76.621 3.850 564.67
53.625 -75.105 3.819 790.23
53.625 -73.588 3.789 859.63
53.625 -72.072 3.805 532.48
53.625 -70.555 3.879 539.47
53.625 -69.039 3.931 431.58
53.625 -67.523 3.946 942.10
53.625 -66.006 3.912 681.37
53.625 -64.490 3.862 441.59
53.625 -62.973 3.834 326.67
53.625 -61.457 3.831 236.78
53.625 -59.940 3.835 110.90
53.625 -58.424 3.841 435.59
53.625 -56.907 3.809 168.81
54.525 -142.759 3.778 175.81
54.525 -141.209 3.792 317.70
54.525 -139.660 3.840 113.88
54.525 -138.110 3.830 213.79
54.525 -136.560 3.786 310.63
54.525 -135.011 3.751 410.63
54.525 -133.461 3.705 645.75
54.525 -131.911 3.769 1920.41
54.525 -130.362 3.830 2231.24
54.525 -128.812 3.766 2464.47
54.525 -127.262 3.722 2387.53
54.525 -125.713 3.753 2210.20
54.525 -124.163 3.800 1244.61
54.525 -122.613 3.875 1271.45
54.525 -121.064 3.965 1397.67
54.525 -119.514 4.019 1051.96
54.525 -117.964 4.014 1401.66
54.525 -116.415 4.004 1993.90
54.525 -114.865 4.016 1895.05
54.525 -113.315 4.004 2219.76
54.525 -111.766 4.050 3629.26
54.525 -110.216 4.015 4879.88
54.525 -108.666 3.989 5467.24
54.525 -107.117 3.979 6356.25
54.525 -105.567 3.995 6543.17
54.525 -104.017 4.048 4180.85
54.525 -102.468 4.080 4944.22
54.525 -100.918 4.106 3919.95
54.525 -99.368 4.077 3035.91
54.525 -97.819 4.058 1384.48
54.525 -96.269 4.068 1124.81
54.525 -94.719 4.002 944.01
54.525 -93.170 3.950 726.22
54.525 -91.620 3.949 618.34
54.525 -90.070 4.054 1398.55
54.525 -88.520 4.119 791.21
54.525 -86.971 4.035 905.11
54.525 -85.421 4.020 617.24
54.525 -83.871 3.993 411.59
54.525 -82.322 3.933 292.69
54.525 -80.772 3.879 280.69
54.525 -79.222 3.884 407.60
54.525 -77.673 3.920 205.81
54.525 -76.123 3.919 501.52
54.525 -74.573 3.891 374.63
54.525 -73.024 3.865 467.52
54.525 -71.474 3.904 466.52
54.525 -69.924 3.995 478.07
54.525 -68.375 4.046 917.98
54.525 -66.825 4.013 543.84
54.525 -65.275 3.931 250.77
54.525 -63.726 3.856 229.77
54.525 -62.176 3.827 121.87
54.525 -60.626 3.836 124.86
54.525 -59.077 3.851 416.58
54.525 -57.527 3.821 109.87
54.525 -55.977 3.800 0.00
55.424 -143.742 3.804 495.54
55.424 -142.157 3.824 0.00
55.424 -140.572 3.862 149.82
55.424 -138.988 3.789 226.78
55.424 -137.403 3.746 270.68
55.424 -135.818 3.743 641.42
55.424 -134.233 3.709 600.42
55.424 -132.648 3.781 1979.06
55.424 -131.064 3.833 1950.02
55.424 -129.479 3.729 2127.69
55.424 -127.894 3.663 1774.16
55.424 -126.309 3.702 2283.87
55.424 -124.725 3.768 1386.56
55.424 -123.140 3.868 1129.84
55.424 -121.555 4.012 1387.72
55.424 -119.970 4.031 1753.35
55.424 -118.385 3.983 1500.46
55.424 -116.801 3.991 1416.55
55.424 -115.216 4.043 2435.42
55.424 -113.631 4.013 2512.49
55.424 -112.046 3.997 3925.91
55.424 -110.462 4.013 5219.61
55.424 -108.877 4.022 6550.83
55.424 -107.292 3.968 6263.43
55.424 -105.707 3.977 4959.25
55.424 -104.123 3.990 3338.11
55.424 -102.538 3.995 2732.18
55.424 -100.953 3.987 3595.25
55.424 -99.368 4.037 4681.11
55.424 -97.783 4.083 1836.99
55.424 -96.199 4.104 1021.96
55.424 -94.614 3.979 558.42
55.424 -93.029 3.870 587.39
55.424 -91.444 3.931 506.51
55.424 -89.860 4.054 1521.41
55.424 -88.275 4.101 590.38
55.424 -86.690 4.012 823.21
55.424 -85.105 3.998 773.18
55.424 -83.520 3.975 594.37
55.424 -81.936 3.907 322.65
55.424 -80.351 3.866 300.65
55.424 -78.766 3.868 363.64
55.424 -77.181 3.907 220.77
55.424 -75.597 3.901 415.59
55.424 -74.012 3.874 419.55
55.424 -72.427 3.866 300.68
55.424 -70.842 3.915 377.56
55.424 -69.257 3.956 412.57
55.424 -67.673 3.959 642.36
55.424 -66.088 3.907 391.61
55.424 -64.503 3.844 336.45
55.424 -62.918 3.802 224.74
55.424 -61.334 3.810 142.44
55.424 -59.749 3.845 248.76
55.424 -58.164 3.836 39.96
55.424 -56.579 3.801 223.79
55.424 -54.995 3.791 293.73
56.324 -144.782 3.833 49.95
56.324 -143.160 3.856 76.91
56.324 -141.538 3.840 77.91
56.324 -139.916 3.759 255.75
56.324 -138.294 3.726 411.56
56.324 -136.672 3.725 775.26
56.324 -135.050 3.692 871.13
56.324 -133.428 3.723 1288.58
56.324 -131.806 3.782 1956.25
56.324 -130.184 3.667 1973.90
56.324 -128.563 3.604 1222.77
56.324 -126.941 3.661 1300.20
56.324 -125.319 3.751 1820.50
56.324 -123.697 3.855 1630.48
56.324 -122.075 4.005 1816.60
56.324 -120.453 4.013 1409.62
56.324 -118.831 3.981 1201.77
56.324 -117.209 4.011 1501.45
56.324 -115.587 4.027 2611.31
56.324 -113.965 4.041 4253.56
56.324 -112.343 3.985 4953.86
56.324 -110.722 4.003 6036.56
56.324 -109.100 4.023 6828.10
56.324 -107.478 4.015 5295.40
56.324 -105.856 3.981 2724.66
56.324 -104.234 3.979 3185.73
56.324 -102.612 3.947 2612.19
56.324 -100.990 3.932 4168.60
56.324 -99.368 4.010 3982.80
56.324 -97.746 4.106 3030.89
56.324 -96.124 4.110 919.06
56.324 -94.502 3.983 342.63
56.324 -92.881 3.869 1019.97
56.324 -91.259 3.983 773.21
56.324 -89.637 4.070 1017.91
56.324 -88.015 4.065 436.58
56.324 -86.393 3.945 727.29
56.324 -84.771 3.922 487.48
56.324 -83.149 3.931 279.71
56.324 -81.527 3.894 374.61
56.324 -79.905 3.857 228.05
56.324 -78.283 3.848 301.72
56.324 -76.661 3.884 220.78
56.324 -75.040 3.879 396.71
56.324 -73.418 3.848 461.50
56.324 -71.796 3.847 316.66
56.324 -70.174 3.880 379.59
56.324 -68.552 3.874 355.62
56.324 -66.930 3.836 545.44
56.324 -65.308 3.796 328.70
56.324 -63.686 3.766 250.75
56.324 -62.064 3.772 34.97
56.324 -60.442 3.803 26.98
56.324 -58.820 3.824 74.93
56.324 -57.199 3.806 265.57
56.324 -55.577 3.784 61.94
56.324 -53.955 3.793 0.00
57.223 -145.883 3.866 0.00
57.223 -144.222 3.879 159.81
57.223 -142.561 3.802 0.00
57.223 -140.899 3.735 363.65
57.223 -139.238 3.717 688.27
57.223 -137.577 3.712 736.29
57.223 -135.916 3.672 1070.23
57.223 -134.254 3.692 1063.67
57.223 -132.593 3.749 1338.60
57.223 -130.932 3.654 1425.62
57.223 -129.271 3.602 1268.84
57.223 -127.609 3.662 1025.28
57.223 -125.948 3.758 2308.69
57.223 -124.287 3.866 2044.01
57.223 -122.626 4.008 1596.50
57.223 -120.964 4.033 996.98
57.223 -119.303 4.015 1214.75
57.223 -117.642 4.031 1921.03
57.223 -115.981 4.052 2976.99
57.223 -114.319 4.028 5643.07
57.223 -112.658 3.991 6634.84
57.223 -110.997 3.998 7002.65
57.223 -109.336 4.033 5506.40
57.223 -107.674 4.047 3364.33
57.223 -106.013 4.021 2442.41
57.223 -104.352 4.001 3291.52
57.223 -102.691 3.973 2908.91
57.223 -101.029 3.985 3355.45
57.223 -99.368 4.010 3587.29
57.223 -97.707 4.053 3499.36
57.223 -96.046 4.070 1586.37
57.223 -94.384 4.031 744.24
57.223 -92.723 3.951 1095.88
57.223 -91.062 4.056 532.45
57.223 -89.401 4.116 1071.87
57.223 -87.739 4.024 321.67
57.223 -86.078 3.887 617.40
57.223 -84.417 3.873 479.48
57.223 -82.756 3.897 402.54
57.223 -81.094 3.873 299.67
57.223 -79.433 3.848 282.69
57.223 -77.772 3.860 309.67
57.223 -76.111 3.888 333.66
57.223 -74.449 3.875 237.76
57.223 -72.788 3.845 309.70
57.223 -71.127 3.848 201.80
57.223 -69.466 3.847 15.98
57.223 -67.805 3.826 383.63
57.223 -66.143 3.795 300.71
57.223 -64.482 3.763 183.80
57.223 -62.821 3.753 153.84
57.223 -61.160 3.773 145.87
57.223 -59.498 3.796 239.79
57.223 -57.837 3.795 6.99
57.223 -56.176 3.781 0.00
57.223 -54.515 3.772 89.25
57.223 -52.853 3.801 9.99
58.122 -147.051 3.898 131.84
58.122 -145.348 3.869 34.96
58.122 -143.645 3.767 107.90
58.122 -141.942 3.720 645.35
58.122 -140.239 3.717 654.35
58.122 -138.537 3.712 875.09
58.122 -136.834 3.693 927.05
58.122 -135.131 3.723 1281.42
58.122 -133.428 3.770 1225.43
58.122 -131.725 3.720 1263.96
58.122 -130.022 3.687 1768.99
58.122 -128.319 3.732 1229.70
58.122 -126.616 3.801 2090.75
58.122 -124.913 3.885 1475.48
58.122 -123.210 4.011 1647.48
58.122 -121.507 4.031 1308.69
58.122 -119.804 4.032 1129.82
58.122 -118.101 4.036 2029.94
58.122 -116.398 4.046 4301.57
58.122 -114.695 4.002 7277.86
58.122 -112.992 3.998 8588.49
58.122 -111.289 3.998 6440.30
58.122 -109.586 4.009 3391.07
58.122 -107.883 4.029 1971.02
58.122 -106.180 4.032 2419.43
58.122 -104.477 4.037 2321.55
58.122 -102.774 4.088 3555.28
58.122 -101.071 4.059 2836.02
58.122 -99.368 3.987 3618.19
58.122 -97.665 3.978 3933.93
58.122 -95.962 4.018 2148.69
58.122 -94.259 4.054 1346.63
58.122 -92.556 4.033 1128.86
58.122 -90.853 4.095 682.26
58.122 -89.150 4.127 800.13
58.122 -87.447 4.007 531.43
58.122 -85.744 3.874 712.27
58.122 -84.041 3.861 431.53
58.122 -82.339 3.884 303.66
58.122 -80.636 3.866 204.79
58.122 -78.933 3.858 267.72
58.122 -77.230 3.887 155.84
58.122 -75.527 3.899 465.54
58.122 -73.824 3.860 393.61
58.122 -72.121 3.822 100.91
58.122 -70.418 3.831 99.89
58.122 -68.715 3.825 138.85
58.122 -67.012 3.805 329.69
58.122 -65.309 3.788 144.86
58.122 -63.606 3.775 176.82
58.122 -61.903 3.781 87.90
58.122 -60.200 3.791 203.81
58.122 -58.497 3.779 77.93
58.122 -56.794 3.766 149.87
58.122 -55.091 3.761 89.93
58.122 -53.388 3.769 21.98
58.122 -51.685 3.811 76.91
59.022 -148.292 3.904 212.75
59.022 -146.545 3.851 86.37
59.022 -144.798 3.742 615.39
59.022 -143.050 3.714 341.64
59.022 -141.303 3.737 988.98
59.022 -139.556 3.713 674.31
59.022 -137.808 3.735 1268.14
59.022 -136.061 3.768 1167.51
59.022 -134.314 3.824 2762.70
59.022 -132.567 3.817 1456.53
59.022 -130.819 3.802 928.39
59.022 -129.072 3.836 714.25
59.022 -127.325 3.848 2089.43
59.022 -125.577 3.845 1673.62
59.022 -123.830 3.939 714.50
59.022 -122.083 4.027 882.16
59.022 -120.336 4.033 1300.63
59.022 -118.588 4.037 3340.60
59.022 -116.841 3.974 7523.18
59.022 -115.094 3.963 9334.55
59.022 -113.346 3.989 8148.08
59.022 -111.599 4.029 3570.08
59.022 -109.852 4.012 1848.21
59.022 -108.105 4.024 1900.01
59.022 -106.357 4.071 2228.68
59.022 -104.610 4.109 2375.50
59.022 -102.863 4.152 2910.01
59.022 -101.115 4.075 2687.16
59.022 -99.368 3.971 3987.81
59.022 -97.621 3.932 3418.45
59.022 -95.874 3.954 3078.80
59.022 -94.126 3.977 1026.26
59.022 -92.379 3.999 507.48
59.022 -90.632 4.047 948.00
59.022 -88.884 4.096 487.49
59.022 -87.137 4.007 411.58
59.022 -85.390 3.897 800.17
59.022 -83.643 3.895 500.45
59.022 -81.895 3.918 216.76
59.022 -80.148 3.888 205.78
59.022 -78.401 3.884 424.56
59.022 -76.654 3.910 260.74
59.022 -74.906 3.875 354.65
59.022 -73.159 3.819 263.74
59.022 -71.412 3.805 150.85
59.022 -69.664 3.815 38.96
59.022 -67.917 3.808 369.64
59.022 -66.170 3.799 214.79
59.022 -64.423 3.790 104.89
59.022 -62.675 3.795 11.99
59.022 -60.928 3.807 117.90
59.022 -59.181 3.798 124.88
59.022 -57.433 3.772 103.89
59.022 -55.686 3.753 85.92
59.022 -53.939 3.753 76.93
59.022 -52.192 3.775 100.91
59.022 -50.444 3.822 77.94
59.921 -149.612 3.867 468.17
59.921 -147.818 3.813 222.77
59.921 -146.023 3.722 508.47
59.921 -144.229 3.727 722.19
59.921 -142.434 3.740 838.21
59.921 -140.640 3.706 380.82
59.921 -138.845 3.739 1044.54
59.921 -137.051 3.788 783.64
59.921 -135.257 3.840 1537.83
59.921 -133.462 3.815 1429.72
59.921 -131.668 3.795 1013.97
59.921 -129.873 3.810 822.13
59.921 -128.079 3.785 1358.65
59.921 -126.284 3.765 2428.35
59.921 -124.490 3.897 928.07
59.921 -122.696 4.017 602.42
59.921 -120.901 4.064 1550.46
59.921 -119.107 4.027 6029.75
59.921 -117.312 3.990 10202.31
59.921 -115.518 3.952 8814.87
59.921 -113.724 3.985 3703.03
59.921 -111.929 4.016 2506.33
59.921 -110.135 4.045 2020.90
59.921 -108.340 4.094 2205.72
59.921 -106.546 4.139 2106.88
59.921 -104.751 4.171 2419.47
59.921 -102.957 4.142 2506.42
59.921 -101.163 4.109 3402.46
59.921 -99.368 4.005 3439.42
59.921 -97.574 3.918 3845.97
59.921 -95.779 3.878 3203.66
59.921 -93.985 3.853 1169.80
59.921 -92.191 3.905 177.83
59.921 -90.396 3.968 581.36
59.921 -88.602 4.077 721.28
59.921 -86.807 4.041 770.19
59.921 -85.013 3.956 750.23
59.921 -83.218 3.975 472.48
59.921 -81.424 3.987 424.53
59.921 -79.630 3.919 396.58
59.921 -77.835 3.881 339.65
59.921 -76.041 3.882 287.71
59.921 -74.246 3.837 309.69
59.921 -72.452 3.793 202.81
59.921 -70.657 3.807 99.89
59.921 -68.863 3.816 172.82
59.921 -67.069 3.805 344.67
59.921 -65.274 3.793 120.88
59.921 -63.480 3.792 64.93
59.921 -61.685 3.806 35.97
59.921 -59.891 3.811 65.95
59.921 -58.097 3.793 14.99
59.921 -56.302 3.774 75.93
59.921 -54.508 3.761 92.90
59.921 -52.713 3.757 112.88
59.921 -50.919 3.780 80.92
59.921 -49.124 3.829 259.84
60.820 -151.018 3.791 331.66
60.820 -149.173 3.759 440.23
60.820 -147.329 3.717 444.55
60.820 -145.484 3.740 984.69
60.820 -143.639 3.746 630.01
60.820 -141.795 3.713 759.15
60.820 -139.950 3.759 733.24
60.820 -138.106 3.788 582.41
60.820 -136.261 3.806 726.52
60.820 -134.416 3.772 908.48
60.820 -132.572 3.747 564.64
60.820 -130.727 3.773 307.74
60.820 -128.882 3.764 432.55
60.820 -127.038 3.789 2564.97
60.820 -125.193 3.920 880.12
60.820 -123.348 4.029 867.11
60.820 -121.504 4.049 4045.86
60.820 -119.659 3.995 11770.28
60.820 -117.815 3.965 10058.66
60.820 -115.970 3.975 3301.68
60.820 -114.125 3.965 2166.79
60.820 -112.281 4.016 2965.85
60.820 -110.436 4.143 2692.11
60.820 -108.591 4.186 2055.95
60.820 -106.747 4.195 2143.79
60.820 -104.902 4.172 2119.84
60.820 -103.057 4.123 2365.50
60.820 -101.213 4.106 3440.49
60.820 -99.368 4.051 2611.31
60.820 -97.524 3.924 3965.87
60.820 -95.679 3.813 2923.97
60.820 -93.834 3.781 2487.36
60.820 -91.990 3.869 330.64
60.820 -90.145 3.952 615.35
60.820 -88.300 4.051 409.60
60.820 -86.456 4.046 602.39
60.820 -84.611 4.014 1366.59
60.820 -82.766 4.045 693.26
60.820 -80.922 4.010 119.87
60.820 -79.077 3.921 441.54
60.820 -77.233 3.872 279.71
60.820 -75.388 3.847 394.61
60.820 -73.543 3.804 304.69
60.820 -71.699 3.795 143.86
60.820 -69.854 3.813 56.94
60.820 -68.009 3.812 426.59
60.820 -66.165 3.803 175.83
60.820 -64.320 3.794 100.89
60.820 -62.475 3.801 6.99
60.820 -60.631 3.811 94.92
60.820 -58.786 3.798 0.00
60.820 -56.942 3.782 0.00
60.820 -55.097 3.773 0.00
60.820 -53.252 3.766 54.95
60.820 -51.408 3.757 94.90
60.820 -49.563 3.760 111.88
60.820 -47.718 3.773 199.78
61.720 -152.518 3.748 380.58
61.720 -150.620 3.739 39.96
61.720 -148.722 3.725 693.96
61.720 -146.824 3.745 776.29
61.720 -144.926 3.743 715.27
61.720 -143.027 3.714 916.11
61.720 -141.129 3.750 440.58
61.720 -139.231 3.757 449.59
61.720 -137.333 3.744 653.74
61.720 -135.434 3.725 751.32
61.720 -133.536 3.710 324.31
61.720 -131.638 3.745 485.85
61.720 -129.740 3.766 528.48
61.720 -127.842 3.834 2198.70
61.720 -125.943 3.956 1055.94
61.720 -124.045 4.044 1690.29
61.720 -122.147 4.024 13595.65
61.720 -120.249 3.973 11977.51
61.720 -118.350 3.979 2412.26
61.720 -116.452 4.000 1610.31
61.720 -114.554 4.057 2229.67
61.720 -112.656 4.151 3012.92
61.720 -110.758 4.207 2381.55
61.720 -108.859 4.212 2184.72
61.720 -106.961 4.145 1821.15
61.720 -105.063 4.086 2055.23
61.720 -103.165 4.058 2222.66
61.720 -101.266 4.063 2389.57
61.720 -99.368 4.052 3084.79
61.720 -97.470 3.947 3550.33
61.720 -95.572 3.837 3430.40
61.720 -93.674 3.825 2185.74
61.720 -91.775 3.935 1208.74
61.720 -89.877 4.014 829.12
61.720 -87.979 4.037 541.43
61.720 -86.081 3.989 509.48
61.720 -84.182 3.954 818.15
61.720 -82.284 4.022 793.16
61.720 -80.386 4.001 646.31
61.720 -78.488 3.906 419.56
61.720 -76.590 3.872 241.75
61.720 -74.691 3.836 389.61
61.720 -72.793 3.802 305.70
61.720 -70.895 3.815 128.87
61.720 -68.997 3.818 246.75
61.720 -67.098 3.805 313.70
61.720 -65.200 3.797 130.87
61.720 -63.302 3.802 13.99
61.720 -61.404 3.811 101.92
61.720 -59.505 3.799 0.00
61.720 -57.607 3.781 0.00
61.720 -55.709 3.767 0.00
61.720 -53.811 3.764 0.00
61.720 -51.913 3.762 0.00
61.720 -50.014 3.754 123.86
61.720 -48.116 3.750 224.75
61.720 -46.218 3.749 178.80
62.619 -154.123 3.728 288.70
62.619 -152.167 3.729 185.73
62.619 -150.212 3.743 303.68
62.619 -148.256 3.767 609.40
62.619 -146.301 3.750 863.10
62.619 -144.345 3.715 888.19
62.619 -142.390 3.739 851.23
62.619 -140.434 3.737 500.57
62.619 -138.479 3.718 1065.16
62.619 -136.523 3.718 535.66
62.619 -134.567 3.709 231.52
62.619 -132.612 3.743 225.72
62.619 -130.656 3.766 892.68
62.619 -128.701 3.887 2403.17
62.619 -126.745 4.019 974.01
62.619 -124.790 4.093 14655.54
62.619 -122.834 4.083 15133.69
62.619 -120.879 4.057 2118.55
62.619 -118.923 4.052 1607.35
62.619 -116.968 4.145 1534.40
62.619 -115.012 4.219 2006.91
62.619 -113.057 4.186 2013.89
62.619 -111.101 4.187 2606.24
62.619 -109.146 4.131 2188.69
62.619 -107.190 4.056 1675.35
62.619 -105.235 4.003 1411.61
62.619 -103.279 3.986 1535.40
62.619 -101.324 3.991 1898.00
62.619 -99.368 4.022 3584.34
62.619 -97.413 4.002 3190.73
62.619 -95.457 3.926 4427.39
62.619 -93.502 3.936 2586.30
62.619 -91.546 4.017 2488.42
62.619 -89.591 4.070 594.40
62.619 -87.635 4.021 242.75
62.619 -85.680 3.923 552.41
62.619 -83.724 3.892 890.07
62.619 -81.769 3.958 621.32
62.619 -79.813 3.954 149.82
62.619 -77.858 3.900 676.56
62.619 -75.902 3.883 435.54
62.619 -73.946 3.852 467.52
62.619 -71.991 3.834 160.85
62.619 -70.035 3.840 93.90
62.619 -68.080 3.823 435.58
62.619 -66.124 3.804 180.82
62.619 -64.169 3.801 61.94
62.619 -62.213 3.810 80.93
62.619 -60.258 3.802 20.98
62.619 -58.302 3.785 0.00
62.619 -56.347 3.769 0.00
62.619 -54.391 3.756 124.14
62.619 -52.436 3.754 126.85
62.619 -50.480 3.757 133.84
62.619 -48.525 3.761 33.96
62.619 -46.569 3.762 0.00
62.619 -44.614 3.751 51.95
63.518 -155.841 3.720 295.68
63.518 -153.824 3.723 297.67
63.518 -151.807 3.760 302.93
63.518 -149.790 3.769 374.32
63.518 -147.773 3.760 471.94
63.518 -145.757 3.740 962.04
63.518 -143.740 3.757 600.43
63.518 -141.723 3.753 318.73
63.518 -139.706 3.735 938.38
63.518 -137.689 3.746 937.15
63.518 -135.672 3.718 610.71
63.518 -133.655 3.739 526.49
63.518 -131.638 3.779 757.85
63.518 -129.622 3.940 1494.26
63.518 -127.605 4.073 2179.90
63.518 -125.588 4.158 15400.66
63.518 -123.571 4.263 2074.90
63.518 -121.554 4.336 1732.15
63.518 -119.537 4.326 1177.74
63.518 -117.520 4.273 1365.57
63.518 -115.503 4.210 1267.66
63.518 -113.486 4.166 1228.73
63.518 -111.470 4.076 1751.23
63.518 -109.453 4.026 1489.70
63.518 -107.436 3.980 1840.05
63.518 -105.419 3.943 1568.46
63.518 -103.402 3.939 1674.33
63.518 -101.385 3.961 1953.91
63.518 -99.368 4.010 2575.36
63.518 -97.351 4.032 3517.33
63.518 -95.334 3.963 4550.31
63.518 -93.318 3.963 3309.56
63.518 -91.301 3.985 2331.91
63.518 -89.284 4.073 1625.39
63.518 -87.267 4.024 298.70
63.518 -85.250 3.921 643.33
63.518 -83.233 3.894 820.18
63.518 -81.216 3.947 611.36
63.518 -79.199 3.949 267.71
63.518 -77.182 3.910 612.35
63.518 -75.166 3.906 600.39
63.518 -73.149 3.880 624.35
63.518 -71.132 3.873 578.40
63.518 -69.115 3.855 635.87
63.518 -67.098 3.826 290.72
63.518 -65.081 3.808 103.89
63.518 -63.064 3.809 54.96
63.518 -61.047 3.805 47.96
63.518 -59.030 3.790 0.00
63.518 -57.014 3.777 0.00
63.518 -54.997 3.771 0.00
63.518 -52.980 3.767 0.00
63.518 -50.963 3.766 0.00
63.518 -48.946 3.767 0.00
63.518 -46.929 3.770 0.00
63.518 -44.912 3.770 0.00
63.518 -42.895 3.759 15.98
64.418 -157.686 3.731 352.61
64.418 -155.603 3.736 107.88
64.418 -153.520 3.753 131.86
64.418 -151.437 3.760 203.94
64.418 -149.355 3.756 218.77
64.418 -147.272 3.754 1050.01
64.418 -145.189 3.778 494.52
64.418 -143.106 3.781 216.78
64.418 -141.023 3.776 660.69
64.418 -138.941 3.774 476.12
64.418 -136.858 3.735 508.62
64.418 -134.775 3.756 405.18
64.418 -132.692 3.807 751.36
64.418 -130.610 3.947 1293.02
64.418 -128.527 4.046 4068.25
64.418 -126.444 4.148 2345.52
64.418 -124.361 4.296 1742.21
64.418 -122.279 4.325 1613.41
64.418 -120.196 4.266 1622.35
64.418 -118.113 4.201 934.23
64.418 -116.030 4.153 591.33
64.418 -113.948 4.054 485.50
64.418 -111.865 3.963 845.10
64.418 -109.782 3.944 1932.01
64.418 -107.699 3.930 1544.38
64.418 -105.616 3.908 1685.23
64.418 -103.534 3.901 1621.39
64.418 -101.451 3.916 1834.10
64.418 -99.368 3.947 1935.95
64.418 -97.285 3.980 3763.14
64.418 -95.203 3.963 3968.21
64.418 -93.120 3.955 4234.57
64.418 -91.037 3.944 1513.38
64.418 -88.954 4.008 2676.30
64.418 -86.872 3.990 265.74
64.418 -84.789 3.924 729.23
64.418 -82.706 3.910 797.20
64.418 -80.623 3.946 609.36
64.418 -78.541 3.938 293.68
64.418 -76.458 3.903 448.55
64.418 -74.375 3.896 680.33
64.418 -72.292 3.884 455.56
64.418 -70.210 3.885 273.73
64.418 -68.127 3.855 562.46
64.418 -66.044 3.825 202.15
64.418 -63.961 3.813 37.97
64.418 -61.878 3.806 72.94
64.418 -59.796 3.791 0.00
64.418 -57.713 3.778 0.00
64.418 -55.630 3.773 0.00
64.418 -53.547 3.774 0.00
64.418 -51.465 3.775 0.00
64.418 -49.382 3.774 0.00
64.418 -47.299 3.774 0.00
64.418 -45.216 3.776 2.27
64.418 -43.134 3.777 292.63
64.418 -41.051 3.773 143.83
65.317 -159.670 3.770 0.00
65.317 -157.516 3.770 45.96
65.317 -155.363 3.767 107.89
65.317 -153.209 3.762 119.87
65.317 -151.055 3.756 155.84
65.317 -148.902 3.760 275.30
65.317 -146.748 3.780 341.66
65.317 -144.595 3.799 373.61
65.317 -142.441 3.819 444.57
65.317 -140.287 3.807 214.80
65.317 -138.134 3.767 334.67
65.317 -135.980 3.786 88.16
65.317 -133.826 3.818 261.07
65.317 -131.673 3.904 897.14
65.317 -129.519 3.980 1364.47
65.317 -127.365 4.098 244.75
65.317 -125.212 4.208 238.77
65.317 -123.058 4.168 421.57
65.317 -120.905 4.066 870.15
65.317 -118.751 4.016 793.23
65.317 -116.597 3.974 545.49
65.317 -114.444 3.920 568.47
65.317 -112.290 3.885 706.27
65.317 -110.136 3.907 1024.95
65.317 -107.983 3.931 1765.16
65.317 -105.829 3.927 1953.96
65.317 -103.675 3.906 1717.24
65.317 -101.522 3.897 1727.30
65.317 -99.368 3.907 2187.68
65.317 -97.215 3.938 2845.07
65.317 -95.061 3.974 4038.81
65.317 -92.907 3.960 5363.39
65.317 -90.754 3.959 2493.93
65.317 -88.600 3.962 511.49
65.317 -86.446 3.977 580.41
65.317 -84.293 3.949 740.22
65.317 -82.139 3.940 663.34
65.317 -79.985 3.968 605.36
65.317 -77.832 3.947 405.57
65.317 -75.678 3.907 574.42
65.317 -73.525 3.883 583.43
65.317 -71.371 3.880 283.72
65.317 -69.217 3.870 443.57
65.317 -67.064 3.846 257.75
65.317 -64.910 3.828 81.26
65.317 -62.756 3.814 97.92
65.317 -60.603 3.794 0.00
65.317 -58.449 3.780 0.00
65.317 -56.295 3.774 0.00
65.317 -54.142 3.774 0.00
65.317 -51.988 3.775 0.00
65.317 -49.835 3.776 0.00
65.317 -47.681 3.776 0.00
65.317 -45.527 3.777 0.00
65.317 -43.374 3.782 0.00
65.317 -41.220 3.793 76.94
65.317 -39.066 3.803 216.82
66.216 -161.810 3.809 253.77
66.216 -159.580 3.805 88.91
66.216 -157.350 3.790 93.90
66.216 -155.120 3.778 170.83
66.216 -152.890 3.768 209.78
66.216 -150.660 3.760 241.75
66.216 -148.430 3.767 315.68
66.216 -146.200 3.789 650.32
66.216 -143.970 3.820 465.55
66.216 -141.740 3.812 457.55
66.216 -139.510 3.772 471.52
66.216 -137.279 3.806 496.51
66.216 -135.049 3.863 147.96
66.216 -132.819 3.916 647.88
66.216 -130.589 3.927 196.77
66.216 -128.359 3.975 255.74
66.216 -126.129 4.005 604.37
66.216 -123.899 3.953 544.43
66.216 -121.669 3.904 101.90
66.216 -119.439 3.869 425.61
66.216 -117.209 3.839 572.44
66.216 -114.979 3.852 400.61
66.216 -112.749 3.888 541.50
66.216 -110.519 3.928 730.63
66.216 -108.288 3.955 1571.40
66.216 -106.058 3.956 1625.34
66.216 -103.828 3.950 2134.78
66.216 -101.598 3.937 1898.13
66.216 -99.368 3.934 1907.09
66.216 -97.138 3.956 2302.57
66.216 -94.908 3.985 4105.79
66.216 -92.678 3.984 5240.75
66.216 -90.448 3.956 4099.97
66.216 -88.218 3.923 751.76
66.216 -85.988 3.963 696.22
66.216 -83.758 3.965 819.17
66.216 -81.528 3.966 1001.02
66.216 -79.298 3.993 607.38
66.216 -77.067 3.966 669.31
66.216 -74.837 3.925 509.49
66.216 -72.607 3.894 387.61
66.216 -70.377 3.893 291.71
66.216 -68.147 3.872 551.48
66.216 -65.917 3.857 206.80
66.216 -63.687 3.842 123.90
66.216 -61.457 3.812 0.00
66.216 -59.227 3.793 0.00
66.216 -56.997 3.786 0.00
66.216 -54.767 3.784 0.00
66.216 -52.537 3.781 0.00
66.216 -50.307 3.777 0.00
66.216 -48.077 3.775 0.00
66.216 -45.846 3.775 0.00
66.216 -43.616 3.775 0.00
66.216 -41.386 3.778 0.00
66.216 -39.156 3.785 0.00
66.216 -36.926 3.798 0.00
67.116 -164.125 3.825 182.85
67.116 -161.812 3.822 73.96
67.116 -159.499 3.804 65.96
67.116 -157.186 3.790 0.00
67.116 -154.874 3.781 34.97
67.116 -152.561 3.768 104.90
67.116 -150.248 3.759 261.29
67.116 -147.935 3.769 185.81
67.116 -145.623 3.792 448.55
67.116 -143.310 3.779 349.65
67.116 -140.997 3.751 388.60
67.116 -138.685 3.812 453.54
67.116 -136.372 3.902 251.77
67.116 -134.059 3.972 673.97
67.116 -131.746 3.946 682.29
67.116 -129.434 3.936 462.51
67.116 -127.121 3.902 355.61
67.116 -124.808 3.877 231.77
67.116 -122.495 3.853 215.78
67.116 -120.183 3.819 135.87
67.116 -117.870 3.799 320.69
67.116 -115.557 3.810 533.48
67.116 -113.245 3.850 403.61
67.116 -110.932 3.903 433.60
67.116 -108.619 3.938 715.28
67.116 -106.306 3.957 1518.42
67.116 -103.994 3.960 1785.15
67.116 -101.681 3.956 2232.67
67.116 -99.368 3.960 2076.97
67.116 -97.055 3.977 2431.49
67.116 -94.743 4.004 3022.89
67.116 -92.430 4.022 4678.15
67.116 -90.117 3.959 5663.10
67.116 -87.805 3.898 1454.45
67.116 -85.492 3.959 471.55
