24.846 -94.413 3.194 896.89
24.846 -93.422 3.262 982.77
24.846 -92.431 3.343 525.54
24.846 -91.439 3.417 210.93
24.846 -90.448 3.461 438.53
24.846 -89.457 3.469 568.65
24.846 -88.466 3.447 679.29
24.846 -87.475 3.406 1182.78
24.846 -86.484 3.330 1796.17
24.846 -85.493 3.246 1815.50
24.846 -84.502 3.208 1934.18
24.846 -83.511 3.295 4430.52
24.846 -82.520 3.427 6375.61
24.846 -81.528 3.458 6429.23
24.846 -80.537 3.445 10109.61
24.846 -79.546 3.326 12192.40
24.846 -78.555 3.243 6141.65
24.846 -77.564 3.264 989.03
24.846 -76.573 3.374 447.59
24.846 -75.582 3.499 312.66
24.846 -74.591 3.478 143.86
24.846 -73.600 3.339 0.00
24.846 -72.609 3.281 0.00
24.846 -71.618 3.282 0.00
25.745 -127.325 3.289 0.00
25.745 -126.327 3.289 0.00
25.745 -125.329 3.289 0.00
25.745 -124.330 3.289 0.00
25.745 -123.332 3.289 0.00
25.745 -122.333 3.289 0.00
25.745 -121.335 3.289 0.00
25.745 -120.336 3.289 0.00
25.745 -119.338 3.289 0.00
25.745 -118.339 3.288 0.00
25.745 -117.341 3.288 0.00
25.745 -116.342 3.291 0.00
25.745 -115.344 3.292 0.00
25.745 -114.345 3.269 0.00
25.745 -113.347 3.263 0.00
25.745 -112.348 3.346 0.00
25.745 -111.350 3.354 0.00
25.745 -110.351 3.277 9029.33
25.745 -109.353 3.175 69025.40
25.745 -108.354 3.478 32563.54
25.745 -107.356 3.760 15553.45
25.745 -106.358 3.607 29186.41
25.745 -105.359 3.301 3728.36
25.745 -104.361 3.158 567.07
25.745 -103.362 3.138 223.44
25.745 -102.364 3.160 793.30
25.745 -101.365 3.268 3846.15
25.745 -100.367 3.450 11134.15
25.745 -99.368 3.434 15479.49
25.745 -98.370 3.299 9732.93
25.745 -97.371 3.217 1239.30
25.745 -96.373 3.234 237.99
25.745 -95.374 3.259 263.36
25.745 -94.376 3.292 432.75
25.745 -93.377 3.318 1840.07
25.745 -92.379 3.414 774.60
25.745 -91.380 3.485 655.35
25.745 -90.382 3.482 772.21
25.745 -89.383 3.423 1175.00
25.745 -88.385 3.338 1840.26
25.745 -87.387 3.245 1795.77
25.745 -86.388 3.192 1386.58
25.745 -85.390 3.246 3060.70
25.745 -84.391 3.363 5445.50
25.745 -83.393 3.447 5330.64
25.745 -82.394 3.477 5738.16
25.745 -81.396 3.479 9433.20
25.745 -80.397 3.343 10656.98
25.745 -79.399 3.226 6661.10
25.745 -78.400 3.212 1453.54
25.745 -77.402 3.288 605.44
25.745 -76.403 3.412 162.85
25.745 -75.405 3.508 299.66
25.745 -74.406 3.455 100.91
25.745 -73.408 3.326 0.00
25.745 -72.409 3.278 0.00
25.745 -71.411 3.283 0.00
26.645 -127.542 3.289 0.00
26.645 -126.536 3.289 0.00
26.645 -125.530 3.289 0.00
26.645 -124.524 3.289 0.00
26.645 -123.517 3.289 0.00
26.645 -122.511 3.289 0.00
26.645 -121.505 3.289 0.00
26.645 -120.499 3.289 0.00
26.645 -119.492 3.288 0.00
26.645 -118.486 3.288 0.00
26.645 -117.480 3.290 0.00
26.645 -116.474 3.293 0.00
26.645 -115.468 3.281 0.00
26.645 -114.461 3.250 0.00
26.645 -113.455 3.281 0.00
26.645 -112.449 3.436 0.00
26.645 -111.443 3.533 3530.05
26.645 -110.437 3.554 32972.29
26.645 -109.430 3.425 34798.27
26.645 -108.424 3.575 29974.23
26.645 -107.418 3.757 36005.23
26.645 -106.412 3.486 35222.27
26.645 -105.405 3.245 13455.75
26.645 -104.399 3.165 7808.28
26.645 -103.393 3.234 4647.42
26.645 -102.387 3.319 6009.15
26.645 -101.381 3.422 9976.21
26.645 -100.374 3.361 12485.51
26.645 -99.368 3.226 11178.64
26.645 -98.362 3.050 3872.70
26.645 -97.356 3.055 1070.21
26.645 -96.350 3.181 438.37
26.645 -95.343 3.324 656.41
26.645 -94.337 3.356 761.31
26.645 -93.331 3.313 1178.87
26.645 -92.325 3.351 1663.48
26.645 -91.318 3.355 1510.53
26.645 -90.312 3.269 1723.27
26.645 -89.306 3.166 1304.62
26.645 -88.300 3.134 1033.11
26.645 -87.294 3.200 2299.59
26.645 -86.287 3.349 4680.56
26.645 -85.281 3.448 5140.14
26.645 -84.275 3.458 4396.74
26.645 -83.269 3.493 5468.40
26.645 -82.263 3.564 9438.91
26.645 -81.256 3.418 12305.96
26.645 -80.250 3.257 7047.62
26.645 -79.244 3.188 2138.84
26.645 -78.238 3.239 498.51
26.645 -77.231 3.335 417.62
26.645 -76.225 3.428 100.90
26.645 -75.219 3.496 300.66
26.645 -74.213 3.439 99.91
26.645 -73.207 3.322 0.00
26.645 -72.200 3.281 0.00
26.645 -71.194 3.284 0.00
27.544 -127.769 3.289 0.00
27.544 -126.755 3.289 0.00
27.544 -125.741 3.289 0.00
27.544 -124.726 3.289 0.00
27.544 -123.712 3.289 0.00
27.544 -122.698 3.289 0.00
27.544 -121.683 3.289 0.00
27.544 -120.669 3.289 0.00
27.544 -119.655 3.288 0.00
27.544 -118.640 3.289 0.00
27.544 -117.626 3.292 0.00
27.544 -116.612 3.288 0.00
27.544 -115.597 3.262 0.00
27.544 -114.583 3.250 0.00
27.544 -113.569 3.327 0.00
27.544 -112.554 3.542 309.60
27.544 -111.540 3.709 8623.34
27.544 -110.526 3.763 29534.80
27.544 -109.511 3.607 29642.55
27.544 -108.497 3.625 20188.57
27.544 -107.483 3.516 23401.39
27.544 -106.468 3.268 37121.08
27.544 -105.454 3.091 20806.58
27.544 -104.440 3.163 15792.87
27.544 -103.426 3.376 15417.28
27.544 -102.411 3.596 14395.08
27.544 -101.397 3.608 14534.75
27.544 -100.383 3.484 13545.49
27.544 -99.368 3.179 9063.28
27.544 -98.354 2.936 15939.78
27.544 -97.340 2.936 2530.70
27.544 -96.325 3.085 1432.85
27.544 -95.311 3.222 1522.52
27.544 -94.297 3.191 1403.75
27.544 -93.282 3.090 1526.45
27.544 -92.268 2.996 2085.95
27.544 -91.254 2.960 1654.96
27.544 -90.239 2.971 1060.73
27.544 -89.225 3.039 2010.21
27.544 -88.211 3.174 3556.36
27.544 -87.196 3.312 4698.28
27.544 -86.182 3.373 4071.93
27.544 -85.168 3.355 3936.11
27.544 -84.153 3.388 5465.37
27.544 -83.139 3.501 8986.38
27.544 -82.125 3.508 16420.40
27.544 -81.110 3.368 14587.53
27.544 -80.096 3.259 3128.80
27.544 -79.082 3.241 658.34
27.544 -78.067 3.296 505.54
27.544 -77.053 3.363 149.86
27.544 -76.039 3.422 94.90
27.544 -75.024 3.479 269.69
27.544 -74.010 3.424 100.91
27.544 -72.996 3.319 0.00
27.544 -71.981 3.283 0.00
27.544 -70.967 3.285 0.00
28.443 -128.007 3.289 0.00
28.443 -126.985 3.289 0.00
28.443 -125.962 3.289 0.00
28.443 -124.939 3.289 0.00
28.443 -123.916 3.289 0.00
28.443 -122.893 3.289 0.00
28.443 -121.870 3.289 0.00
28.443 -120.848 3.288 0.00
28.443 -119.825 3.289 0.00
28.443 -118.802 3.291 0.00
28.443 -117.779 3.291 0.00
28.443 -116.756 3.271 0.00
28.443 -115.733 3.257 0.00
28.443 -114.711 3.298 0.00
28.443 -113.688 3.426 0.00
28.443 -112.665 3.688 2576.24
28.443 -111.642 3.923 10120.97
28.443 -110.619 3.894 25061.06
28.443 -109.596 3.747 21401.14
28.443 -108.574 3.527 17236.66
28.443 -107.551 3.183 21268.67
28.443 -106.528 3.095 24797.28
28.443 -105.505 3.129 22761.57
28.443 -104.482 3.223 22428.94
28.443 -103.460 3.362 20455.21
28.443 -102.437 3.517 21626.05
28.443 -101.414 3.658 18367.08
28.443 -100.391 3.585 15891.26
28.443 -99.368 3.331 15456.88
28.443 -98.345 3.058 47223.21
28.443 -97.323 3.058 6955.80
28.443 -96.300 3.088 3342.98
28.443 -95.277 3.053 2649.25
28.443 -94.254 2.962 2429.20
28.443 -93.231 2.870 1701.40
28.443 -92.208 2.798 1687.40
28.443 -91.186 2.822 2941.94
28.443 -90.163 2.971 4113.46
28.443 -89.140 3.127 4774.02
28.443 -88.117 3.210 4449.53
28.443 -87.094 3.208 3623.32
28.443 -86.071 3.167 4324.17
28.443 -85.049 3.202 6306.54
28.443 -84.026 3.255 9395.85
28.443 -83.003 3.294 17135.00
28.443 -81.980 3.328 23941.48
28.443 -80.957 3.270 14625.70
28.443 -79.934 3.293 1275.57
28.443 -78.912 3.311 357.01
28.443 -77.889 3.339 416.61
28.443 -76.866 3.368 100.90
28.443 -75.843 3.424 99.89
28.443 -74.820 3.471 225.75
28.443 -73.798 3.401 75.93
28.443 -72.775 3.308 0.00
28.443 -71.752 3.282 0.00
28.443 -70.729 3.286 0.00
29.343 -128.257 3.289 0.00
29.343 -127.225 3.289 0.00
29.343 -126.193 3.288 0.00
29.343 -125.161 3.289 0.00
29.343 -124.130 3.289 0.00
29.343 -123.098 3.289 0.00
29.343 -122.066 3.288 0.00
29.343 -121.034 3.288 0.00
29.343 -120.003 3.290 0.00
29.343 -118.971 3.292 0.00
29.343 -117.939 3.277 0.00
29.343 -116.908 3.255 0.00
29.343 -115.876 3.292 0.00
29.343 -114.844 3.405 0.00
29.343 -113.812 3.585 3605.69
29.343 -112.781 3.814 5525.37
29.343 -111.749 3.952 11769.12
29.343 -110.717 3.852 21774.22
29.343 -109.685 3.696 17482.29
29.343 -108.654 3.395 16345.94
29.343 -107.622 3.097 17276.96
29.343 -106.590 3.037 24447.35
29.343 -105.559 3.196 17512.04
29.343 -104.527 3.311 23360.72
29.343 -103.495 3.357 27352.70
29.343 -102.463 3.378 22887.87
29.343 -101.432 3.378 23623.04
29.343 -100.400 3.364 24417.01
29.343 -99.368 3.350 38012.33
29.343 -98.336 3.225 103789.30
29.343 -97.305 3.167 18497.68
29.343 -96.273 2.962 5691.35
29.343 -95.241 2.909 3680.12
29.343 -94.210 2.932 3263.27
29.343 -93.178 2.995 3169.83
29.343 -92.146 3.046 3788.13
29.343 -91.114 3.113 5080.98
29.343 -90.083 3.239 5297.29
29.343 -89.051 3.319 4348.77
29.343 -88.019 3.288 4395.35
29.343 -86.987 3.223 5689.41
29.343 -85.956 3.236 7372.03
29.343 -84.924 3.253 10856.44
29.343 -83.892 3.231 17982.26
29.343 -82.861 3.282 23954.12
29.343 -81.829 3.299 15101.64
29.343 -80.797 3.281 6265.79
29.343 -79.765 3.348 1535.46
29.343 -78.734 3.371 447.64
29.343 -77.702 3.353 152.48
29.343 -76.670 3.370 124.49
29.343 -75.639 3.442 117.00
29.343 -74.607 3.477 285.70
29.343 -73.575 3.372 0.00
29.343 -72.543 3.294 0.00
29.343 -71.512 3.281 0.00
29.343 -70.480 3.287 0.00
30.242 -128.517 3.289 0.00
30.242 -127.476 3.288 0.00
30.242 -126.435 3.288 0.00
30.242 -125.394 3.288 0.00
30.242 -124.353 3.288 0.00
30.242 -123.312 3.288 0.00
30.242 -122.271 3.288 0.00
30.242 -121.230 3.289 0.00
30.242 -120.189 3.291 0.00
30.242 -119.148 3.282 0.00
30.242 -118.107 3.256 0.00
30.242 -117.066 3.268 0.00
30.242 -116.025 3.382 0.00
30.242 -114.984 3.556 870.52
30.242 -113.943 3.736 9191.92
30.242 -112.902 3.845 8745.92
30.242 -111.861 3.748 12672.61
30.242 -110.820 3.656 18786.70
30.242 -109.779 3.548 15454.83
30.242 -108.738 3.367 17557.14
30.242 -107.697 3.140 17437.61
30.242 -106.655 3.115 25777.49
30.242 -105.614 3.261 24294.29
30.242 -104.573 3.258 26318.79
30.242 -103.532 3.243 28375.01
30.242 -102.491 3.250 31936.99
30.242 -101.450 3.176 33435.36
30.242 -100.409 3.132 38876.87
30.242 -99.368 3.204 59551.27
30.242 -98.327 3.253 49816.46
30.242 -97.286 3.257 32389.65
30.242 -96.245 3.123 13254.01
30.242 -95.204 3.061 8412.15
30.242 -94.163 3.146 6369.86
30.242 -93.122 3.294 6690.39
30.242 -92.081 3.346 7811.22
30.242 -91.040 3.325 7408.39
30.242 -89.999 3.333 7307.17
30.242 -88.958 3.333 7109.21
30.242 -87.917 3.356 8161.35
30.242 -86.876 3.367 9556.46
30.242 -85.835 3.276 16831.58
30.242 -84.794 3.234 18949.12
30.242 -83.753 3.294 19899.41
30.242 -82.712 3.354 19114.57
30.242 -81.671 3.344 7234.01
30.242 -80.629 3.369 3978.31
30.242 -79.588 3.435 2621.27
30.242 -78.547 3.403 381.13
30.242 -77.506 3.345 70.09
30.242 -76.465 3.369 56.94
30.242 -75.424 3.461 261.97
30.242 -74.383 3.469 182.45
30.242 -73.342 3.353 23.39
30.242 -72.301 3.287 4.18
30.242 -71.260 3.284 0.00
30.242 -70.219 3.290 0.00
31.141 -128.790 3.290 0.00
31.141 -127.739 3.289 0.00
31.141 -126.689 3.289 0.00
31.141 -125.638 3.289 0.00
31.141 -124.587 3.288 0.00
31.141 -123.536 3.288 0.00
31.141 -122.485 3.289 0.00
31.141 -121.435 3.290 0.00
31.141 -120.384 3.284 0.00
31.141 -119.333 3.265 0.00
31.141 -118.282 3.267 0.00
31.141 -117.232 3.345 0.00
31.141 -116.181 3.516 168.56
31.141 -115.130 3.659 4353.83
31.141 -114.079 3.756 6493.99
31.141 -113.028 3.714 9811.03
31.141 -111.978 3.584 15431.43
31.141 -110.927 3.487 20806.45
31.141 -109.876 3.463 22355.12
31.141 -108.825 3.459 25648.45
31.141 -107.774 3.330 27146.55
31.141 -106.724 3.258 34003.81
31.141 -105.673 3.218 46949.05
31.141 -104.622 3.215 46158.64
31.141 -103.571 3.194 37101.84
31.141 -102.521 3.193 38821.93
31.141 -101.470 3.184 43205.21
31.141 -100.419 3.217 53127.53
31.141 -99.368 3.331 50717.06
31.141 -98.317 3.293 43072.64
31.141 -97.267 3.272 39177.28
31.141 -96.216 3.329 24523.42
31.141 -95.165 3.366 24146.40
31.141 -94.114 3.379 18373.58
31.141 -93.063 3.436 18642.26
31.141 -92.013 3.392 21237.07
31.141 -90.962 3.299 22556.72
31.141 -89.911 3.230 23558.03
31.141 -88.860 3.233 19723.48
31.141 -87.810 3.283 20347.20
31.141 -86.759 3.309 21248.48
31.141 -85.708 3.276 29587.69
31.141 -84.657 3.296 23659.30
31.141 -83.606 3.375 33070.81
31.141 -82.556 3.384 22394.63
31.141 -81.505 3.442 13716.06
31.141 -80.454 3.483 2625.17
31.141 -79.403 3.513 3496.87
31.141 -78.353 3.421 189.85
31.141 -77.302 3.338 103.22
31.141 -76.251 3.368 3.49
31.141 -75.200 3.463 302.44
31.141 -74.149 3.448 100.92
31.141 -73.099 3.334 0.00
31.141 -72.048 3.285 19.21
31.141 -70.997 3.289 23.18
31.141 -69.946 3.295 23.39
32.041 -129.076 3.293 13.99
32.041 -128.015 3.293 0.00
32.041 -126.954 3.292 0.00
32.041 -125.893 3.291 0.00
32.041 -124.832 3.289 0.00
32.041 -123.771 3.289 0.00
32.041 -122.710 3.290 0.00
32.041 -121.649 3.286 0.00
32.041 -120.588 3.273 0.00
32.041 -119.527 3.288 0.00
32.041 -118.466 3.339 0.00
32.041 -117.405 3.458 52.95
32.041 -116.344 3.614 2606.66
32.041 -115.283 3.597 36913.57
32.041 -114.222 3.529 31789.65
32.041 -113.161 3.581 33337.23
32.041 -112.100 3.571 37718.07
32.041 -111.039 3.482 44650.24
32.041 -109.978 3.506 42724.97
32.041 -108.917 3.581 40364.87
32.041 -107.856 3.455 40138.25
32.041 -106.795 3.340 41633.95
32.041 -105.734 3.247 40301.49
32.041 -104.673 3.211 43770.46
32.041 -103.612 3.200 43668.82
32.041 -102.551 3.160 35415.30
32.041 -101.490 3.145 43147.13
32.041 -100.429 3.218 55447.89
32.041 -99.368 3.307 44360.88
32.041 -98.307 3.263 48385.66
32.041 -97.246 3.279 46732.26
32.041 -96.185 3.316 37390.69
32.041 -95.124 3.359 36652.40
32.041 -94.063 3.257 54494.45
32.041 -93.002 3.323 30832.83
32.041 -91.941 3.363 31853.35
32.041 -90.880 3.359 32946.70
32.041 -89.819 3.391 30369.49
32.041 -88.758 3.352 28449.23
32.041 -87.697 3.286 22595.25
32.041 -86.636 3.279 21691.13
32.041 -85.575 3.310 30340.88
32.041 -84.515 3.378 30419.64
32.041 -83.454 3.426 31877.43
32.041 -82.393 3.446 22193.16
32.041 -81.332 3.488 18374.02
32.041 -80.271 3.533 4226.42
32.041 -79.210 3.548 3582.84
32.041 -78.149 3.445 340.77
32.041 -77.088 3.339 100.89
32.041 -76.027 3.370 98.88
32.041 -74.966 3.452 202.45
32.041 -73.905 3.430 103.41
32.041 -72.844 3.323 1.65
32.041 -71.783 3.282 0.00
32.041 -70.722 3.287 0.00
32.041 -69.661 3.292 0.00
32.940 -129.374 3.294 9.19
32.940 -128.302 3.295 23.18
32.940 -127.231 3.295 22.97
32.940 -126.159 3.294 23.18
32.940 -125.087 3.291 1.21
32.940 -124.016 3.290 0.00
32.940 -122.944 3.288 0.00
32.940 -121.873 3.276 0.00
32.940 -120.801 3.287 0.00
32.940 -119.729 3.355 325.20
32.940 -118.658 3.402 593.14
32.940 -117.586 3.496 1978.24
32.940 -116.514 3.663 11455.89
32.940 -115.443 3.548 133353.59
32.940 -114.371 3.489 133943.14
32.940 -113.299 3.587 89597.56
32.940 -112.228 3.648 73424.72
32.940 -111.156 3.554 69913.84
32.940 -110.085 3.525 58290.57
32.940 -109.013 3.500 52870.49
32.940 -107.941 3.289 53293.00
32.940 -106.870 3.223 50106.65
32.940 -105.798 3.242 49099.69
32.940 -104.726 3.177 45834.87
32.940 -103.655 3.160 57689.55
32.940 -102.583 3.155 56203.51
32.940 -101.511 3.136 62341.53
32.940 -100.440 3.111 68666.73
32.940 -99.368 3.195 68918.06
32.940 -98.297 3.259 73393.27
32.940 -97.225 3.289 70984.90
32.940 -96.153 3.307 62243.41
32.940 -95.082 3.386 52810.96
32.940 -94.010 3.306 57134.95
32.940 -92.938 3.342 42102.05
32.940 -91.867 3.329 38425.79
32.940 -90.795 3.356 36399.18
32.940 -89.723 3.352 33172.27
32.940 -88.652 3.273 33937.09
32.940 -87.580 3.185 31006.80
32.940 -86.509 3.226 30299.69
32.940 -85.437 3.322 36911.51
32.940 -84.365 3.346 33132.24
32.940 -83.294 3.401 26830.28
32.940 -82.222 3.373 31327.06
32.940 -81.150 3.423 17702.65
32.940 -80.079 3.492 12551.14
32.940 -79.007 3.530 6491.00
32.940 -77.935 3.471 737.44
32.940 -76.864 3.359 36.96
32.940 -75.792 3.373 99.88
32.940 -74.721 3.440 199.76
32.940 -73.649 3.420 100.92
32.940 -72.577 3.323 1.83
32.940 -71.506 3.283 3.49
32.940 -70.434 3.285 1.65
32.940 -69.362 3.289 0.00
33.839 -129.686 3.291 0.00
33.839 -128.603 3.291 0.00
33.839 -127.521 3.291 0.00
33.839 -126.438 3.291 0.00
33.839 -125.355 3.290 0.00
33.839 -124.272 3.289 0.00
33.839 -123.189 3.281 0.00
33.839 -122.107 3.273 0.00
33.839 -121.024 3.320 0.00
33.839 -119.941 3.405 436.67
33.839 -118.858 3.401 2477.11
33.839 -117.775 3.293 28316.82
33.839 -116.693 3.565 37612.92
33.839 -115.610 3.612 71011.31
33.839 -114.527 3.507 94723.98
33.839 -113.444 3.480 94738.43
33.839 -112.362 3.564 90113.99
33.839 -111.279 3.451 86279.03
33.839 -110.196 3.429 74658.27
33.839 -109.113 3.356 66865.88
33.839 -108.030 3.184 64356.25
33.839 -106.948 3.193 57826.50
33.839 -105.865 3.241 52017.27
33.839 -104.782 3.210 43823.84
33.839 -103.699 3.160 55433.23
33.839 -102.617 3.171 65557.52
33.839 -101.534 3.234 69028.42
33.839 -100.451 3.203 66712.27
33.839 -99.368 3.187 66887.55
33.839 -98.285 3.164 74775.62
33.839 -97.203 3.171 81842.98
33.839 -96.120 3.226 70459.20
33.839 -95.037 3.260 72329.18
33.839 -93.954 3.236 65138.57
33.839 -92.872 3.295 52665.90
33.839 -91.789 3.358 48153.59
33.839 -90.706 3.348 40874.57
33.839 -89.623 3.327 37741.61
33.839 -88.540 3.295 36664.79
33.839 -87.458 3.214 36089.93
33.839 -86.375 3.200 36340.26
33.839 -85.292 3.259 48158.36
33.839 -84.209 3.283 36615.42
33.839 -83.126 3.374 33660.00
33.839 -82.044 3.416 35431.17
33.839 -80.961 3.450 20670.76
33.839 -79.878 3.486 27321.18
33.839 -78.795 3.510 9991.38
33.839 -77.713 3.492 1036.39
33.839 -76.630 3.395 111.93
33.839 -75.547 3.389 119.86
33.839 -74.464 3.427 180.79
33.839 -73.381 3.406 100.92
33.839 -72.299 3.323 0.00
33.839 -71.216 3.286 0.00
33.839 -70.133 3.285 1.83
33.839 -69.050 3.288 3.52
34.739 -130.012 3.289 1.87
34.739 -128.918 3.288 0.00
34.739 -127.823 3.289 0.00
34.739 -126.729 3.289 0.00
34.739 -125.635 3.289 0.00
34.739 -124.540 3.288 0.00
34.739 -123.446 3.278 0.00
34.739 -122.351 3.284 0.00
34.739 -121.257 3.364 0.00
34.739 -120.162 3.476 1254.80
34.739 -119.068 3.388 8044.54
34.739 -117.974 3.162 28667.33
34.739 -116.879 3.344 44006.44
34.739 -115.785 3.506 64848.66
34.739 -114.690 3.486 76762.53
34.739 -113.596 3.490 70790.36
34.739 -112.501 3.283 66575.95
34.739 -111.407 3.215 74898.72
34.739 -110.313 3.295 74660.44
34.739 -109.218 3.313 69380.47
34.739 -108.124 3.187 67329.61
34.739 -107.029 3.168 63631.17
34.739 -105.935 3.273 57050.81
34.739 -104.840 3.318 54089.99
34.739 -103.746 3.242 65482.55
34.739 -102.651 3.218 77142.98
34.739 -101.557 3.245 76002.83
34.739 -100.463 3.212 76986.83
34.739 -99.368 3.159 87510.64
34.739 -98.274 3.156 91883.49
34.739 -97.179 3.151 87841.45
34.739 -96.085 3.209 91152.80
34.739 -94.990 3.162 99513.82
34.739 -93.896 3.163 85172.41
34.739 -92.802 3.328 70725.66
34.739 -91.707 3.409 56502.22
34.739 -90.613 3.442 56612.19
34.739 -89.518 3.471 48694.67
34.739 -88.424 3.395 49874.12
34.739 -87.329 3.283 37616.11
34.739 -86.235 3.227 41387.45
34.739 -85.141 3.252 42166.12
34.739 -84.046 3.242 38977.07
34.739 -82.952 3.268 38125.02
34.739 -81.857 3.358 35339.56
34.739 -80.763 3.414 32714.87
34.739 -79.668 3.450 24504.08
34.739 -78.574 3.459 13189.77
34.739 -77.480 3.476 5673.77
34.739 -76.385 3.421 235.86
34.739 -75.291 3.409 223.74
34.739 -74.196 3.409 70.92
34.739 -73.102 3.384 100.92
34.739 -72.007 3.316 0.00
34.739 -70.913 3.287 0.00
34.739 -69.818 3.286 0.00
34.739 -68.724 3.288 0.00
35.638 -130.353 3.289 5.11
35.638 -129.247 3.289 2.34
35.638 -128.140 3.288 0.00
35.638 -127.034 3.289 0.00
35.638 -125.927 3.290 0.00
35.638 -124.820 3.287 0.00
35.638 -123.714 3.273 0.00
35.638 -122.607 3.284 0.00
35.638 -121.500 3.388 1622.80
35.638 -120.394 3.554 12802.06
35.638 -119.287 3.477 20611.26
35.638 -118.181 3.347 26655.61
35.638 -117.074 3.270 39372.91
35.638 -115.967 3.424 62990.88
35.638 -114.861 3.455 69084.75
35.638 -113.754 3.406 77185.48
35.638 -112.648 3.270 76143.14
35.638 -111.541 3.201 74700.42
35.638 -110.434 3.230 66107.09
35.638 -109.328 3.229 60728.22
35.638 -108.221 3.206 62746.14
35.638 -107.115 3.204 65199.34
35.638 -106.008 3.279 58453.75
35.638 -104.901 3.276 57273.73
35.638 -103.795 3.187 67577.98
35.638 -102.688 3.158 79656.55
35.638 -101.581 3.184 85347.55
35.638 -100.475 3.154 98197.69
35.638 -99.368 3.086 103223.54
35.638 -98.262 3.178 115573.10
35.638 -97.155 3.112 174148.72
35.638 -96.048 3.192 136076.39
35.638 -94.942 3.236 99211.73
35.638 -93.835 3.260 87793.55
35.638 -92.729 3.351 114491.63
35.638 -91.622 3.421 81075.84
35.638 -90.515 3.430 74261.12
35.638 -89.409 3.501 65493.09
35.638 -88.302 3.395 57190.69
35.638 -87.195 3.257 42626.99
35.638 -86.089 3.221 44146.96
35.638 -84.982 3.213 42752.33
35.638 -83.876 3.210 43706.48
35.638 -82.769 3.195 42322.67
35.638 -81.662 3.278 37297.48
35.638 -80.556 3.350 44129.07
35.638 -79.449 3.404 26626.71
35.638 -78.343 3.445 25589.55
35.638 -77.236 3.418 10361.98
35.638 -76.129 3.415 7234.41
35.638 -75.023 3.427 199.76
35.638 -73.916 3.398 27.98
35.638 -72.809 3.353 71.94
35.638 -71.703 3.302 0.00
35.638 -70.596 3.286 0.00
35.638 -69.490 3.287 0.00
35.638 -68.383 3.289 0.00
36.538 -130.710 3.289 0.00
36.538 -129.591 3.289 1.19
36.538 -128.471 3.289 3.52
36.538 -127.352 3.290 3.09
36.538 -126.233 3.290 0.00
36.538 -125.113 3.277 0.00
36.538 -123.994 3.261 0.00
36.538 -122.875 3.291 8.55
36.538 -121.755 3.363 3171.36
36.538 -120.636 3.447 48085.67
36.538 -119.516 3.510 57865.14
36.538 -118.397 3.399 59743.27
36.538 -117.278 3.284 63297.77
36.538 -116.158 3.290 73833.59
36.538 -115.039 3.408 78654.37
36.538 -113.920 3.329 92791.76
36.538 -112.800 3.259 83292.16
36.538 -111.681 3.248 71578.07
36.538 -110.562 3.270 63075.00
36.538 -109.442 3.218 55280.64
36.538 -108.323 3.197 58144.24
36.538 -107.204 3.128 61047.35
36.538 -106.084 3.105 60709.46
36.538 -104.965 3.113 66374.34
36.538 -103.846 3.142 82007.60
36.538 -102.726 3.186 94394.35
36.538 -101.607 3.210 102637.05
36.538 -100.488 3.127 104695.83
36.538 -99.368 3.135 111048.31
36.538 -98.249 3.251 112944.41
36.538 -97.130 3.268 110686.62
36.538 -96.010 3.204 130231.36
36.538 -94.891 3.340 123623.22
36.538 -93.771 3.357 120361.06
36.538 -92.652 3.253 110861.91
36.538 -91.533 3.325 88964.53
36.538 -90.413 3.381 87240.34
36.538 -89.294 3.460 80066.45
36.538 -88.175 3.361 61007.28
36.538 -87.055 3.218 44023.73
36.538 -85.936 3.181 42799.80
36.538 -84.817 3.204 48360.64
36.538 -83.697 3.230 48444.73
36.538 -82.578 3.238 45283.41
36.538 -81.459 3.205 44688.46
36.538 -80.339 3.287 37585.02
36.538 -79.220 3.361 35355.09
36.538 -78.101 3.395 23357.53
36.538 -76.981 3.347 14918.63
36.538 -75.862 3.422 1214.48
36.538 -74.743 3.458 246.76
36.538 -73.623 3.411 100.92
36.538 -72.504 3.331 0.00
36.538 -71.384 3.289 0.00
36.538 -70.265 3.284 0.00
36.538 -69.146 3.287 0.00
36.538 -68.026 3.289 0.00
37.437 -131.083 3.289 0.00
37.437 -129.950 3.289 0.00
37.437 -128.817 3.289 0.00
37.437 -127.685 3.290 0.40
37.437 -126.552 3.283 3.52
37.437 -125.419 3.267 3.52
37.437 -124.287 3.299 2.91
37.437 -123.154 3.389 24.90
37.437 -122.021 3.490 22539.94
37.437 -120.889 3.599 37396.08
37.437 -119.756 3.492 28615.39
37.437 -118.623 3.148 51121.32
37.437 -117.491 3.037 53738.53
37.437 -116.358 3.051 68193.02
37.437 -115.225 3.197 76588.38
37.437 -114.093 3.284 83177.30
37.437 -112.960 3.144 85838.27
37.437 -111.827 3.183 69971.92
37.437 -110.695 3.187 68091.38
37.437 -109.562 3.201 59143.17
37.437 -108.429 3.221 58991.77
37.437 -107.297 3.116 64334.39
37.437 -106.164 3.004 74436.78
37.437 -105.032 3.056 98525.04
37.437 -103.899 3.186 88656.52
37.437 -102.766 3.189 99032.43
37.437 -101.634 3.137 95500.73
37.437 -100.501 3.187 100721.90
37.437 -99.368 3.230 102791.30
37.437 -98.236 3.277 101930.56
37.437 -97.103 3.319 98340.20
37.437 -95.970 3.296 104717.81
37.437 -94.838 3.284 119516.18
37.437 -93.705 3.188 117703.24
37.437 -92.572 3.176 116814.71
37.437 -91.440 3.301 103550.19
37.437 -90.307 3.302 94887.97
37.437 -89.174 3.342 77472.29
37.437 -88.042 3.355 61049.69
37.437 -86.909 3.272 45417.54
37.437 -85.776 3.251 43973.31
37.437 -84.644 3.215 46509.54
37.437 -83.511 3.209 48967.78
37.437 -82.378 3.243 53633.09
37.437 -81.246 3.234 60841.70
37.437 -80.113 3.272 52463.77
37.437 -78.980 3.376 43293.02
37.437 -77.848 3.375 22930.54
37.437 -76.715 3.393 12917.98
37.437 -75.582 3.465 983.04
37.437 -74.450 3.487 421.73
37.437 -73.317 3.417 100.92
37.437 -72.184 3.322 0.00
37.437 -71.052 3.284 0.00
37.437 -69.919 3.283 0.00
37.437 -68.786 3.288 0.00
37.437 -67.654 3.289 0.00
38.336 -131.472 3.289 0.00
38.336 -130.326 3.288 0.00
38.336 -129.179 3.289 0.00
38.336 -128.033 3.288 0.00
38.336 -126.886 3.280 0.00
38.336 -125.740 3.293 0.00
38.336 -124.593 3.377 30.38
38.336 -123.446 3.451 221.04
38.336 -122.300 3.544 14918.08
38.336 -121.153 3.670 32254.98
38.336 -120.007 3.498 32172.07
38.336 -118.860 3.165 55829.79
38.336 -117.713 3.119 62288.30
38.336 -116.567 3.152 65013.79
38.336 -115.420 3.191 63508.89
38.336 -114.274 3.242 81487.37
38.336 -113.127 3.124 86664.58
38.336 -111.981 3.070 80789.00
38.336 -110.834 3.099 71485.73
38.336 -109.687 3.161 61617.29
38.336 -108.541 3.162 61414.77
38.336 -107.394 3.012 66543.77
38.336 -106.248 2.954 66717.42
38.336 -105.101 3.031 48781.15
38.336 -103.955 3.158 46653.70
38.336 -102.808 3.222 62403.32
38.336 -101.661 3.161 62736.20
38.336 -100.515 3.197 67592.88
38.336 -99.368 3.215 73921.91
38.336 -98.222 3.264 80859.18
38.336 -97.075 3.290 82831.97
38.336 -95.928 3.325 85115.70
38.336 -94.782 3.295 86211.91
38.336 -93.635 3.338 100349.14
38.336 -92.489 3.267 103542.66
38.336 -91.342 3.242 120207.90
38.336 -90.196 3.251 104020.25
38.336 -89.049 3.322 100001.76
38.336 -87.902 3.398 81609.61
38.336 -86.756 3.280 52739.85
38.336 -85.609 3.262 50045.39
38.336 -84.463 3.218 50080.22
38.336 -83.316 3.200 51613.83
38.336 -82.170 3.215 61959.70
38.336 -81.023 3.216 60796.96
38.336 -79.876 3.339 62696.72
38.336 -78.730 3.457 58986.86
38.336 -77.583 3.451 32969.98
38.336 -76.437 3.470 9124.47
38.336 -75.290 3.514 2195.22
38.336 -74.143 3.489 483.70
38.336 -72.997 3.406 100.91
38.336 -71.850 3.315 0.00
38.336 -70.704 3.283 0.00
38.336 -69.557 3.285 0.00
38.336 -68.411 3.289 0.00
38.336 -67.264 3.289 0.00
39.236 -131.880 3.288 0.00
39.236 -130.719 3.288 0.00
39.236 -129.558 3.290 0.00
39.236 -128.397 3.290 0.00
39.236 -127.235 3.285 0.00
39.236 -126.074 3.300 24.16
39.236 -124.913 3.358 3.90
39.236 -123.752 3.358 1346.33
39.236 -122.591 3.340 16352.96
39.236 -121.430 3.356 23931.12
39.236 -120.269 3.331 49578.16
39.236 -119.107 3.284 87083.16
39.236 -117.946 3.249 57101.94
39.236 -116.785 3.317 55990.21
39.236 -115.624 3.270 63129.57
39.236 -114.463 3.271 72716.34
39.236 -113.302 3.361 78682.72
39.236 -112.141 3.178 81040.86
39.236 -110.980 3.120 71673.35
39.236 -109.818 3.055 64285.72
39.236 -108.657 3.096 69166.18
39.236 -107.496 3.028 71032.28
39.236 -106.335 2.983 64767.88
39.236 -105.174 3.023 46660.86
39.236 -104.013 3.092 40493.70
39.236 -102.852 3.206 49192.73
39.236 -101.690 3.179 47351.52
39.236 -100.529 3.168 48802.51
39.236 -99.368 3.219 54700.60
39.236 -98.207 3.275 53122.54
39.236 -97.046 3.254 67268.25
39.236 -95.885 3.338 64460.51
39.236 -94.724 3.328 68079.72
39.236 -93.563 3.344 85712.34
39.236 -92.401 3.321 82962.70
39.236 -91.240 3.325 91843.71
39.236 -90.079 3.311 79811.66
39.236 -88.918 3.314 81932.09
39.236 -87.757 3.294 73927.04
39.236 -86.596 3.267 52916.52
39.236 -85.435 3.297 48713.49
39.236 -84.273 3.266 56181.89
39.236 -83.112 3.253 53594.05
39.236 -81.951 3.219 58140.12
39.236 -80.790 3.166 49055.72
39.236 -79.629 3.223 40046.10
39.236 -78.468 3.295 28222.57
39.236 -77.307 3.378 18265.91
39.236 -76.145 3.445 11927.47
39.236 -74.984 3.496 4111.93
39.236 -73.823 3.474 481.73
39.236 -72.662 3.395 100.91
39.236 -71.501 3.305 0.00
39.236 -70.340 3.279 0.00
39.236 -69.179 3.285 0.00
39.236 -68.018 3.289 0.00
39.236 -66.856 3.289 0.00
40.135 -132.306 3.288 0.00
40.135 -131.130 3.290 0.00
40.135 -129.954 3.293 0.00
40.135 -128.777 3.279 0.00
40.135 -127.601 3.256 18.95
40.135 -126.424 3.292 9.48
40.135 -125.248 3.355 0.00
40.135 -124.072 3.151 12520.30
40.135 -122.895 2.920 33795.11
40.135 -121.719 2.987 34657.32
40.135 -120.543 3.135 74843.03
40.135 -119.366 3.279 82692.66
40.135 -118.190 3.325 58427.16
40.135 -117.014 3.452 63612.47
40.135 -115.837 3.404 65645.88
40.135 -114.661 3.438 84575.71
40.135 -113.484 3.460 83735.26
40.135 -112.308 3.209 81691.60
40.135 -111.132 3.019 70570.34
40.135 -109.955 2.938 66261.89
40.135 -108.779 2.928 73652.90
40.135 -107.603 2.992 68155.53
40.135 -106.426 3.039 53406.39
40.135 -105.250 3.055 46719.36
40.135 -104.074 3.047 39099.64
40.135 -102.897 3.114 39218.97
40.135 -101.721 3.158 40140.78
40.135 -100.545 3.172 39318.07
40.135 -99.368 3.174 46047.23
40.135 -98.192 3.153 46347.90
40.135 -97.015 3.143 60012.36
40.135 -95.839 3.197 68464.69
40.135 -94.663 3.252 66325.19
40.135 -93.486 3.280 65248.23
40.135 -92.310 3.358 70259.82
40.135 -91.134 3.426 63912.00
40.135 -89.957 3.336 46773.43
40.135 -88.781 3.279 40614.00
40.135 -87.605 3.323 47530.65
40.135 -86.428 3.398 42249.98
40.135 -85.252 3.382 59309.59
40.135 -84.076 3.295 60823.02
40.135 -82.899 3.273 48898.25
40.135 -81.723 3.254 52781.39
40.135 -80.546 3.143 41423.55
40.135 -79.370 3.138 39244.41
40.135 -78.194 3.217 27973.42
40.135 -77.017 3.255 27376.93
40.135 -75.841 3.355 12337.55
40.135 -74.665 3.435 7566.87
40.135 -73.488 3.489 1019.40
40.135 -72.312 3.428 100.91
40.135 -71.136 3.311 0.00
40.135 -69.959 3.277 0.00
40.135 -68.783 3.282 0.00
40.135 -67.607 3.288 0.00
40.135 -66.430 3.289 0.00
41.034 -132.752 3.291 0.00
41.034 -131.560 3.292 0.00
41.034 -130.368 3.280 0.00
41.034 -129.175 3.250 14.12
41.034 -127.983 3.287 14.87
41.034 -126.791 3.484 0.00
41.034 -125.598 3.629 265.06
41.034 -124.406 3.214 60487.05
41.034 -123.214 2.899 46597.43
41.034 -122.022 3.019 44812.80
41.034 -120.829 3.147 41447.68
41.034 -119.637 3.164 59541.01
41.034 -118.445 3.315 62289.52
41.034 -117.252 3.411 57039.14
41.034 -116.060 3.347 55027.31
41.034 -114.868 3.488 103076.75
41.034 -113.676 3.649 75602.27
41.034 -112.483 3.388 71071.37
41.034 -111.291 3.038 68277.48
41.034 -110.099 2.964 79860.30
41.034 -108.906 2.963 63003.41
41.034 -107.714 2.964 55665.07
41.034 -106.522 3.115 43608.32
41.034 -105.330 3.217 39892.30
41.034 -104.137 3.128 36056.66
41.034 -102.945 3.089 30374.91
41.034 -101.753 3.143 32265.30
41.034 -100.560 3.153 36122.37
41.034 -99.368 3.099 40519.50
41.034 -98.176 3.150 48743.46
41.034 -96.984 3.137 59963.71
41.034 -95.791 3.109 68275.28
41.034 -94.599 3.172 64645.95
41.034 -93.407 3.226 65473.44
41.034 -92.215 3.244 60266.65
41.034 -91.022 3.288 44374.84
41.034 -89.830 3.227 40609.14
41.034 -88.638 3.206 35107.11
41.034 -87.445 3.296 35454.57
41.034 -86.253 3.328 35830.64
41.034 -85.061 3.285 54376.41
41.034 -83.869 3.234 46257.67
41.034 -82.676 3.258 44291.64
41.034 -81.484 3.263 38463.98
41.034 -80.292 3.198 40923.11
41.034 -79.099 3.140 37282.95
41.034 -77.907 3.214 34079.89
41.034 -76.715 3.276 28493.09
41.034 -75.523 3.363 25630.94
41.034 -74.330 3.477 14988.48
41.034 -73.138 3.567 4960.77
41.034 -71.946 3.534 813.89
41.034 -70.753 3.370 261.31
41.034 -69.561 3.282 0.00
41.034 -68.369 3.277 0.00
41.034 -67.177 3.286 0.00
41.034 -65.984 3.290 0.00
41.934 -133.219 3.292 0.00
41.934 -132.010 3.286 0.00
41.934 -130.801 3.261 10.03
41.934 -129.592 3.275 19.51
41.934 -128.383 3.444 0.00
41.934 -127.174 3.888 76.92
41.934 -125.965 4.304 1700.47
41.934 -124.756 3.826 16831.45
41.934 -123.547 3.157 28225.71
41.934 -122.338 3.085 29595.68
41.934 -121.129 3.229 31780.93
41.934 -119.920 3.215 42727.45
41.934 -118.711 3.348 45559.69
41.934 -117.502 3.367 52455.16
41.934 -116.293 3.296 64070.66
41.934 -115.085 3.294 77653.72
41.934 -113.876 3.551 63661.83
41.934 -112.667 3.649 67756.12
41.934 -111.458 3.249 83608.40
41.934 -110.249 3.063 78202.77
41.934 -109.040 3.032 64934.48
41.934 -107.831 2.982 51146.44
41.934 -106.622 3.010 44097.45
41.934 -105.413 3.182 39066.37
41.934 -104.204 3.153 32439.00
41.934 -102.995 3.112 29743.81
41.934 -101.786 3.161 31787.62
41.934 -100.577 3.176 36893.55
41.934 -99.368 3.213 44341.61
41.934 -98.159 3.245 48606.55
41.934 -96.950 3.288 58124.27
41.934 -95.741 3.186 67513.11
41.934 -94.532 3.137 68714.91
41.934 -93.323 3.203 59950.04
41.934 -92.115 3.221 47538.89
41.934 -90.906 3.265 49593.41
41.934 -89.697 3.314 35277.09
41.934 -88.488 3.359 38140.62
41.934 -87.279 3.409 36575.85
41.934 -86.070 3.408 41940.64
41.934 -84.861 3.361 44550.80
41.934 -83.652 3.274 35002.93
41.934 -82.443 3.256 33186.50
41.934 -81.234 3.247 35270.87
41.934 -80.025 3.215 36336.61
41.934 -78.816 3.132 37679.89
41.934 -77.607 3.205 33227.55
41.934 -76.398 3.260 30395.70
41.934 -75.189 3.329 23368.10
41.934 -73.980 3.447 19442.07
41.934 -72.771 3.612 8771.02
41.934 -71.562 3.625 5267.10
41.934 -70.353 3.466 2918.28
41.934 -69.145 3.313 0.00
41.934 -67.936 3.270 0.00
41.934 -66.727 3.279 0.00
41.934 -65.518 3.288 0.00
42.833 -133.707 3.282 0.00
42.833 -132.481 3.276 6.69
42.833 -131.254 3.275 23.60
42.833 -130.028 3.347 0.00
42.833 -128.802 3.597 7.99
42.833 -127.575 4.040 305.70
42.833 -126.349 4.167 10601.95
42.833 -125.122 3.648 12003.84
42.833 -123.896 3.233 11547.62
42.833 -122.670 3.136 23892.74
42.833 -121.443 3.163 25185.40
42.833 -120.217 3.148 28917.20
42.833 -118.990 3.247 38612.71
42.833 -117.764 3.404 47921.66
42.833 -116.538 3.375 60793.10
42.833 -115.311 3.249 57744.50
42.833 -114.085 3.325 58837.01
42.833 -112.858 3.382 58063.43
42.833 -111.632 3.165 64270.27
42.833 -110.406 2.979 65762.98
42.833 -109.179 3.057 61634.12
42.833 -107.953 3.116 49713.63
42.833 -106.727 3.032 44964.93
42.833 -105.500 3.171 40511.07
42.833 -104.274 3.293 37758.75
42.833 -103.047 3.241 34546.57
42.833 -101.821 3.218 35417.91
42.833 -100.595 3.241 35537.03
42.833 -99.368 3.349 39478.53
42.833 -98.142 3.349 52782.96
42.833 -96.915 3.309 56780.37
42.833 -95.689 3.290 58384.98
42.833 -94.463 3.212 58492.34
42.833 -93.236 3.264 48275.41
42.833 -92.010 3.291 41253.93
42.833 -90.783 3.318 52286.93
42.833 -89.557 3.400 34179.37
42.833 -88.331 3.420 35042.99
42.833 -87.104 3.424 38280.54
42.833 -85.878 3.404 33574.95
42.833 -84.652 3.354 35373.19
42.833 -83.425 3.331 32045.03
42.833 -82.199 3.288 31795.91
42.833 -80.972 3.274 33990.00
42.833 -79.746 3.281 32955.69
42.833 -78.520 3.204 35868.44
42.833 -77.293 3.262 34121.52
42.833 -76.067 3.320 29506.64
42.833 -74.840 3.410 25436.65
42.833 -73.614 3.513 28898.31
42.833 -72.388 3.726 25064.59
42.833 -71.161 3.717 6061.68
42.833 -69.935 3.532 1278.28
42.833 -68.708 3.371 0.00
42.833 -67.482 3.293 0.00
42.833 -66.256 3.279 0.00
42.833 -65.029 3.283 0.00
43.732 -134.219 3.270 4.27
43.732 -132.974 3.271 26.76
43.732 -131.729 3.332 0.00
43.732 -130.485 3.484 0.00
43.732 -129.240 3.703 283.72
43.732 -127.995 3.695 214.25
43.732 -126.751 3.324 38341.97
43.732 -125.506 3.057 20668.46
43.732 -124.261 2.958 17668.82
43.732 -123.017 3.062 23930.17
43.732 -121.772 3.119 26730.65
43.732 -120.527 3.096 30733.11
43.732 -119.283 3.147 35649.52
43.732 -118.038 3.325 39781.32
43.732 -116.793 3.390 48461.75
43.732 -115.549 3.344 45642.07
43.732 -114.304 3.274 49399.52
43.732 -113.059 3.150 42767.11
43.732 -111.815 3.154 44196.61
43.732 -110.570 3.000 54510.99
43.732 -109.325 3.069 46242.84
43.732 -108.081 3.184 45101.20
43.732 -106.836 3.070 42149.27
43.732 -105.591 3.161 36564.77
43.732 -104.347 3.276 35336.91
43.732 -103.102 3.254 31268.27
43.732 -101.858 3.216 31912.24
43.732 -100.613 3.206 36016.89
43.732 -99.368 3.275 45261.17
43.732 -98.124 3.344 52635.33
43.732 -96.879 3.357 64565.80
43.732 -95.634 3.380 61996.22
43.732 -94.390 3.332 51186.71
43.732 -93.145 3.314 47502.80
43.732 -91.900 3.354 38036.33
43.732 -90.656 3.417 46190.65
43.732 -89.411 3.432 39045.94
43.732 -88.166 3.451 34094.59
43.732 -86.922 3.466 33788.25
43.732 -85.677 3.424 45858.84
43.732 -84.432 3.366 31568.43
43.732 -83.188 3.339 30857.52
43.732 -81.943 3.306 27304.49
43.732 -80.698 3.289 34618.82
43.732 -79.454 3.231 36014.28
43.732 -78.209 3.200 33837.60
43.732 -76.964 3.348 33449.64
43.732 -75.720 3.476 28812.71
43.732 -74.475 3.511 30970.98
43.732 -73.230 3.523 22073.39
43.732 -71.986 3.602 20343.85
43.732 -70.741 3.635 19125.94
43.732 -69.496 3.521 3463.22
43.732 -68.252 3.421 315.90
43.732 -67.007 3.341 115.89
43.732 -65.763 3.309 0.00
43.732 -64.518 3.292 0.00
44.632 -134.754 3.280 31.96
44.632 -133.490 3.293 0.00
44.632 -132.227 3.454 0.00
44.632 -130.963 3.689 215.79
44.632 -129.699 3.798 212.47
44.632 -128.435 3.555 316.65
44.632 -127.172 3.093 2215.25
44.632 -125.908 2.897 9931.32
44.632 -124.644 2.888 14347.92
44.632 -123.380 3.097 23802.55
44.632 -122.116 3.193 24377.24
44.632 -120.853 3.220 26531.76
44.632 -119.589 3.304 28397.59
44.632 -118.325 3.298 39005.00
44.632 -117.061 3.288 42422.09
44.632 -115.797 3.333 38897.54
44.632 -114.534 3.260 39486.41
44.632 -113.270 3.158 44805.32
44.632 -112.006 3.221 39847.61
44.632 -110.742 3.142 41756.47
44.632 -109.479 3.211 35621.18
44.632 -108.215 3.410 29909.90
44.632 -106.951 3.341 30830.23
44.632 -105.687 3.246 28416.49
44.632 -104.423 3.406 26307.36
44.632 -103.160 3.346 27878.62
44.632 -101.896 3.227 28912.46
44.632 -100.632 3.177 30043.72
44.632 -99.368 3.248 33969.48
44.632 -98.104 3.386 42001.14
44.632 -96.841 3.361 57768.08
44.632 -95.577 3.326 52089.05
44.632 -94.313 3.250 47646.48
44.632 -93.049 3.166 42287.96
44.632 -91.785 3.214 38729.02
44.632 -90.522 3.277 38214.88
44.632 -89.258 3.280 38894.75
44.632 -87.994 3.406 31439.56
44.632 -86.730 3.385 30057.66
44.632 -85.467 3.358 29985.49
44.632 -84.203 3.375 30086.50
44.632 -82.939 3.451 21549.04
44.632 -81.675 3.448 21584.62
44.632 -80.411 3.378 24327.87
44.632 -79.148 3.296 30649.80
44.632 -77.884 3.161 40408.82
44.632 -76.620 3.217 35262.44
44.632 -75.356 3.455 31191.28
44.632 -74.092 3.468 27739.34
44.632 -72.829 3.426 18752.00
44.632 -71.565 3.440 14118.84
44.632 -70.301 3.451 10450.84
44.632 -69.037 3.428 6796.62
44.632 -67.773 3.421 5703.56
44.632 -66.510 3.370 133.83
44.632 -65.246 3.334 234.80
44.632 -63.982 3.320 190.59
45.531 -135.316 3.347 30.10
45.531 -134.032 3.377 0.00
45.531 -132.748 3.586 150.40
45.531 -131.464 3.782 232.02
45.531 -130.180 3.829 169.55
45.531 -128.897 3.713 338.68
45.531 -127.613 3.542 819.15
45.531 -126.329 3.539 2189.51
45.531 -125.045 3.392 4404.85
45.531 -123.761 3.242 12188.56
45.531 -122.477 3.137 18515.23
45.531 -121.193 3.208 22592.80
45.531 -119.910 3.377 27835.38
45.531 -118.626 3.346 39912.79
45.531 -117.342 3.211 38627.16
45.531 -116.058 3.259 33283.34
45.531 -114.774 3.251 33372.54
45.531 -113.490 3.258 36267.04
45.531 -112.207 3.374 45786.45
45.531 -110.923 3.293 28258.34
45.531 -109.639 3.237 21902.15
45.531 -108.355 3.347 21973.82
45.531 -107.071 3.340 24686.38
45.531 -105.787 3.183 25179.90
45.531 -104.504 3.340 20543.38
45.531 -103.220 3.366 20951.03
45.531 -101.936 3.238 26204.31
45.531 -100.652 3.263 28883.27
45.531 -99.368 3.355 34154.32
45.531 -98.084 3.440 44073.36
45.531 -96.801 3.477 45726.34
45.531 -95.517 3.333 47180.69
45.531 -94.233 3.213 42262.40
45.531 -92.949 3.150 35499.77
45.531 -91.665 3.192 38745.67
45.531 -90.381 3.278 28449.97
45.531 -89.097 3.295 32981.35
45.531 -87.814 3.360 26982.30
45.531 -86.530 3.339 27733.62
45.531 -85.246 3.275 25708.11
45.531 -83.962 3.373 22242.68
45.531 -82.678 3.482 25571.83
45.531 -81.394 3.563 18254.69
45.531 -80.111 3.591 17724.53
45.531 -78.827 3.471 21749.85
45.531 -77.543 3.272 31262.17
45.531 -76.259 3.133 36789.26
45.531 -74.975 3.342 16917.98
45.531 -73.691 3.490 17928.45
45.531 -72.408 3.425 14843.33
45.531 -71.124 3.345 12836.38
45.531 -69.840 3.292 10330.01
45.531 -68.556 3.279 3903.66
45.531 -67.272 3.311 1491.28
45.531 -65.988 3.314 1077.41
45.531 -64.705 3.303 364.36
45.531 -63.421 3.342 206.80
46.431 -135.904 3.471 199.88
46.431 -134.600 3.519 102.96
46.431 -133.295 3.669 253.21
46.431 -131.990 3.715 152.86
46.431 -130.685 3.725 196.81
46.431 -129.380 3.871 311.69
46.431 -128.075 4.244 799.15
46.431 -126.770 4.509 2130.98
46.431 -125.466 4.164 4022.64
46.431 -124.161 3.573 6161.43
46.431 -122.856 3.205 13922.22
46.431 -121.551 3.163 21621.39
46.431 -120.246 3.394 29801.86
46.431 -118.941 3.444 36183.41
46.431 -117.636 3.377 27783.14
46.431 -116.331 3.399 24487.71
46.431 -115.027 3.408 27512.10
46.431 -113.722 3.362 30615.05
46.431 -112.417 3.380 25765.52
46.431 -111.112 3.238 17723.39
46.431 -109.807 3.188 16502.04
46.431 -108.502 3.282 19566.90
46.431 -107.197 3.276 20337.31
46.431 -105.893 3.103 24994.58
46.431 -104.588 3.164 17086.99
46.431 -103.283 3.324 17969.11
46.431 -101.978 3.285 21045.02
46.431 -100.673 3.299 22181.64
46.431 -99.368 3.312 25985.76
46.431 -98.063 3.390 30625.79
46.431 -96.758 3.442 35961.39
46.431 -95.454 3.372 39183.94
46.431 -94.149 3.228 32364.79
46.431 -92.844 3.208 27101.21
46.431 -91.539 3.204 21766.44
46.431 -90.234 3.243 18059.31
46.431 -88.929 3.246 15558.78
46.431 -87.624 3.274 13044.52
46.431 -86.320 3.285 18426.15
46.431 -85.015 3.306 19028.54
46.431 -83.710 3.411 15575.68
46.431 -82.405 3.474 14146.77
46.431 -81.100 3.542 12593.24
46.431 -79.795 3.526 14664.80
46.431 -78.490 3.456 12762.77
46.431 -77.185 3.281 14490.34
46.431 -75.881 3.210 14031.83
46.431 -74.576 3.318 11231.35
46.431 -73.271 3.428 14725.82
46.431 -71.966 3.413 13203.71
46.431 -70.661 3.359 9937.69
46.431 -69.356 3.281 6217.57
46.431 -68.051 3.252 5670.79
46.431 -66.747 3.299 423.85
46.431 -65.442 3.310 550.37
46.431 -64.137 3.290 468.59
46.431 -62.832 3.373 223.74
47.330 -136.522 3.623 197.97
47.330 -135.195 3.649 417.35
47.330 -133.868 3.694 144.86
47.330 -132.541 3.692 140.87
47.330 -131.214 3.751 159.85
47.330 -129.887 4.021 302.70
47.330 -128.561 4.636 1157.79
47.330 -127.234 4.823 2792.28
47.330 -125.907 4.459 3539.33
47.330 -124.580 3.756 5352.65
47.330 -123.253 3.276 14308.38
47.330 -121.926 3.213 19641.32
47.330 -120.599 3.478 23390.84
47.330 -119.272 3.639 22362.37
47.330 -117.945 3.628 21050.84
47.330 -116.618 3.487 21580.51
47.330 -115.291 3.373 22330.90
47.330 -113.964 3.308 19700.19
47.330 -112.637 3.324 18887.21
47.330 -111.311 3.212 15044.41
47.330 -109.984 3.214 14076.84
47.330 -108.657 3.205 14118.30
47.330 -107.330 3.141 16635.51
47.330 -106.003 3.039 17366.26
47.330 -104.676 2.992 17217.55
47.330 -103.349 3.228 15485.26
47.330 -102.022 3.343 18579.15
47.330 -100.695 3.291 20861.51
47.330 -99.368 3.331 19647.77
47.330 -98.041 3.380 27197.29
47.330 -96.714 3.415 28537.35
47.330 -95.387 3.330 25068.59
47.330 -94.061 3.276 22118.48
47.330 -92.734 3.240 17172.23
47.330 -91.407 3.276 12063.62
47.330 -90.080 3.328 11813.95
47.330 -88.753 3.331 12576.26
47.330 -87.426 3.397 8333.61
47.330 -86.099 3.443 6124.86
47.330 -84.772 3.527 4947.37
47.330 -83.445 3.578 4924.19
47.330 -82.118 3.541 5551.12
47.330 -80.791 3.524 6565.42
47.330 -79.464 3.542 7502.83
47.330 -78.137 3.531 6473.72
47.330 -76.811 3.468 8142.25
47.330 -75.484 3.414 6491.21
47.330 -74.157 3.412 5327.14
47.330 -72.830 3.448 4593.70
47.330 -71.503 3.453 4679.61
47.330 -70.176 3.407 5094.67
47.330 -68.849 3.333 679.02
47.330 -67.522 3.308 530.77
47.330 -66.195 3.344 724.01
47.330 -64.868 3.354 503.82
47.330 -63.541 3.357 202.88
47.330 -62.214 3.500 181.71
48.229 -137.170 3.888 383.55
48.229 -135.820 3.853 104.92
48.229 -134.470 3.786 236.69
48.229 -133.120 3.773 353.58
48.229 -131.770 3.857 303.53
48.229 -130.420 4.175 844.98
48.229 -129.070 4.658 1415.00
48.229 -127.720 4.601 3182.14
48.229 -126.370 4.206 3164.90
48.229 -125.020 3.689 7298.20
48.229 -123.670 3.319 17009.65
48.229 -122.320 3.265 17352.11
48.229 -120.969 3.551 18517.64
48.229 -119.619 3.724 13716.14
48.229 -118.269 3.598 15692.47
48.229 -116.919 3.360 19550.29
48.229 -115.569 3.151 16341.55
48.229 -114.219 3.171 14409.18
48.229 -112.869 3.260 14872.42
48.229 -111.519 3.283 9740.42
48.229 -110.169 3.363 11293.54
48.229 -108.819 3.294 10601.98
48.229 -107.469 3.130 13809.65
48.229 -106.119 3.040 11354.34
48.229 -104.769 2.953 17762.15
48.229 -103.418 3.144 13373.74
48.229 -102.068 3.423 16979.39
48.229 -100.718 3.304 16653.77
48.229 -99.368 3.245 17309.42
48.229 -98.018 3.276 15286.91
48.229 -96.668 3.312 17623.21
48.229 -95.318 3.357 19188.48
48.229 -93.968 3.419 13301.30
48.229 -92.618 3.403 6249.48
48.229 -91.268 3.416 5583.08
48.229 -89.918 3.510 3885.00
48.229 -88.568 3.520 5622.51
48.229 -87.217 3.535 3736.83
48.229 -85.867 3.486 3611.19
48.229 -84.517 3.501 2984.53
48.229 -83.167 3.478 2830.45
48.229 -81.817 3.406 3638.49
48.229 -80.467 3.445 3656.95
48.229 -79.117 3.540 3906.31
48.229 -77.767 3.602 3884.32
48.229 -76.417 3.521 3267.12
48.229 -75.067 3.449 2017.15
48.229 -73.717 3.408 2190.73
48.229 -72.367 3.338 1376.75
48.229 -71.017 3.316 1035.41
48.229 -69.666 3.325 315.68
48.229 -68.316 3.310 82.90
48.229 -66.966 3.280 399.05
48.229 -65.616 3.300 358.42
48.229 -64.266 3.352 431.29
48.229 -62.916 3.460 485.62
48.229 -61.566 3.735 406.94
49.129 -137.851 4.309 612.38
49.129 -136.477 4.250 167.83
49.129 -135.103 3.958 302.70
49.129 -133.728 3.831 405.59
49.129 -132.354 3.935 672.32
49.129 -130.979 4.382 958.98
49.129 -129.605 4.547 1051.00
49.129 -128.231 4.216 3426.36
49.129 -126.856 3.836 4641.69
49.129 -125.482 3.549 15523.20
49.129 -124.107 3.308 18245.40
49.129 -122.733 3.273 14266.60
49.129 -121.359 3.535 13000.37
49.129 -119.984 3.602 12783.95
49.129 -118.610 3.372 12026.47
49.129 -117.235 3.132 11231.41
49.129 -115.861 3.034 9347.80
49.129 -114.487 3.050 8632.58
49.129 -113.112 3.202 9936.72
49.129 -111.738 3.345 8388.94
49.129 -110.363 3.384 8095.49
49.129 -108.989 3.338 8448.85
49.129 -107.615 3.124 9147.50
49.129 -106.240 3.042 10989.11
49.129 -104.866 2.932 12001.01
49.129 -103.491 3.063 13798.99
49.129 -102.117 3.413 11667.84
49.129 -100.743 3.307 11841.07
49.129 -99.368 3.266 10346.53
49.129 -97.994 3.332 9586.83
49.129 -96.619 3.409 9143.53
49.129 -95.245 3.522 7265.48
49.129 -93.871 3.556 2840.01
49.129 -92.496 3.479 2725.85
49.129 -91.122 3.413 3139.22
49.129 -89.747 3.459 4115.13
49.129 -88.373 3.483 4298.19
49.129 -86.999 3.464 3757.03
49.129 -85.624 3.369 3511.14
49.129 -84.250 3.373 3188.75
49.129 -82.875 3.407 3816.65
49.129 -81.501 3.435 2323.42
49.129 -80.127 3.500 3575.34
49.129 -78.752 3.547 2636.89
49.129 -77.378 3.521 1923.46
49.129 -76.003 3.451 1607.34
49.129 -74.629 3.414 1363.62
49.129 -73.255 3.409 1167.76
49.129 -71.880 3.320 835.17
49.129 -70.506 3.289 461.70
49.129 -69.131 3.288 460.25
49.129 -67.757 3.270 574.83
49.129 -66.383 3.256 248.89
49.129 -65.008 3.309 157.37
49.129 -63.634 3.430 98.48
49.129 -62.259 3.643 43.30
49.129 -60.885 4.032 471.13
50.028 -138.567 4.620 846.72
50.028 -137.167 4.517 999.60
50.028 -135.767 3.944 574.42
50.028 -134.367 3.769 526.44
50.028 -132.967 4.034 311.70
50.028 -131.567 4.449 703.24
50.028 -130.167 4.175 1505.54
50.028 -128.767 3.756 4391.22
50.028 -127.368 3.533 15892.56
50.028 -125.968 3.375 19674.80
50.028 -124.568 3.198 16668.97
50.028 -123.168 3.231 13280.97
50.028 -121.768 3.428 13940.58
50.028 -120.368 3.468 11015.19
50.028 -118.968 3.294 9546.79
50.028 -117.568 3.112 9927.60
50.028 -116.168 3.026 8393.56
50.028 -114.768 3.062 7983.70
50.028 -113.368 3.212 7398.86
50.028 -111.968 3.297 7589.69
50.028 -110.568 3.257 6120.97
50.028 -109.168 3.208 8437.30
50.028 -107.768 3.100 7723.45
50.028 -106.368 3.060 9683.08
50.028 -104.968 3.073 9920.56
50.028 -103.568 3.127 13941.37
50.028 -102.168 3.433 10139.95
50.028 -100.768 3.568 8589.00
50.028 -99.368 3.558 7335.40
50.028 -97.968 3.555 6151.83
50.028 -96.568 3.593 8883.63
50.028 -95.168 3.648 3748.16
50.028 -93.768 3.580 3088.95
50.028 -92.368 3.420 2265.67
50.028 -90.968 3.279 3616.38
50.028 -89.568 3.285 3490.26
50.028 -88.168 3.312 3260.28
50.028 -86.769 3.323 2594.18
50.028 -85.369 3.296 2460.26
50.028 -83.969 3.334 2324.91
50.028 -82.569 3.419 2647.25
50.028 -81.169 3.454 3243.89
50.028 -79.769 3.466 2229.92
50.028 -78.369 3.458 1503.36
50.028 -76.969 3.426 1879.97
50.028 -75.569 3.408 1783.27
50.028 -74.169 3.455 1371.04
50.028 -72.769 3.468 725.28
50.028 -71.369 3.396 437.57
50.028 -69.969 3.344 421.07
50.028 -68.569 3.315 324.37
50.028 -67.169 3.311 474.29
50.028 -65.769 3.385 90.84
50.028 -64.369 3.514 133.55
50.028 -62.969 3.698 122.89
50.028 -61.569 3.912 465.57
50.028 -60.169 4.145 178.11
50.927 -139.320 4.420 967.94
50.927 -137.893 4.302 823.30
50.927 -136.466 3.811 350.64
50.927 -135.040 3.777 2.00
50.927 -133.613 4.104 677.30
50.927 -132.186 4.218 460.51
50.927 -130.759 3.788 2455.47
50.927 -129.332 3.509 20207.11
50.927 -127.905 3.447 26291.99
50.927 -126.478 3.307 17500.54
50.927 -125.052 3.175 17897.87
50.927 -123.625 3.271 14058.03
50.927 -122.198 3.446 11780.43
