35.638 -112.648 3.309 75718.53
35.638 -111.541 3.250 74044.70
35.638 -110.434 3.286 64125.26
35.638 -109.328 3.289 59241.45
35.638 -108.221 3.291 62209.87
35.638 -107.115 3.281 64963.52
35.638 -106.008 3.376 58501.81
35.638 -104.901 3.336 57322.30
35.638 -103.795 3.274 65813.15
35.638 -102.688 3.279 73974.89
35.638 -101.581 3.266 78237.45
35.638 -100.475 3.230 90802.84
35.638 -99.368 3.186 89769.05
35.638 -98.262 3.258 100540.36
35.638 -97.155 3.219 159003.33
35.638 -96.048 3.285 124704.16
35.638 -94.942 3.339 85170.27
35.638 -93.835 3.352 77669.54
35.638 -92.729 3.412 104937.67
35.638 -91.622 3.522 74505.59
35.638 -90.515 3.523 68817.14
35.638 -89.409 3.519 58528.46
35.638 -88.302 3.456 52485.83
35.638 -87.195 3.361 40516.00
35.638 -86.089 3.308 41015.14
35.638 -84.982 3.278 40326.84
35.638 -83.876 3.264 38319.66
35.638 -82.769 3.261 37054.41
35.638 -81.662 3.326 32493.95
35.638 -80.556 3.405 39100.85
35.638 -79.449 3.459 22994.61
35.638 -78.343 3.489 21951.79
35.638 -77.236 3.468 7649.59
35.638 -76.129 3.485 5976.31
35.638 -75.023 3.489 199.76
35.638 -73.916 3.454 27.98
35.638 -72.809 3.411 71.94
35.638 -71.703 3.368 0.00
35.638 -70.596 3.355 0.00
35.638 -69.490 3.355 0.00
35.638 -68.383 3.357 0.00
36.538 -130.710 3.357 0.00
36.538 -129.591 3.357 1.38
36.538 -128.471 3.357 4.11
36.538 -127.352 3.358 3.61
36.538 -126.233 3.358 0.00
36.538 -125.113 3.344 0.00
36.538 -123.994 3.330 0.00
36.538 -122.875 3.382 5.56
36.538 -121.755 3.470 2918.27
36.538 -120.636 3.467 47313.18
36.538 -119.516 3.484 57259.45
36.538 -118.397 3.395 58870.64
36.538 -117.278 3.344 61049.77
36.538 -116.158 3.378 71954.57
36.538 -115.039 3.502 76475.91
36.538 -113.920 3.417 89489.24
36.538 -112.800 3.331 80188.35
36.538 -111.681 3.300 71127.55
36.538 -110.562 3.323 62758.75
36.538 -109.442 3.253 54522.05
36.538 -108.323 3.239 57394.35
36.538 -107.204 3.188 59511.26
36.538 -106.084 3.161 59477.72
36.538 -104.965 3.129 65097.89
36.538 -103.846 3.183 80610.22
36.538 -102.726 3.276 88267.65
36.538 -101.607 3.311 96181.22
36.538 -100.488 3.220 95729.58
36.538 -99.368 3.210 99406.30
36.538 -98.249 3.341 101762.95
36.538 -97.130 3.354 98767.83
36.538 -96.010 3.278 116234.36
36.538 -94.891 3.410 108577.37
36.538 -93.771 3.435 103795.84
36.538 -92.652 3.333 100890.41
36.538 -91.533 3.402 80385.86
36.538 -90.413 3.437 77811.70
36.538 -89.294 3.456 72230.16
36.538 -88.175 3.421 58444.04
36.538 -87.055 3.303 41330.61
36.538 -85.936 3.262 37929.99
36.538 -84.817 3.277 43908.07
36.538 -83.697 3.265 42691.44
36.538 -82.578 3.270 40043.89
36.538 -81.459 3.246 37116.16
36.538 -80.339 3.348 33569.93
36.538 -79.220 3.402 31169.85
36.538 -78.101 3.415 18477.19
36.538 -76.981 3.431 10537.49
36.538 -75.862 3.509 1151.48
36.538 -74.743 3.519 246.76
36.538 -73.623 3.466 100.92
36.538 -72.504 3.392 0.00
36.538 -71.384 3.357 0.00
36.538 -70.265 3.353 0.00
36.538 -69.146 3.356 0.00
36.538 -68.026 3.357 0.00
37.437 -131.083 3.357 0.00
37.437 -129.950 3.357 0.00
37.437 -128.817 3.357 0.00
37.437 -127.685 3.359 0.46
37.437 -126.552 3.351 4.11
37.437 -125.419 3.332 4.11
37.437 -124.287 3.366 2.25
37.437 -123.154 3.465 16.20
37.437 -122.021 3.535 23045.32
37.437 -120.889 3.615 36794.86
37.437 -119.756 3.522 27889.94
37.437 -118.623 3.240 49068.02
37.437 -117.491 3.137 51102.06
37.437 -116.358 3.105 65927.91
37.437 -115.225 3.222 73610.55
37.437 -114.093 3.306 79031.21
37.437 -112.960 3.206 81366.57
37.437 -111.827 3.234 68915.93
37.437 -110.695 3.266 66579.61
37.437 -109.562 3.275 58589.18
37.437 -108.429 3.284 58565.37
37.437 -107.297 3.185 62783.98
37.437 -106.164 3.072 72463.39
37.437 -105.032 3.128 93952.78
37.437 -103.899 3.265 84629.46
37.437 -102.766 3.288 90759.75
37.437 -101.634 3.249 88999.60
37.437 -100.501 3.251 93814.31
37.437 -99.368 3.286 94312.52
37.437 -98.236 3.328 91622.53
37.437 -97.103 3.366 88532.64
37.437 -95.970 3.356 91800.92
37.437 -94.838 3.340 105005.50
37.437 -93.705 3.265 108981.32
37.437 -92.572 3.254 105638.83
37.437 -91.440 3.372 92284.01
37.437 -90.307 3.388 82178.58
37.437 -89.174 3.392 71361.78
37.437 -88.042 3.409 57221.06
37.437 -86.909 3.343 41700.88
37.437 -85.776 3.289 40083.90
37.437 -84.644 3.254 41051.35
37.437 -83.511 3.231 43968.91
37.437 -82.378 3.281 45600.28
37.437 -81.246 3.287 53506.24
37.437 -80.113 3.338 47853.52
37.437 -78.980 3.432 38654.21
37.437 -77.848 3.443 17731.06
37.437 -76.715 3.494 8975.64
37.437 -75.582 3.551 631.02
37.437 -74.450 3.541 421.73
37.437 -73.317 3.468 100.92
37.437 -72.184 3.385 0.00
37.437 -71.052 3.353 0.00
37.437 -69.919 3.352 0.00
37.437 -68.786 3.356 0.00
37.437 -67.654 3.357 0.00
38.336 -131.472 3.357 0.00
38.336 -130.326 3.357 0.00
38.336 -129.179 3.357 0.00
38.336 -128.033 3.356 0.00
38.336 -126.886 3.346 0.00
38.336 -125.740 3.356 0.00
38.336 -124.593 3.451 21.25
38.336 -123.446 3.541 274.62
38.336 -122.300 3.607 14666.39
38.336 -121.153 3.713 31458.35
38.336 -120.007 3.484 30504.06
38.336 -118.860 3.193 53824.13
38.336 -117.713 3.231 59702.99
38.336 -116.567 3.293 62808.59
38.336 -115.420 3.291 60620.20
38.336 -114.274 3.293 77573.32
38.336 -113.127 3.168 82481.87
38.336 -111.981 3.130 76416.20
38.336 -110.834 3.136 69508.93
38.336 -109.687 3.154 60415.75
38.336 -108.541 3.179 59560.22
38.336 -107.394 3.055 64844.48
38.336 -106.248 2.984 64739.29
38.336 -105.101 3.098 46463.70
38.336 -103.955 3.272 45229.53
38.336 -102.808 3.287 59648.26
38.336 -101.661 3.226 60299.65
38.336 -100.515 3.278 63520.29
38.336 -99.368 3.329 66625.73
38.336 -98.222 3.350 71511.41
38.336 -97.075 3.336 75579.10
38.336 -95.928 3.436 77221.27
38.336 -94.782 3.443 77364.12
38.336 -93.635 3.437 89671.36
38.336 -92.489 3.346 96313.12
38.336 -91.342 3.309 110476.74
38.336 -90.196 3.334 96650.98
38.336 -89.049 3.382 94492.41
38.336 -87.902 3.461 77446.52
38.336 -86.756 3.313 49999.48
38.336 -85.609 3.279 46016.89
38.336 -84.463 3.262 44716.91
38.336 -83.316 3.239 46630.98
38.336 -82.170 3.243 55631.88
38.336 -81.023 3.251 56086.02
38.336 -79.876 3.405 56570.41
38.336 -78.730 3.571 53964.77
38.336 -77.583 3.568 28524.61
38.336 -76.437 3.582 5587.83
38.336 -75.290 3.599 809.59
38.336 -74.143 3.546 483.70
38.336 -72.997 3.460 100.91
38.336 -71.850 3.380 0.00
38.336 -70.704 3.352 0.00
38.336 -69.557 3.353 0.00
38.336 -68.411 3.357 0.00
38.336 -67.264 3.357 0.00
39.236 -131.880 3.357 0.00
39.236 -130.719 3.357 0.00
39.236 -129.558 3.359 0.00
39.236 -128.397 3.357 0.00
39.236 -127.235 3.347 0.00
39.236 -126.074 3.364 15.72
39.236 -124.913 3.445 2.54
39.236 -123.752 3.453 1442.28
39.236 -122.591 3.417 15418.11
39.236 -121.430 3.414 23859.60
39.236 -120.269 3.385 47929.90
39.236 -119.107 3.351 84029.41
39.236 -117.946 3.305 55664.98
39.236 -116.785 3.377 53469.26
39.236 -115.624 3.324 59826.50
39.236 -114.463 3.344 67824.56
39.236 -113.302 3.392 76913.44
39.236 -112.141 3.215 77904.49
39.236 -110.980 3.154 69869.18
39.236 -109.818 3.079 62907.72
39.236 -108.657 3.100 67229.41
39.236 -107.496 3.060 69062.98
39.236 -106.335 3.007 62955.63
39.236 -105.174 3.101 44475.68
39.236 -104.013 3.212 38302.13
39.236 -102.852 3.300 48126.05
39.236 -101.690 3.273 45192.24
39.236 -100.529 3.298 43882.11
39.236 -99.368 3.328 47042.82
39.236 -98.207 3.375 45919.68
39.236 -97.046 3.368 59970.57
39.236 -95.885 3.402 58666.34
39.236 -94.724 3.399 60550.58
39.236 -93.563 3.420 76468.30
39.236 -92.401 3.376 74045.05
39.236 -91.240 3.380 83672.88
39.236 -90.079 3.385 74428.40
39.236 -88.918 3.400 77665.16
39.236 -87.757 3.343 67118.90
39.236 -86.596 3.315 48916.14
39.236 -85.435 3.357 43590.40
39.236 -84.273 3.328 49116.48
39.236 -83.112 3.295 48984.82
39.236 -81.951 3.274 53396.11
39.236 -80.790 3.228 45325.63
39.236 -79.629 3.264 36780.25
39.236 -78.468 3.339 24239.24
39.236 -77.307 3.418 15442.94
39.236 -76.145 3.501 9941.94
39.236 -74.984 3.558 2620.81
39.236 -73.823 3.534 481.73
39.236 -72.662 3.453 100.91
39.236 -71.501 3.370 0.00
39.236 -70.340 3.350 0.00
39.236 -69.179 3.354 0.00
39.236 -68.018 3.357 0.00
39.236 -66.856 3.357 0.00
40.135 -132.306 3.357 0.00
40.135 -131.130 3.358 0.00
40.135 -129.954 3.360 0.00
40.135 -128.777 3.343 0.00
40.135 -127.601 3.318 12.33
40.135 -126.424 3.371 6.17
40.135 -125.248 3.452 0.00
40.135 -124.072 3.245 12338.93
40.135 -122.895 3.022 32684.71
40.135 -121.719 3.058 35337.69
40.135 -120.543 3.195 74644.50
40.135 -119.366 3.346 80458.82
40.135 -118.190 3.407 56631.57
40.135 -117.014 3.554 61632.57
40.135 -115.837 3.491 62026.64
40.135 -114.661 3.468 80072.91
40.135 -113.484 3.474 81330.91
40.135 -112.308 3.232 77695.37
40.135 -111.132 3.082 66734.07
40.135 -109.955 3.000 63418.12
40.135 -108.779 3.002 71196.36
40.135 -107.603 3.046 67725.73
40.135 -106.426 3.116 51535.65
40.135 -105.250 3.151 44580.31
40.135 -104.074 3.185 37339.25
40.135 -102.897 3.194 37377.78
40.135 -101.721 3.183 38036.29
40.135 -100.545 3.212 36726.64
40.135 -99.368 3.232 40086.57
40.135 -98.192 3.256 40732.47
40.135 -97.015 3.252 53584.06
40.135 -95.839 3.245 61696.57
40.135 -94.663 3.277 60605.14
40.135 -93.486 3.316 59441.39
40.135 -92.310 3.442 62928.12
40.135 -91.134 3.514 60835.50
40.135 -89.957 3.361 44249.97
40.135 -88.781 3.326 40645.48
40.135 -87.605 3.354 44441.64
40.135 -86.428 3.408 38003.24
40.135 -85.252 3.427 51784.35
40.135 -84.076 3.356 55503.96
40.135 -82.899 3.315 45917.07
40.135 -81.723 3.315 48853.31
40.135 -80.546 3.219 38122.87
40.135 -79.370 3.203 35975.63
40.135 -78.194 3.294 25655.85
40.135 -77.017 3.330 22969.14
40.135 -75.841 3.432 9965.20
40.135 -74.665 3.520 5720.24
40.135 -73.488 3.572 510.27
40.135 -72.312 3.487 100.91
40.135 -71.136 3.371 0.00
40.135 -69.959 3.345 0.00
40.135 -68.783 3.353 0.00
40.135 -67.607 3.357 0.00
40.135 -66.430 3.357 0.00
41.034 -132.752 3.360 0.00
41.034 -131.560 3.360 0.00
41.034 -130.368 3.345 0.00
41.034 -129.175 3.315 9.19
41.034 -127.983 3.358 9.67
41.034 -126.791 3.568 0.00
41.034 -125.598 3.720 297.75
41.034 -124.406 3.293 59622.12
41.034 -123.214 2.964 46945.09
41.034 -122.022 3.006 44658.49
41.034 -120.829 3.153 40850.09
41.034 -119.637 3.199 58128.07
41.034 -118.445 3.366 60946.03
41.034 -117.252 3.465 54830.51
41.034 -116.060 3.453 52894.94
41.034 -114.868 3.614 95997.23
41.034 -113.676 3.732 72020.19
41.034 -112.483 3.429 67704.02
41.034 -111.291 3.102 64802.01
41.034 -110.099 3.025 76262.97
41.034 -108.906 3.009 61390.01
41.034 -107.714 2.982 54568.53
41.034 -106.522 3.169 42528.68
41.034 -105.330 3.276 39503.00
41.034 -104.137 3.250 35554.91
41.034 -102.945 3.186 29360.66
41.034 -101.753 3.181 31283.36
41.034 -100.560 3.230 33352.59
41.034 -99.368 3.194 35759.82
41.034 -98.176 3.193 44286.16
41.034 -96.984 3.191 52666.45
41.034 -95.791 3.177 61065.20
41.034 -94.599 3.271 60549.59
41.034 -93.407 3.309 59301.18
41.034 -92.215 3.322 55077.23
41.034 -91.022 3.353 42983.40
41.034 -89.830 3.255 34933.86
41.034 -88.638 3.258 31810.46
41.034 -87.445 3.358 35028.24
41.034 -86.253 3.358 32891.16
41.034 -85.061 3.342 48309.64
41.034 -83.869 3.279 41411.05
41.034 -82.676 3.307 39248.05
41.034 -81.484 3.320 34414.23
41.034 -80.292 3.248 37518.80
41.034 -79.099 3.203 32725.08
41.034 -77.907 3.259 30671.99
41.034 -76.715 3.327 25987.51
41.034 -75.523 3.442 21775.47
41.034 -74.330 3.563 13056.22
41.034 -73.138 3.659 3831.26
41.034 -71.946 3.579 691.19
41.034 -70.753 3.411 247.80
41.034 -69.561 3.343 0.00
41.034 -68.369 3.348 0.00
41.034 -67.177 3.356 0.00
41.034 -65.984 3.358 0.00
41.934 -133.219 3.360 0.00
41.934 -132.010 3.353 0.00
41.934 -130.801 3.326 6.53
41.934 -129.592 3.345 12.69
41.934 -128.383 3.516 0.00
41.934 -127.174 3.936 76.92
41.934 -125.965 4.307 1890.49
41.934 -124.756 3.848 16269.32
41.934 -123.547 3.207 27713.29
41.934 -122.338 3.101 30065.16
41.934 -121.129 3.261 31265.63
41.934 -119.920 3.277 42179.49
41.934 -118.711 3.429 44799.83
41.934 -117.502 3.397 51310.71
41.934 -116.293 3.377 61183.28
41.934 -115.085 3.422 73356.84
41.934 -113.876 3.604 60479.77
41.934 -112.667 3.702 65233.84
41.934 -111.458 3.342 79028.11
41.934 -110.249 3.167 74453.33
41.934 -109.040 3.091 61419.89
41.934 -107.831 2.994 49576.43
41.934 -106.622 3.028 42448.08
41.934 -105.413 3.226 37532.71
41.934 -104.204 3.275 30301.96
41.934 -102.995 3.226 27931.81
41.934 -101.786 3.220 30336.88
41.934 -100.577 3.242 34353.34
41.934 -99.368 3.284 41166.49
41.934 -98.159 3.291 44607.27
41.934 -96.950 3.327 53866.15
41.934 -95.741 3.287 62187.04
41.934 -94.532 3.254 63225.32
41.934 -93.323 3.303 55570.79
41.934 -92.115 3.339 41481.43
41.934 -90.906 3.366 44885.58
41.934 -89.697 3.385 29983.87
41.934 -88.488 3.412 32104.85
41.934 -87.279 3.474 32379.64
41.934 -86.070 3.446 37739.72
41.934 -84.861 3.432 40040.48
41.934 -83.652 3.337 32589.37
41.934 -82.443 3.325 28269.50
41.934 -81.234 3.318 30337.42
41.934 -80.025 3.283 31844.34
41.934 -78.816 3.173 31769.04
41.934 -77.607 3.249 28393.04
41.934 -76.398 3.331 25362.44
41.934 -75.189 3.436 20142.19
41.934 -73.980 3.567 15571.64
41.934 -72.771 3.702 7634.19
41.934 -71.562 3.646 3341.04
41.934 -70.353 3.471 1555.94
41.934 -69.145 3.359 0.00
41.934 -67.936 3.339 0.00
41.934 -66.727 3.350 0.00
41.934 -65.518 3.357 0.00
42.833 -133.707 3.348 0.00
42.833 -132.481 3.341 4.35
42.833 -131.254 3.342 15.35
42.833 -130.028 3.418 0.00
42.833 -128.802 3.651 7.99
42.833 -127.575 4.026 305.70
42.833 -126.349 4.077 10888.28
42.833 -125.122 3.606 12542.08
42.833 -123.896 3.260 11005.42
42.833 -122.670 3.217 24129.15
42.833 -121.443 3.257 25333.22
42.833 -120.217 3.240 29777.57
42.833 -118.990 3.340 38475.91
42.833 -117.764 3.435 46200.25
42.833 -116.538 3.429 57059.81
42.833 -115.311 3.315 54771.45
42.833 -114.085 3.295 56165.92
42.833 -112.858 3.351 56444.23
42.833 -111.632 3.272 60062.91
42.833 -110.406 3.113 63312.16
42.833 -109.179 3.145 58003.29
42.833 -107.953 3.151 48133.38
42.833 -106.727 3.068 43435.26
42.833 -105.500 3.216 39086.07
42.833 -104.274 3.296 37090.54
42.833 -103.047 3.325 33761.23
42.833 -101.821 3.319 33674.05
42.833 -100.595 3.307 33758.94
42.833 -99.368 3.388 36487.55
42.833 -98.142 3.400 49013.81
42.833 -96.915 3.339 53948.60
42.833 -95.689 3.336 53596.86
42.833 -94.463 3.325 53897.96
42.833 -93.236 3.382 43177.58
42.833 -92.010 3.386 36807.63
42.833 -90.783 3.383 46622.50
42.833 -89.557 3.424 30641.14
42.833 -88.331 3.507 29947.77
42.833 -87.104 3.584 30865.61
42.833 -85.878 3.515 29164.36
42.833 -84.652 3.469 31392.41
42.833 -83.425 3.432 28612.82
42.833 -82.199 3.375 28369.71
42.833 -80.972 3.364 30473.98
42.833 -79.746 3.307 28684.05
42.833 -78.520 3.215 30626.75
42.833 -77.293 3.298 28105.76
42.833 -76.067 3.376 23257.53
42.833 -74.840 3.515 21466.97
42.833 -73.614 3.604 24268.10
42.833 -72.388 3.748 22228.03
42.833 -71.161 3.676 4856.09
42.833 -69.935 3.500 548.59
42.833 -68.708 3.398 0.00
42.833 -67.482 3.359 0.00
42.833 -66.256 3.350 0.00
42.833 -65.029 3.350 0.00
43.732 -134.219 3.334 2.78
43.732 -132.974 3.335 17.41
43.732 -131.729 3.400 0.00
43.732 -130.485 3.553 0.00
43.732 -129.240 3.746 283.72
43.732 -127.995 3.665 199.81
43.732 -126.751 3.270 39728.08
43.732 -125.506 3.033 21669.89
43.732 -124.261 2.994 17559.75
43.732 -123.017 3.125 23736.44
43.732 -121.772 3.168 26367.54
43.732 -120.527 3.176 31153.85
43.732 -119.283 3.231 35357.73
43.732 -118.038 3.375 38263.98
43.732 -116.793 3.438 46516.38
43.732 -115.549 3.372 43565.38
43.732 -114.304 3.309 47703.89
43.732 -113.059 3.203 42347.78
43.732 -111.815 3.208 43003.98
43.732 -110.570 3.075 51047.85
43.732 -109.325 3.142 43981.99
43.732 -108.081 3.208 42843.79
43.732 -106.836 3.101 41497.22
43.732 -105.591 3.287 35901.13
43.732 -104.347 3.357 34537.50
43.732 -103.102 3.318 30358.17
43.732 -101.858 3.287 31002.82
43.732 -100.613 3.240 35836.53
43.732 -99.368 3.325 43177.35
43.732 -98.124 3.439 46724.88
43.732 -96.879 3.456 58265.32
43.732 -95.634 3.410 55580.38
43.732 -94.390 3.397 45704.32
43.732 -93.145 3.362 43951.32
43.732 -91.900 3.399 35454.02
43.732 -90.656 3.416 42489.57
43.732 -89.411 3.445 33739.57
43.732 -88.166 3.524 31003.55
43.732 -86.922 3.539 29617.93
43.732 -85.677 3.484 35599.36
43.732 -84.432 3.454 26483.99
43.732 -83.188 3.439 24914.46
43.732 -81.943 3.426 22356.61
43.732 -80.698 3.400 26939.68
43.732 -79.454 3.331 28854.19
43.732 -78.209 3.253 28391.66
43.732 -76.964 3.388 28875.02
43.732 -75.720 3.494 22882.04
43.732 -74.475 3.567 23122.76
43.732 -73.230 3.584 17008.39
43.732 -71.986 3.671 16026.16
43.732 -70.741 3.653 17072.76
43.732 -69.496 3.512 3018.96
43.732 -68.252 3.436 187.84
43.732 -67.007 3.401 115.89
43.732 -65.763 3.380 0.00
43.732 -64.518 3.359 0.00
44.632 -134.754 3.344 20.79
44.632 -133.490 3.359 0.00
44.632 -132.227 3.521 0.00
44.632 -130.963 3.750 215.79
44.632 -129.699 3.823 194.81
44.632 -128.435 3.547 310.72
44.632 -127.172 3.084 2250.10
44.632 -125.908 2.906 10478.19
44.632 -124.644 2.936 14323.89
44.632 -123.380 3.150 23454.07
44.632 -122.116 3.220 24168.89
44.632 -120.853 3.291 25823.22
44.632 -119.589 3.387 27154.67
44.632 -118.325 3.363 38257.71
44.632 -117.061 3.357 40921.95
44.632 -115.797 3.382 37063.94
44.632 -114.534 3.330 37878.80
44.632 -113.270 3.263 42695.27
44.632 -112.006 3.269 38510.42
44.632 -110.742 3.213 39648.38
44.632 -109.479 3.305 33060.74
44.632 -108.215 3.434 28567.22
44.632 -106.951 3.386 30340.17
44.632 -105.687 3.377 28223.44
44.632 -104.423 3.490 27234.98
44.632 -103.160 3.427 28282.04
44.632 -101.896 3.319 28540.35
44.632 -100.632 3.275 28901.64
44.632 -99.368 3.327 32541.18
44.632 -98.104 3.455 38279.18
44.632 -96.841 3.469 50196.86
44.632 -95.577 3.399 44442.84
44.632 -94.313 3.255 43618.06
44.632 -93.049 3.197 39570.48
44.632 -91.785 3.278 35328.93
44.632 -90.522 3.362 33522.11
44.632 -89.258 3.382 35182.31
44.632 -87.994 3.457 28041.19
44.632 -86.730 3.421 26349.00
44.632 -85.467 3.382 24685.37
44.632 -84.203 3.399 23492.79
44.632 -82.939 3.464 17383.65
44.632 -81.675 3.497 17568.81
44.632 -80.411 3.466 19689.24
44.632 -79.148 3.388 24418.48
44.632 -77.884 3.277 33628.79
44.632 -76.620 3.315 29529.11
44.632 -75.356 3.479 26745.50
44.632 -74.092 3.535 22137.73
44.632 -72.829 3.525 14314.05
44.632 -71.565 3.557 9842.32
44.632 -70.301 3.606 6721.22
44.632 -69.037 3.516 5661.45
44.632 -67.773 3.469 4795.64
44.632 -66.510 3.439 127.88
44.632 -65.246 3.415 228.79
44.632 -63.982 3.397 184.81
45.531 -135.316 3.416 19.58
45.531 -134.032 3.447 0.00
45.531 -132.748 3.648 148.86
45.531 -131.464 3.830 211.79
45.531 -130.180 3.862 166.85
45.531 -128.897 3.721 338.68
45.531 -127.613 3.525 828.47
45.531 -126.329 3.516 2378.44
45.531 -125.045 3.399 4632.81
45.531 -123.761 3.261 12329.00
45.531 -122.477 3.153 18694.63
45.531 -121.193 3.232 21789.98
45.531 -119.910 3.415 26518.51
45.531 -118.626 3.379 38503.19
45.531 -117.342 3.263 37176.83
45.531 -116.058 3.315 31709.76
45.531 -114.774 3.298 31407.32
45.531 -113.490 3.325 33964.51
45.531 -112.207 3.375 42613.15
45.531 -110.923 3.320 27905.67
45.531 -109.639 3.359 21177.31
45.531 -108.355 3.465 21843.91
45.531 -107.071 3.422 24217.19
45.531 -105.787 3.282 25350.70
45.531 -104.504 3.450 21215.15
45.531 -103.220 3.422 21590.78
45.531 -101.936 3.309 25745.39
45.531 -100.652 3.320 28090.95
45.531 -99.368 3.408 32149.58
45.531 -98.084 3.491 37991.53
45.531 -96.801 3.541 41548.24
45.531 -95.517 3.387 40760.45
45.531 -94.233 3.247 38457.23
45.531 -92.949 3.195 30595.45
45.531 -91.665 3.230 34339.37
45.531 -90.381 3.341 26260.77
45.531 -89.097 3.380 27458.87
45.531 -87.814 3.434 23288.75
45.531 -86.530 3.409 25331.15
45.531 -85.246 3.346 22128.48
45.531 -83.962 3.456 17411.26
45.531 -82.678 3.499 22617.17
45.531 -81.394 3.606 16636.33
45.531 -80.111 3.693 16139.42
45.531 -78.827 3.544 18605.54
45.531 -77.543 3.333 27193.84
45.531 -76.259 3.177 31727.38
45.531 -74.975 3.342 11961.52
45.531 -73.691 3.501 13713.65
45.531 -72.408 3.465 10491.36
45.531 -71.124 3.445 8600.85
45.531 -69.840 3.513 6393.65
45.531 -68.556 3.462 2268.77
45.531 -67.272 3.441 1120.44
45.531 -65.988 3.431 1017.25
45.531 -64.705 3.409 431.58
45.531 -63.421 3.432 290.20
46.431 -135.904 3.542 353.83
46.431 -134.600 3.590 103.96
46.431 -133.295 3.722 234.78
46.431 -131.990 3.753 152.86
46.431 -130.685 3.766 196.81
46.431 -129.380 3.890 311.69
46.431 -128.075 4.196 825.79
46.431 -126.770 4.417 2245.55
46.431 -125.466 4.077 4233.59
46.431 -124.161 3.524 6314.77
46.431 -122.856 3.208 13893.05
46.431 -121.551 3.130 21598.12
46.431 -120.246 3.372 28988.96
46.431 -118.941 3.467 34123.45
46.431 -117.636 3.416 25204.25
46.431 -116.331 3.470 23487.70
46.431 -115.027 3.459 26520.47
46.431 -113.722 3.399 29108.57
46.431 -112.417 3.437 25101.00
46.431 -111.112 3.336 17476.65
46.431 -109.807 3.341 17130.32
46.431 -108.502 3.391 19534.88
46.431 -107.197 3.326 19645.39
46.431 -105.893 3.159 24213.48
46.431 -104.588 3.292 16919.06
46.431 -103.283 3.355 17721.22
46.431 -101.978 3.340 20103.45
46.431 -100.673 3.381 20949.08
46.431 -99.368 3.426 22585.41
46.431 -98.063 3.471 25488.58
46.431 -96.758 3.492 33368.53
46.431 -95.454 3.417 36004.55
46.431 -94.149 3.294 29229.66
46.431 -92.844 3.245 25658.86
46.431 -91.539 3.250 21165.90
46.431 -90.234 3.303 16649.18
46.431 -88.929 3.349 13823.56
46.431 -87.624 3.360 11906.43
46.431 -86.320 3.337 15924.00
46.431 -85.015 3.389 16072.68
46.431 -83.710 3.549 13093.15
46.431 -82.405 3.632 10205.82
46.431 -81.100 3.681 10540.57
46.431 -79.795 3.668 12453.15
46.431 -78.490 3.566 11037.35
46.431 -77.185 3.376 12105.75
46.431 -75.881 3.276 11933.07
46.431 -74.576 3.360 8377.72
46.431 -73.271 3.487 10755.20
46.431 -71.966 3.457 9390.90
46.431 -70.661 3.404 7778.54
46.431 -69.356 3.407 4994.48
46.431 -68.051 3.387 3352.60
46.431 -66.747 3.398 396.82
46.431 -65.442 3.387 594.61
46.431 -64.137 3.362 458.79
46.431 -62.832 3.438 223.74
47.330 -136.522 3.678 283.68
47.330 -135.195 3.708 404.60
47.330 -133.868 3.736 144.86
47.330 -132.541 3.725 140.87
47.330 -131.214 3.776 159.85
47.330 -129.887 4.011 302.70
47.330 -128.561 4.535 1182.69
47.330 -127.234 4.689 3003.48
47.330 -125.907 4.337 3740.83
47.330 -124.580 3.749 5543.13
47.330 -123.253 3.376 14167.61
47.330 -121.926 3.278 19315.96
47.330 -120.599 3.566 23265.72
47.330 -119.272 3.694 21344.95
47.330 -117.945 3.708 19364.01
47.330 -116.618 3.585 21651.24
47.330 -115.291 3.460 22513.35
47.330 -113.964 3.382 20121.40
47.330 -112.637 3.394 18728.25
47.330 -111.311 3.291 14821.82
47.330 -109.984 3.300 13884.50
47.330 -108.657 3.258 13831.86
47.330 -107.330 3.164 15866.67
47.330 -106.003 3.057 16516.04
47.330 -104.676 3.113 16767.19
47.330 -103.349 3.313 14869.85
47.330 -102.022 3.360 17790.53
47.330 -100.695 3.374 19949.03
47.330 -99.368 3.448 17881.42
47.330 -98.041 3.495 25689.01
47.330 -96.714 3.495 24627.21
47.330 -95.387 3.422 23220.63
47.330 -94.061 3.358 19479.19
47.330 -92.734 3.281 15360.25
47.330 -91.407 3.322 10381.81
47.330 -90.080 3.368 10822.74
47.330 -88.753 3.389 10582.28
47.330 -87.426 3.410 8389.80
47.330 -86.099 3.434 6014.49
47.330 -84.772 3.575 5322.93
47.330 -83.445 3.682 5221.63
47.330 -82.118 3.688 5484.35
47.330 -80.791 3.646 6251.36
47.330 -79.464 3.615 6724.78
47.330 -78.137 3.597 6081.15
47.330 -76.811 3.514 7454.90
47.330 -75.484 3.485 5417.01
47.330 -74.157 3.484 4946.54
47.330 -72.830 3.510 4307.13
47.330 -71.503 3.457 3861.97
47.330 -70.176 3.389 3613.02
47.330 -68.849 3.372 556.87
47.330 -67.522 3.353 416.92
47.330 -66.195 3.347 581.78
47.330 -64.868 3.342 366.78
47.330 -63.541 3.363 195.09
47.330 -62.214 3.512 262.91
48.229 -137.170 3.915 382.78
48.229 -135.820 3.887 109.04
48.229 -134.470 3.814 240.73
48.229 -133.120 3.795 357.61
48.229 -131.770 3.856 307.49
48.229 -130.420 4.122 848.94
48.229 -129.070 4.523 1441.98
48.229 -127.720 4.481 3486.23
48.229 -126.370 4.150 3288.65
48.229 -125.020 3.784 7294.49
48.229 -123.670 3.480 17507.73
48.229 -122.320 3.411 17652.33
48.229 -120.969 3.684 18570.01
48.229 -119.619 3.855 14085.22
48.229 -118.269 3.720 15636.04
48.229 -116.919 3.497 19956.91
48.229 -115.569 3.249 16414.07
48.229 -114.219 3.236 14163.95
48.229 -112.869 3.303 14028.34
48.229 -111.519 3.368 9682.12
48.229 -110.169 3.431 11059.81
48.229 -108.819 3.321 10735.27
48.229 -107.469 3.134 13639.64
48.229 -106.119 3.064 10840.01
48.229 -104.769 3.046 17434.62
48.229 -103.418 3.322 13342.95
48.229 -102.068 3.467 15769.46
48.229 -100.718 3.415 14410.83
48.229 -99.368 3.392 16018.24
48.229 -98.018 3.412 13145.73
48.229 -96.668 3.402 15111.17
48.229 -95.318 3.446 16963.12
48.229 -93.968 3.489 10447.54
48.229 -92.618 3.451 6159.01
48.229 -91.268 3.473 5780.88
48.229 -89.918 3.558 4222.46
48.229 -88.568 3.569 4765.25
48.229 -87.217 3.575 3930.15
48.229 -85.867 3.520 3528.26
48.229 -84.517 3.600 3001.94
48.229 -83.167 3.619 2721.39
48.229 -81.817 3.570 3419.21
48.229 -80.467 3.595 3393.24
48.229 -79.117 3.623 3611.44
48.229 -77.767 3.672 3863.66
48.229 -76.417 3.613 3491.96
48.229 -75.067 3.533 1747.46
48.229 -73.717 3.482 2105.84
48.229 -72.367 3.431 1298.68
48.229 -71.017 3.395 1009.46
48.229 -69.666 3.373 264.73
48.229 -68.316 3.364 83.59
48.229 -66.966 3.335 296.44
48.229 -65.616 3.322 356.95
48.229 -64.266 3.348 436.13
48.229 -62.916 3.432 362.79
48.229 -61.566 3.683 353.65
49.129 -137.851 4.239 577.42
49.129 -136.477 4.192 167.83
49.129 -135.103 3.959 302.70
49.129 -133.728 3.850 405.59
49.129 -132.354 3.924 672.32
49.129 -130.979 4.302 967.55
49.129 -129.605 4.439 1067.67
49.129 -128.231 4.163 3939.91
49.129 -126.856 3.858 4759.20
49.129 -125.482 3.655 15337.32
49.129 -124.107 3.443 19180.64
49.129 -122.733 3.356 15298.32
49.129 -121.359 3.574 13319.42
49.129 -119.984 3.657 13704.22
49.129 -118.610 3.446 12421.77
49.129 -117.235 3.210 11284.84
49.129 -115.861 3.078 9059.82
49.129 -114.487 3.082 7878.21
49.129 -113.112 3.253 9857.53
49.129 -111.738 3.468 8451.92
49.129 -110.363 3.518 7989.55
49.129 -108.989 3.426 8516.24
49.129 -107.615 3.182 9225.69
49.129 -106.240 3.128 10869.06
49.129 -104.866 3.090 12330.90
49.129 -103.491 3.366 13591.13
49.129 -102.117 3.611 11767.84
49.129 -100.743 3.477 11312.75
49.129 -99.368 3.422 9851.77
49.129 -97.994 3.441 9579.65
49.129 -96.619 3.471 9147.17
49.129 -95.245 3.539 6795.59
49.129 -93.871 3.552 3034.48
49.129 -92.496 3.503 2770.15
49.129 -91.122 3.466 3209.73
49.129 -89.747 3.519 4022.64
49.129 -88.373 3.557 4077.98
49.129 -86.999 3.599 4273.91
49.129 -85.624 3.542 4055.83
49.129 -84.250 3.587 3657.70
49.129 -82.875 3.636 3738.79
49.129 -81.501 3.668 2414.64
49.129 -80.127 3.730 3327.72
49.129 -78.752 3.741 2461.91
49.129 -77.378 3.681 1845.50
49.129 -76.003 3.593 1651.15
49.129 -74.629 3.513 1062.95
49.129 -73.255 3.473 1167.76
49.129 -71.880 3.391 835.17
49.129 -70.506 3.353 518.32
49.129 -69.131 3.341 458.95
49.129 -67.757 3.331 510.93
49.129 -66.383 3.327 201.76
49.129 -65.008 3.370 144.87
49.129 -63.634 3.478 79.93
49.129 -62.259 3.661 141.08
49.129 -60.885 4.000 475.85
50.028 -138.567 4.437 757.50
50.028 -137.167 4.349 879.38
50.028 -135.767 3.920 574.42
50.028 -134.367 3.783 526.44
50.028 -132.967 4.009 311.70
50.028 -131.567 4.365 715.99
50.028 -130.167 4.132 1518.04
50.028 -128.767 3.757 5068.80
50.028 -127.368 3.566 15896.01
50.028 -125.968 3.419 19790.51
50.028 -124.568 3.241 17298.13
50.028 -123.168 3.249 14110.80
50.028 -121.768 3.398 14298.89
50.028 -120.368 3.482 11465.69
50.028 -118.968 3.330 9587.98
50.028 -117.568 3.136 10169.45
50.028 -116.168 3.054 7802.50
50.028 -114.768 3.086 7356.98
50.028 -113.368 3.249 7219.11
50.028 -111.968 3.391 7703.05
50.028 -110.568 3.377 6121.39
50.028 -109.168 3.345 8428.92
50.028 -107.768 3.224 7612.89
50.028 -106.368 3.158 9691.37
50.028 -104.968 3.171 9770.43
50.028 -103.568 3.368 13855.68
50.028 -102.168 3.708 10101.76
50.028 -100.768 3.684 8593.29
50.028 -99.368 3.613 6990.69
50.028 -97.968 3.564 6090.59
50.028 -96.568 3.592 8652.70
50.028 -95.168 3.647 3444.40
50.028 -93.768 3.598 2802.63
50.028 -92.368 3.482 1970.00
50.028 -90.968 3.370 3591.38
50.028 -89.568 3.414 3369.32
50.028 -88.168 3.460 3153.69
50.028 -86.769 3.485 2737.89
50.028 -85.369 3.499 2362.59
50.028 -83.969 3.604 2517.34
50.028 -82.569 3.714 2800.11
50.028 -81.169 3.762 2998.34
50.028 -79.769 3.736 2069.27
50.028 -78.369 3.651 1518.69
50.028 -76.969 3.562 1950.98
50.028 -75.569 3.501 1740.70
50.028 -74.169 3.499 1359.90
50.028 -72.769 3.493 725.28
50.028 -71.369 3.433 437.57
50.028 -69.969 3.381 470.83
50.028 -68.569 3.361 315.40
50.028 -67.169 3.375 358.68
50.028 -65.769 3.454 72.93
50.028 -64.369 3.589 127.88
50.028 -62.969 3.772 163.84
50.028 -61.569 3.968 525.50
50.028 -60.169 4.140 164.40
50.927 -139.320 4.297 949.18
50.927 -137.893 4.200 819.17
50.927 -136.466 3.809 350.64
50.927 -135.040 3.788 2.00
50.927 -133.613 4.065 677.30
50.927 -132.186 4.153 473.47
50.927 -130.759 3.774 2626.84
50.927 -129.332 3.510 20946.12
50.927 -127.905 3.453 26655.20
50.927 -126.478 3.329 18017.02
50.927 -125.052 3.210 18573.76
50.927 -123.625 3.300 14473.36
50.927 -122.198 3.446 12009.41
50.927 -120.771 3.462 9547.83
50.927 -119.344 3.308 9549.89
50.927 -117.917 3.187 10161.74
50.927 -116.490 3.156 7208.15
50.927 -115.064 3.134 6283.30
50.927 -113.637 3.168 6652.38
50.927 -112.210 3.246 6938.75
50.927 -110.783 3.254 5719.30
50.927 -109.356 3.308 6330.94
50.927 -107.929 3.388 7701.51
50.927 -106.502 3.239 9850.09
50.927 -105.076 3.291 11310.97
50.927 -103.649 3.377 12413.91
50.927 -102.222 3.727 10515.10
50.927 -100.795 3.802 7565.65
50.927 -99.368 3.692 5406.44
50.927 -97.941 3.657 5108.95
50.927 -96.514 3.648 3520.35
50.927 -95.088 3.614 2621.77
50.927 -93.661 3.527 2239.62
50.927 -92.234 3.424 2842.04
50.927 -90.807 3.393 3789.23
50.927 -89.380 3.509 2591.24
50.927 -87.953 3.548 2223.67
50.927 -86.526 3.583 2556.19
50.927 -85.100 3.638 2720.20
50.927 -83.673 3.707 1570.45
50.927 -82.246 3.710 2927.01
50.927 -80.819 3.663 2577.89
50.927 -79.392 3.600 1096.57
50.927 -77.965 3.533 1765.82
50.927 -76.538 3.500 1179.47
50.927 -75.112 3.485 1375.10
50.927 -73.685 3.498 1068.83
50.927 -72.258 3.505 443.95
50.927 -70.831 3.468 535.61
50.927 -69.404 3.421 400.77
50.927 -67.977 3.454 376.66
50.927 -66.550 3.573 147.86
50.927 -65.124 3.753 259.76
50.927 -63.697 3.943 306.71
50.927 -62.270 4.024 493.84
50.927 -60.843 3.988 328.47
50.927 -59.416 4.023 679.79
51.827 -140.113 4.055 1063.63
51.827 -138.658 3.994 218.79
51.827 -137.203 3.748 21.97
51.827 -135.747 3.815 155.82
51.827 -134.292 4.081 838.16
51.827 -132.837 4.039 684.26
51.827 -131.382 3.704 30346.91
51.827 -129.927 3.635 42747.86
51.827 -128.472 3.619 22389.16
51.827 -127.016 3.539 16729.10
51.827 -125.561 3.480 13667.27
51.827 -124.106 3.435 11599.76
51.827 -122.651 3.471 9407.47
51.827 -121.196 3.455 7852.21
51.827 -119.741 3.329 7246.89
51.827 -118.285 3.223 6670.69
51.827 -116.830 3.259 5422.87
51.827 -115.375 3.217 4308.70
51.827 -113.920 3.256 5147.61
51.827 -112.465 3.287 6159.56
51.827 -111.010 3.327 6383.66
51.827 -109.554 3.433 7159.09
51.827 -108.099 3.543 8513.35
51.827 -106.644 3.338 11015.86
51.827 -105.189 3.319 12351.08
51.827 -103.734 3.350 10663.56
51.827 -102.279 3.567 11474.02
51.827 -100.823 3.677 7400.79
51.827 -99.368 3.597 4315.14
51.827 -97.913 3.518 4700.20
51.827 -96.458 3.504 2407.61
51.827 -95.003 3.517 3073.30
51.827 -93.548 3.523 2620.28
51.827 -92.092 3.493 2147.76
51.827 -90.637 3.517 3150.88
51.827 -89.182 3.658 2506.03
51.827 -87.727 3.713 2439.33
51.827 -86.272 3.730 2631.50
51.827 -84.817 3.746 2204.85
51.827 -83.361 3.738 2372.55
51.827 -81.906 3.703 2549.91
51.827 -80.451 3.613 1356.14
51.827 -78.996 3.559 1905.14
51.827 -77.541 3.567 1937.28
51.827 -76.085 3.591 1264.73
51.827 -74.630 3.607 1045.37
51.827 -73.175 3.600 1031.20
51.827 -71.720 3.606 561.76
51.827 -70.265 3.620 820.21
51.827 -68.810 3.615 444.18
51.827 -67.354 3.677 100.91
51.827 -65.899 3.822 197.87
51.827 -64.444 3.981 652.04
51.827 -62.989 4.014 687.83
51.827 -61.534 3.934 519.57
51.827 -60.079 3.867 639.34
51.827 -58.623 3.868 361.66
52.726 -140.948 3.929 432.60
52.726 -139.463 3.873 91.89
52.726 -137.978 3.764 135.84
52.726 -136.493 3.919 702.30
52.726 -135.008 4.124 610.43
52.726 -133.523 4.088 838.19
52.726 -132.038 3.887 5498.12
52.726 -130.553 3.791 9738.49
52.726 -129.068 3.687 7873.98
52.726 -127.583 3.657 7530.99
52.726 -126.098 3.638 7754.11
52.726 -124.613 3.502 8162.87
52.726 -123.128 3.510 5948.13
52.726 -121.643 3.517 6104.83
52.726 -120.158 3.409 6022.35
52.726 -118.673 3.347 6205.03
52.726 -117.188 3.394 5280.50
52.726 -115.703 3.386 4910.15
52.726 -114.218 3.406 4249.27
52.726 -112.733 3.395 7968.91
52.726 -111.248 3.357 7230.43
52.726 -109.763 3.425 7324.03
52.726 -108.278 3.459 9435.22
52.726 -106.793 3.394 11895.79
52.726 -105.308 3.240 11204.78
52.726 -103.823 3.224 11393.14
52.726 -102.338 3.264 10197.84
52.726 -100.853 3.466 8755.08
52.726 -99.368 3.540 4439.51
52.726 -97.883 3.477 2929.06
52.726 -96.398 3.520 2286.60
52.726 -94.913 3.641 2616.77
52.726 -93.428 3.715 2035.87
52.726 -91.943 3.643 2310.68
52.726 -90.458 3.555 2646.82
52.726 -88.973 3.607 2213.23
52.726 -87.488 3.640 2211.68
52.726 -86.003 3.642 2720.12
52.726 -84.518 3.625 2243.25
52.726 -83.033 3.625 1837.51
52.726 -81.548 3.619 1393.55
52.726 -80.063 3.567 1743.22
52.726 -78.578 3.553 2430.04
52.726 -77.093 3.582 1621.09
52.726 -75.608 3.610 1338.53
52.726 -74.123 3.651 1472.44
52.726 -72.638 3.638 840.20
52.726 -71.153 3.692 1061.96
52.726 -69.668 3.810 843.23
52.726 -68.183 3.860 597.91
52.726 -66.698 3.911 495.19
52.726 -65.213 3.967 837.81
52.726 -63.728 3.941 533.50
52.726 -62.243 3.875 481.75
52.726 -60.758 3.821 412.93
52.726 -59.273 3.790 36.97
52.726 -57.788 3.811 332.70
53.625 -141.829 3.839 586.42
53.625 -140.313 3.819 174.83
53.625 -138.796 3.820 382.65
53.625 -137.280 3.955 780.21
53.625 -135.763 4.060 195.80
53.625 -134.247 4.147 1141.21
53.625 -132.730 4.097 2002.29
53.625 -131.214 3.911 2642.24
53.625 -129.697 3.774 3280.01
53.625 -128.181 3.675 4042.55
53.625 -126.665 3.653 4449.10
53.625 -125.148 3.588 5472.61
53.625 -123.632 3.602 4031.76
53.625 -122.115 3.540 4505.72
53.625 -120.599 3.387 5120.07
53.625 -119.082 3.334 4449.32
53.625 -117.566 3.361 4789.05
53.625 -116.049 3.417 4513.89
53.625 -114.533 3.440 5425.03
53.625 -113.016 3.398 6685.58
53.625 -111.500 3.335 8123.36
53.625 -109.983 3.309 8900.20
53.625 -108.467 3.392 10718.81
53.625 -106.951 3.423 12075.43
53.625 -105.434 3.227 10887.46
53.625 -103.918 3.157 8868.84
53.625 -102.401 3.184 8390.73
53.625 -100.885 3.460 9099.11
53.625 -99.368 3.652 4525.76
53.625 -97.852 3.647 2530.74
53.625 -96.335 3.667 2305.50
53.625 -94.819 3.694 1927.45
53.625 -93.302 3.721 1798.13
53.625 -91.786 3.631 2145.89
53.625 -90.269 3.529 2061.89
53.625 -88.753 3.558 2474.31
53.625 -87.237 3.540 2465.52
53.625 -85.720 3.484 2415.13
53.625 -84.204 3.441 1335.30
53.625 -82.687 3.467 1457.56
53.625 -81.171 3.489 1410.48
53.625 -79.654 3.479 2088.84
53.625 -78.138 3.503 1678.76
53.625 -76.621 3.533 1389.38
53.625 -75.105 3.537 1478.04
53.625 -73.588 3.577 1913.70
53.625 -72.072 3.609 1112.04
53.625 -70.555 3.728 998.99
53.625 -69.039 3.924 922.91
53.625 -67.523 4.023 984.01
53.625 -66.006 3.973 681.37
53.625 -64.490 3.869 441.59
53.625 -62.973 3.801 353.03
53.625 -61.457 3.754 245.20
53.625 -59.940 3.727 110.90
53.625 -58.424 3.739 435.59
53.625 -56.907 3.751 265.72
54.525 -142.759 3.779 258.74
54.525 -141.209 3.778 317.70
54.525 -139.660 3.844 452.53
54.525 -138.110 3.891 317.70
54.525 -136.560 3.923 454.73
54.525 -135.011 4.064 1148.01
54.525 -133.461 4.104 1505.45
54.525 -131.911 3.835 2864.97
54.525 -130.362 3.704 3000.92
54.525 -128.812 3.585 4035.71
54.525 -127.262 3.559 3955.46
54.525 -125.713 3.501 4459.92
54.525 -124.163 3.479 3710.02
54.525 -122.613 3.367 4184.63
54.525 -121.064 3.258 3881.89
54.525 -119.514 3.234 3592.21
54.525 -117.964 3.352 3605.47
54.525 -116.415 3.453 4897.77
54.525 -114.865 3.434 5757.49
54.525 -113.315 3.407 6100.65
54.525 -111.766 3.412 8967.95
54.525 -110.216 3.257 10137.91
54.525 -108.666 3.339 11473.41
54.525 -107.117 3.387 12287.28
54.525 -105.567 3.287 8928.85
54.525 -104.017 3.172 7164.11
54.525 -102.468 3.192 7441.05
54.525 -100.918 3.408 7073.66
54.525 -99.368 3.634 5536.70
54.525 -97.819 3.729 2632.68
54.525 -96.269 3.761 1862.46
54.525 -94.719 3.721 1967.42
54.525 -93.170 3.634 1993.58
54.525 -91.620 3.535 1653.72
54.525 -90.070 3.454 2779.16
54.525 -88.520 3.492 2259.35
54.525 -86.971 3.501 2319.39
54.525 -85.421 3.455 1507.57
54.525 -83.871 3.406 1308.66
54.525 -82.322 3.417 1188.80
54.525 -80.772 3.387 1505.42
54.525 -79.222 3.373 2092.49
54.525 -77.673 3.430 1263.57
54.525 -76.123 3.479 873.15
54.525 -74.573 3.472 1375.83
54.525 -73.024 3.497 1214.87
54.525 -71.474 3.519 909.95
54.525 -69.924 3.622 879.50
54.525 -68.375 3.765 1554.78
54.525 -66.825 3.804 1183.78
54.525 -65.275 3.763 259.46
54.525 -63.726 3.693 256.40
54.525 -62.176 3.628 121.87
54.525 -60.626 3.648 124.86
54.525 -59.077 3.719 416.58
54.525 -57.527 3.722 186.80
54.525 -55.977 3.701 112.89
55.424 -143.742 3.722 495.54
55.424 -142.157 3.718 39.96
55.424 -140.572 3.792 564.41
55.424 -138.988 3.840 179.83
55.424 -137.403 3.922 622.83
55.424 -135.818 4.038 1488.98
55.424 -134.233 3.986 1092.24
55.424 -132.648 3.701 3050.58
55.424 -131.064 3.607 2958.75
55.424 -129.479 3.554 3738.33
55.424 -127.894 3.494 3223.87
55.424 -126.309 3.385 4090.30
55.424 -124.725 3.333 4449.56
55.424 -123.140 3.228 3631.00
55.424 -121.555 3.172 4419.54
55.424 -119.970 3.220 4260.69
55.424 -118.385 3.315 5405.44
55.424 -116.801 3.368 5331.25
55.424 -115.216 3.342 6086.70
55.424 -113.631 3.384 6929.16
55.424 -112.046 3.414 10197.67
55.424 -110.462 3.261 12926.50
55.424 -108.877 3.267 11918.32
55.424 -107.292 3.392 9900.35
55.424 -105.707 3.430 8050.66
55.424 -104.123 3.301 5348.25
55.424 -102.538 3.253 4934.83
55.424 -100.953 3.243 5781.56
55.424 -99.368 3.502 8573.95
55.424 -97.783 3.686 2179.57
55.424 -96.199 3.753 2256.66
55.424 -94.614 3.740 1397.30
55.424 -93.029 3.625 1996.76
55.424 -91.444 3.525 1614.39
55.424 -89.860 3.396 2813.15
55.424 -88.275 3.391 1545.42
55.424 -86.690 3.440 1960.42
55.424 -85.105 3.458 1558.64
55.424 -83.520 3.443 1749.20
55.424 -81.936 3.418 1040.93
55.424 -80.351 3.349 2146.41
55.424 -78.766 3.358 1621.68
55.424 -77.181 3.420 1092.55
55.424 -75.597 3.426 704.47
55.424 -74.012 3.412 1269.66
55.424 -72.427 3.415 653.35
55.424 -70.842 3.406 718.22
55.424 -69.257 3.451 768.22
55.424 -67.673 3.528 1085.87
55.424 -66.088 3.550 526.39
55.424 -64.503 3.540 419.74
55.424 -62.918 3.502 224.74
55.424 -61.334 3.511 142.44
55.424 -59.749 3.603 248.76
55.424 -58.164 3.685 117.89
55.424 -56.579 3.662 348.67
55.424 -54.995 3.627 293.73
56.324 -144.782 3.695 49.95
56.324 -143.160 3.704 453.52
56.324 -141.538 3.746 169.82
56.324 -139.916 3.848 423.57
56.324 -138.294 4.015 1142.43
56.324 -136.672 4.027 1288.49
56.324 -135.050 3.826 1028.28
56.324 -133.428 3.615 2276.44
56.324 -131.806 3.578 3543.21
56.324 -130.184 3.563 3671.16
56.324 -128.563 3.462 2511.47
56.324 -126.941 3.296 3125.57
56.324 -125.319 3.226 5397.44
56.324 -123.697 3.193 4389.58
56.324 -122.075 3.219 4427.22
56.324 -120.453 3.274 3936.50
56.324 -118.831 3.314 5418.84
56.324 -117.209 3.341 5051.76
56.324 -115.587 3.349 6241.24
56.324 -113.965 3.427 9078.46
56.324 -112.343 3.401 12387.94
56.324 -110.722 3.341 14181.22
56.324 -109.100 3.277 10554.32
56.324 -107.478 3.383 8244.98
56.324 -105.856 3.584 5211.68
56.324 -104.234 3.483 5494.26
56.324 -102.612 3.274 5046.54
56.324 -100.990 3.159 5787.71
56.324 -99.368 3.419 6503.19
56.324 -97.746 3.532 4481.95
56.324 -96.124 3.612 1495.08
56.324 -94.502 3.689 1754.14
56.324 -92.881 3.694 2840.53
56.324 -91.259 3.591 1548.47
56.324 -89.637 3.410 1860.62
56.324 -88.015 3.341 1484.84
56.324 -86.393 3.382 1670.44
56.324 -84.771 3.370 1133.47
56.324 -83.149 3.376 1397.25
56.324 -81.527 3.381 1597.02
56.324 -79.905 3.353 2096.87
56.324 -78.283 3.398 1284.72
56.324 -76.661 3.454 691.23
56.324 -75.040 3.421 1001.60
56.324 -73.418 3.425 1421.43
56.324 -71.796 3.422 597.37
56.324 -70.174 3.409 660.30
56.324 -68.552 3.412 545.13
56.324 -66.930 3.421 605.08
56.324 -65.308 3.399 454.74
56.324 -63.686 3.388 369.25
56.324 -62.064 3.389 115.25
56.324 -60.442 3.414 90.71
56.324 -58.820 3.488 74.93
56.324 -57.199 3.542 481.56
56.324 -55.577 3.495 61.94
56.324 -53.955 3.524 0.00
57.223 -145.883 3.728 144.85
57.223 -144.222 3.749 501.47
57.223 -142.561 3.777 22.97
57.223 -140.899 3.902 770.20
57.223 -139.238 4.070 1406.59
57.223 -137.577 3.951 1146.59
57.223 -135.916 3.676 1320.45
57.223 -134.254 3.542 2016.22
57.223 -132.593 3.565 3433.77
57.223 -130.932 3.549 3176.13
57.223 -129.271 3.387 3052.52
57.223 -127.609 3.203 2993.83
57.223 -125.948 3.202 5743.03
57.223 -124.287 3.235 5409.28
57.223 -122.626 3.256 4054.23
57.223 -120.964 3.337 2876.54
57.223 -119.303 3.420 4536.38
57.223 -117.642 3.453 4934.52
57.223 -115.981 3.476 6965.04
57.223 -114.319 3.525 11898.52
57.223 -112.658 3.487 15301.26
57.223 -110.997 3.427 13544.01
57.223 -109.336 3.342 9313.30
57.223 -107.674 3.372 6122.26
57.223 -106.013 3.626 4828.09
57.223 -104.352 3.611 5218.03
57.223 -102.691 3.249 5466.10
57.223 -101.029 3.127 4190.70
57.223 -99.368 3.254 4103.29
57.223 -97.707 3.383 7155.90
57.223 -96.046 3.462 2781.30
57.223 -94.384 3.577 2105.38
57.223 -92.723 3.683 2468.87
57.223 -91.062 3.654 1206.49
57.223 -89.401 3.458 2104.68
57.223 -87.739 3.352 1350.08
57.223 -86.078 3.356 1104.71
57.223 -84.417 3.285 1792.29
57.223 -82.756 3.279 1370.62
57.223 -81.094 3.297 1903.57
57.223 -79.433 3.331 1541.57
57.223 -77.772 3.426 1003.94
57.223 -76.111 3.480 932.02
57.223 -74.449 3.431 1077.41
57.223 -72.788 3.442 960.98
57.223 -71.127 3.435 607.41
57.223 -69.466 3.425 166.38
57.223 -67.805 3.413 261.78
57.223 -66.143 3.390 227.78
57.223 -64.482 3.349 200.83
57.223 -62.821 3.334 220.80
57.223 -61.160 3.336 285.74
57.223 -59.498 3.346 373.18
57.223 -57.837 3.368 97.22
57.223 -56.176 3.369 132.46
57.223 -54.515 3.343 427.72
57.223 -52.853 3.452 15.99
58.122 -147.051 3.806 590.38
58.122 -145.348 3.825 84.91
58.122 -143.645 3.867 339.65
58.122 -141.942 3.997 1186.76
58.122 -140.239 4.047 1220.28
58.122 -138.537 3.809 1194.76
58.122 -136.834 3.551 997.30
58.122 -135.131 3.485 2548.39
58.122 -133.428 3.577 3912.15
58.122 -131.725 3.569 3136.41
58.122 -130.022 3.389 4426.47
58.122 -128.319 3.241 3452.27
58.122 -126.616 3.240 5253.89
58.122 -124.913 3.281 5139.06
58.122 -123.210 3.321 3567.79
58.122 -121.507 3.404 4131.63
58.122 -119.804 3.507 3941.05
58.122 -118.101 3.570 5757.19
58.122 -116.398 3.671 9941.63
58.122 -114.695 3.698 16983.45
58.122 -112.992 3.637 15096.47
58.122 -111.289 3.547 11499.22
58.122 -109.586 3.412 6077.79
58.122 -107.883 3.386 5536.38
58.122 -106.180 3.509 4748.74
58.122 -104.477 3.568 4310.24
58.122 -102.774 3.245 4600.72
58.122 -101.071 3.092 4374.50
58.122 -99.368 3.136 4123.08
58.122 -97.665 3.381 7119.06
58.122 -95.962 3.408 4486.36
58.122 -94.259 3.480 2841.64
58.122 -92.556 3.616 1854.76
58.122 -90.853 3.633 1788.06
58.122 -89.150 3.469 1795.22
58.122 -87.447 3.379 1612.32
58.122 -85.744 3.388 1417.74
58.122 -84.041 3.291 2045.96
58.122 -82.339 3.265 1428.55
58.122 -80.636 3.302 1154.49
58.122 -78.933 3.362 1132.64
58.122 -77.230 3.468 798.18
58.122 -75.527 3.485 1356.63
58.122 -73.824 3.425 1325.45
58.122 -72.121 3.424 489.55
58.122 -70.418 3.407 303.63
58.122 -68.715 3.392 89.32
58.122 -67.012 3.392 292.73
58.122 -65.309 3.375 132.87
58.122 -63.606 3.354 100.89
58.122 -61.903 3.353 27.98
58.122 -60.200 3.346 226.82
58.122 -58.497 3.334 156.87
58.122 -56.794 3.327 284.73
58.122 -55.091 3.304 239.35
58.122 -53.388 3.292 137.14
58.122 -51.685 3.418 495.08
59.022 -148.292 3.809 836.17
59.022 -146.545 3.846 104.83
59.022 -144.798 3.924 1051.91
59.022 -143.050 4.057 1198.94
59.022 -141.303 3.955 1218.87
59.022 -139.556 3.653 833.14
59.022 -137.808 3.487 1168.86
59.022 -136.061 3.564 4533.38
59.022 -134.314 3.685 5515.88
59.022 -132.567 3.748 3386.43
59.022 -130.819 3.555 3497.78
59.022 -129.072 3.412 2788.79
59.022 -127.325 3.401 5413.45
59.022 -125.577 3.457 5569.60
59.022 -123.830 3.463 3870.25
59.022 -122.083 3.479 3551.45
59.022 -120.336 3.575 3681.38
59.022 -118.588 3.631 8178.60
59.022 -116.841 3.713 17026.35
59.022 -115.094 3.673 18522.80
59.022 -113.346 3.638 13254.72
59.022 -111.599 3.637 7533.88
59.022 -109.852 3.472 4829.02
59.022 -108.105 3.341 5049.80
59.022 -106.357 3.346 3443.31
59.022 -104.610 3.407 3756.94
59.022 -102.863 3.344 4287.18
59.022 -101.115 3.190 4581.35
59.022 -99.368 3.208 4941.71
59.022 -97.621 3.475 3699.26
59.022 -95.874 3.447 6016.40
59.022 -94.126 3.490 2720.85
59.022 -92.379 3.588 947.74
59.022 -90.632 3.578 1616.26
59.022 -88.884 3.451 1204.78
59.022 -87.137 3.410 2082.62
59.022 -85.390 3.480 1397.35
59.022 -83.643 3.376 1908.82
59.022 -81.895 3.330 1335.17
59.022 -80.148 3.347 986.14
59.022 -78.401 3.399 1240.75
59.022 -76.654 3.470 1104.88
59.022 -74.906 3.472 945.53
59.022 -73.159 3.425 1145.06
59.022 -71.412 3.408 474.44
59.022 -69.664 3.387 68.92
59.022 -67.917 3.379 269.75
59.022 -66.170 3.375 214.79
59.022 -64.423 3.372 104.89
59.022 -62.675 3.376 11.99
59.022 -60.928 3.381 65.95
59.022 -59.181 3.370 35.97
59.022 -57.433 3.346 44.96
59.022 -55.686 3.321 149.89
59.022 -53.939 3.311 153.87
59.022 -52.192 3.321 224.79
59.022 -50.444 3.422 236.59
59.921 -149.612 3.654 1389.28
59.921 -147.818 3.708 450.19
59.921 -146.023 3.834 913.59
59.921 -144.229 3.944 1421.04
59.921 -142.434 3.801 1169.38
59.921 -140.640 3.516 462.47
59.921 -138.845 3.453 2101.93
59.921 -137.051 3.643 2317.35
59.921 -135.257 3.811 3676.67
59.921 -133.462 3.930 3473.24
59.921 -131.668 3.776 2978.02
59.921 -129.873 3.535 3372.88
59.921 -128.079 3.494 4441.79
59.921 -126.284 3.514 6442.20
59.921 -124.490 3.462 5237.58
59.921 -122.696 3.428 3311.55
59.921 -120.901 3.468 5248.81
59.921 -119.107 3.560 14350.18
59.921 -117.312 3.529 21510.64
59.921 -115.518 3.493 14516.06
59.921 -113.724 3.526 7666.42
59.921 -111.929 3.601 6569.49
59.921 -110.135 3.505 4993.21
59.921 -108.340 3.286 3399.48
59.921 -106.546 3.235 3226.62
59.921 -104.751 3.301 4740.00
59.921 -102.957 3.459 5059.10
59.921 -101.163 3.388 4068.21
59.921 -99.368 3.364 3733.44
59.921 -97.574 3.471 4458.03
59.921 -95.779 3.541 5993.21
59.921 -93.985 3.490 2431.37
59.921 -92.191 3.545 860.35
59.921 -90.396 3.543 1465.49
59.921 -88.602 3.449 1084.89
59.921 -86.807 3.412 1949.69
59.921 -85.013 3.504 1755.17
59.921 -83.218 3.432 2271.70
59.921 -81.424 3.401 1322.47
59.921 -79.630 3.393 1207.47
59.921 -77.835 3.433 1180.84
59.921 -76.041 3.472 737.27
59.921 -74.246 3.443 1340.68
59.921 -72.452 3.413 611.31
59.921 -70.657 3.409 329.63
59.921 -68.863 3.386 97.90
59.921 -67.069 3.381 319.70
59.921 -65.274 3.377 120.88
59.921 -63.480 3.379 64.93
59.921 -61.685 3.386 35.97
59.921 -59.891 3.384 65.95
59.921 -58.097 3.369 0.00
59.921 -56.302 3.352 0.00
59.921 -54.508 3.340 0.00
59.921 -52.713 3.337 76.94
59.921 -50.919 3.353 186.86
59.921 -49.124 3.423 306.81
60.820 -151.018 3.498 715.35
60.820 -149.173 3.509 1927.08
60.820 -147.329 3.613 1393.45
60.820 -145.484 3.669 2145.32
60.820 -143.639 3.561 1196.55
60.820 -141.795 3.363 779.43
60.820 -139.950 3.392 2042.65
60.820 -138.106 3.519 1266.50
60.820 -136.261 3.611 2749.91
60.820 -134.416 3.748 3129.12
60.820 -132.572 3.621 2368.46
60.820 -130.727 3.366 2880.98
60.820 -128.882 3.399 3414.59
60.820 -127.038 3.459 7430.25
60.820 -125.193 3.395 4585.80
60.820 -123.348 3.336 3817.05
60.820 -121.504 3.347 10767.57
60.820 -119.659 3.405 25800.73
60.820 -117.815 3.382 16820.70
60.820 -115.970 3.366 7135.82
60.820 -114.125 3.412 7100.44
60.820 -112.281 3.591 5259.23
60.820 -110.436 3.554 5086.42
60.820 -108.591 3.326 4001.72
60.820 -106.747 3.232 4490.50
60.820 -104.902 3.305 3507.61
60.820 -103.057 3.453 3254.91
60.820 -101.213 3.508 4379.57
60.820 -99.368 3.419 4258.68
60.820 -97.524 3.390 3962.47
60.820 -95.679 3.613 4033.24
60.820 -93.834 3.516 5792.55
60.820 -91.990 3.549 947.83
60.820 -90.145 3.548 1394.45
60.820 -88.300 3.463 756.23
60.820 -86.456 3.376 2285.25
60.820 -84.611 3.425 2709.50
60.820 -82.766 3.393 2189.53
60.820 -80.922 3.410 691.30
60.820 -79.077 3.454 1499.64
60.820 -77.233 3.477 1171.19
60.820 -75.388 3.454 796.91
60.820 -73.543 3.399 1120.41
60.820 -71.699 3.408 528.43
60.820 -69.854 3.421 207.76
60.820 -68.009 3.397 325.69
60.820 -66.165 3.379 175.83
