42.833 -120.217 3.467 24102.64
42.833 -118.990 3.516 28160.86
42.833 -117.764 3.496 31892.60
42.833 -116.538 3.519 39166.69
42.833 -115.311 3.492 37844.27
42.833 -114.085 3.521 41097.52
42.833 -112.858 3.491 42286.31
42.833 -111.632 3.419 47843.86
42.833 -110.406 3.470 45586.17
42.833 -109.179 3.578 43017.05
42.833 -107.953 3.641 36853.80
42.833 -106.727 3.696 34467.94
42.833 -105.500 3.650 31465.99
42.833 -104.274 3.592 31735.90
42.833 -103.047 3.618 27310.79
42.833 -101.821 3.715 25460.24
42.833 -100.595 3.830 25268.73
42.833 -99.368 3.849 26412.98
42.833 -98.142 3.787 27951.87
42.833 -96.915 3.761 28803.34
42.833 -95.689 3.773 27311.33
42.833 -94.463 3.758 25069.92
42.833 -93.236 3.752 22390.79
42.833 -92.010 3.776 18802.63
42.833 -90.783 3.819 21616.14
42.833 -89.557 3.877 15001.18
42.833 -88.331 3.905 14554.00
42.833 -87.104 3.887 13569.98
42.833 -85.878 3.818 12099.22
42.833 -84.652 3.777 11395.66
42.833 -83.425 3.786 9150.96
42.833 -82.199 3.830 9665.04
42.833 -80.972 3.892 8558.77
42.833 -79.746 3.833 9295.92
42.833 -78.520 3.704 9529.29
42.833 -77.293 3.670 8990.25
42.833 -76.067 3.756 6785.76
42.833 -74.840 3.843 5377.90
42.833 -73.614 3.880 3202.85
42.833 -72.388 3.876 3124.26
42.833 -71.161 3.833 1299.75
42.833 -69.935 3.780 83.93
42.833 -68.708 3.737 0.00
42.833 -67.482 3.715 0.00
42.833 -66.256 3.710 0.00
42.833 -65.029 3.714 0.00
43.732 -134.219 3.710 0.00
43.732 -132.974 3.710 0.00
43.732 -131.729 3.733 0.00
43.732 -130.485 3.791 0.00
43.732 -129.240 3.787 283.72
43.732 -127.995 3.536 199.81
43.732 -126.751 3.192 44560.23
43.732 -125.506 3.151 24040.58
43.732 -124.261 3.253 16168.98
43.732 -123.017 3.357 16963.13
43.732 -121.772 3.345 19787.32
43.732 -120.527 3.341 22967.84
43.732 -119.283 3.400 24254.63
43.732 -118.038 3.532 28060.56
43.732 -116.793 3.550 33225.49
43.732 -115.549 3.476 30077.97
43.732 -114.304 3.459 33209.00
43.732 -113.059 3.416 27968.95
43.732 -111.815 3.381 30923.42
43.732 -110.570 3.430 37544.71
43.732 -109.325 3.555 31901.18
43.732 -108.081 3.697 32835.22
43.732 -106.836 3.824 32338.10
43.732 -105.591 3.798 27226.13
43.732 -104.347 3.713 29695.86
43.732 -103.102 3.688 29226.35
43.732 -101.858 3.767 27042.68
43.732 -100.613 3.866 26750.68
43.732 -99.368 3.916 28570.92
43.732 -98.124 3.825 28212.68
43.732 -96.879 3.766 29580.37
43.732 -95.634 3.773 26839.45
43.732 -94.390 3.710 24014.19
43.732 -93.145 3.766 21738.15
43.732 -91.900 3.809 19890.83
43.732 -90.656 3.858 18421.92
43.732 -89.411 3.944 16328.84
43.732 -88.166 3.978 14494.88
43.732 -86.922 3.914 13564.91
43.732 -85.677 3.853 11593.19
43.732 -84.432 3.857 8371.22
43.732 -83.188 3.875 8944.74
43.732 -81.943 3.905 8075.07
43.732 -80.698 3.943 9394.35
43.732 -79.454 3.882 7858.45
43.732 -78.209 3.762 8570.38
43.732 -76.964 3.727 8486.13
43.732 -75.720 3.801 6627.03
43.732 -74.475 3.873 8015.60
43.732 -73.230 3.878 4468.97
43.732 -71.986 3.871 1926.66
43.732 -70.741 3.851 384.61
43.732 -69.496 3.834 276.78
43.732 -68.252 3.790 43.96
43.732 -67.007 3.742 0.00
43.732 -65.763 3.719 0.00
43.732 -64.518 3.713 0.00
44.632 -134.754 3.713 0.00
44.632 -133.490 3.716 0.00
44.632 -132.227 3.770 0.00
44.632 -130.963 3.858 215.79
44.632 -129.699 3.841 194.81
44.632 -128.435 3.569 310.72
44.632 -127.172 3.167 2939.94
44.632 -125.908 3.071 10322.50
44.632 -124.644 3.070 11569.35
44.632 -123.380 3.217 15555.71
44.632 -122.116 3.364 16651.28
44.632 -120.853 3.411 18099.74
44.632 -119.589 3.483 20945.77
44.632 -118.325 3.650 29237.38
44.632 -117.061 3.657 29428.74
44.632 -115.797 3.610 26117.41
44.632 -114.534 3.586 26363.62
44.632 -113.270 3.468 25047.75
44.632 -112.006 3.408 23999.23
44.632 -110.742 3.376 27798.61
44.632 -109.479 3.517 24805.57
44.632 -108.215 3.726 23497.06
44.632 -106.951 3.863 25360.60
44.632 -105.687 3.866 24054.19
44.632 -104.423 3.746 23240.55
44.632 -103.160 3.681 23284.53
44.632 -101.896 3.733 23542.22
44.632 -100.632 3.829 22544.63
44.632 -99.368 3.955 22868.98
44.632 -98.104 3.923 22351.87
44.632 -96.841 3.842 24238.37
44.632 -95.577 3.751 21943.56
44.632 -94.313 3.751 21204.92
44.632 -93.049 3.796 18383.41
44.632 -91.785 3.831 17266.06
44.632 -90.522 3.908 15643.62
44.632 -89.258 3.939 16061.42
44.632 -87.994 4.003 13484.37
44.632 -86.730 3.985 12974.79
44.632 -85.467 3.912 11030.57
44.632 -84.203 3.915 9710.56
44.632 -82.939 3.972 8013.30
44.632 -81.675 4.003 8327.47
44.632 -80.411 3.968 8630.58
44.632 -79.148 3.830 10506.04
44.632 -77.884 3.691 11613.03
44.632 -76.620 3.635 10200.23
44.632 -75.356 3.762 9277.39
44.632 -74.092 3.825 7637.11
44.632 -72.829 3.815 3570.61
44.632 -71.565 3.795 2400.11
44.632 -70.301 3.804 1775.87
44.632 -69.037 3.832 970.00
44.632 -67.773 3.837 793.61
44.632 -66.510 3.791 12.98
44.632 -65.246 3.755 0.00
44.632 -63.982 3.739 49.05
45.531 -135.316 3.738 0.00
45.531 -134.032 3.741 0.00
45.531 -132.748 3.800 148.86
45.531 -131.464 3.910 211.79
45.531 -130.180 3.962 166.85
45.531 -128.897 3.773 338.68
45.531 -127.613 3.483 1366.57
45.531 -126.329 3.419 2455.07
45.531 -125.045 3.291 3740.35
45.531 -123.761 3.319 9129.27
45.531 -122.477 3.472 13767.30
45.531 -121.193 3.583 16036.06
45.531 -119.910 3.647 21233.25
45.531 -118.626 3.732 28123.67
45.531 -117.342 3.711 25591.02
45.531 -116.058 3.683 21016.62
45.531 -114.774 3.705 22926.00
45.531 -113.490 3.612 22327.10
45.531 -112.207 3.488 23344.69
45.531 -110.923 3.495 22512.89
45.531 -109.639 3.655 19924.28
45.531 -108.355 3.846 18987.55
45.531 -107.071 3.928 21275.48
45.531 -105.787 3.909 21179.96
45.531 -104.504 3.762 17886.22
45.531 -103.220 3.696 17582.43
45.531 -101.936 3.714 18797.50
45.531 -100.652 3.830 20032.43
45.531 -99.368 3.988 18901.05
45.531 -98.084 4.026 20114.20
45.531 -96.801 3.969 21773.32
45.531 -95.517 3.902 19890.66
45.531 -94.233 3.861 16735.89
45.531 -92.949 3.743 15804.80
45.531 -91.665 3.742 13399.15
45.531 -90.381 3.845 13567.23
45.531 -89.097 3.906 12213.94
45.531 -87.814 3.908 10113.31
45.531 -86.530 3.875 9758.54
45.531 -85.246 3.856 8780.82
45.531 -83.962 3.920 7495.70
45.531 -82.678 3.979 7947.39
45.531 -81.394 3.994 7938.42
45.531 -80.111 3.959 8089.21
45.531 -78.827 3.813 8482.70
45.531 -77.543 3.645 11999.37
45.531 -76.259 3.583 11849.89
45.531 -74.975 3.701 2936.35
45.531 -73.691 3.763 2972.20
45.531 -72.408 3.747 2105.39
45.531 -71.124 3.704 1599.28
45.531 -69.840 3.708 2074.38
45.531 -68.556 3.774 424.25
45.531 -67.272 3.814 843.53
45.531 -65.988 3.822 769.84
45.531 -64.705 3.802 305.99
45.531 -63.421 3.788 192.80
46.431 -135.904 3.790 235.00
46.431 -134.600 3.797 98.96
46.431 -133.295 3.835 234.78
46.431 -131.990 3.888 152.86
46.431 -130.685 3.953 196.81
46.431 -129.380 3.923 328.67
46.431 -128.075 3.852 1329.59
46.431 -126.770 3.863 1981.23
46.431 -125.466 3.637 2857.26
46.431 -124.161 3.488 5562.00
46.431 -122.856 3.557 10576.57
46.431 -121.551 3.626 15641.46
46.431 -120.246 3.640 20520.84
46.431 -118.941 3.714 23791.35
46.431 -117.636 3.717 18932.64
46.431 -116.331 3.701 16808.17
46.431 -115.027 3.697 18866.29
46.431 -113.722 3.648 21787.15
46.431 -112.417 3.664 18900.98
46.431 -111.112 3.758 13782.85
46.431 -109.807 3.892 14752.75
46.431 -108.502 3.974 16294.71
46.431 -107.197 3.957 16637.19
46.431 -105.893 3.904 21821.30
46.431 -104.588 3.711 16255.74
46.431 -103.283 3.614 14813.93
46.431 -101.978 3.642 13903.82
46.431 -100.673 3.733 12880.15
46.431 -99.368 3.880 14010.47
46.431 -98.063 3.953 15045.89
46.431 -96.758 3.974 16219.36
46.431 -95.454 3.939 17075.71
46.431 -94.149 3.864 13859.94
46.431 -92.844 3.790 13590.02
46.431 -91.539 3.833 10326.00
46.431 -90.234 3.912 9690.41
46.431 -88.929 3.919 8934.46
46.431 -87.624 3.869 5602.27
46.431 -86.320 3.816 6606.83
46.431 -85.015 3.836 5676.60
46.431 -83.710 3.905 4526.85
46.431 -82.405 3.920 4405.20
46.431 -81.100 3.920 4941.69
46.431 -79.795 3.948 4427.75
46.431 -78.490 3.898 3568.78
46.431 -77.185 3.834 3222.86
46.431 -75.881 3.817 2771.96
46.431 -74.576 3.893 1907.10
46.431 -73.271 3.911 1776.16
46.431 -71.966 3.868 943.84
46.431 -70.661 3.820 1103.84
46.431 -69.356 3.805 676.26
46.431 -68.051 3.823 429.47
46.431 -66.747 3.837 403.55
46.431 -65.442 3.828 321.65
46.431 -64.137 3.815 405.56
46.431 -62.832 3.816 223.74
47.330 -136.522 3.842 283.68
47.330 -135.195 3.851 404.60
47.330 -133.868 3.884 144.86
47.330 -132.541 3.909 140.87
47.330 -131.214 3.921 159.85
47.330 -129.887 3.930 419.58
47.330 -128.561 3.960 1583.42
47.330 -127.234 4.008 2497.43
47.330 -125.907 3.805 2456.66
47.330 -124.580 3.638 4685.65
47.330 -123.253 3.596 11958.55
47.330 -121.926 3.583 16536.65
47.330 -120.599 3.585 18321.89
47.330 -119.272 3.627 16471.01
47.330 -117.945 3.730 13540.70
47.330 -116.618 3.731 14250.78
47.330 -115.291 3.686 16109.30
47.330 -113.964 3.630 15178.24
47.330 -112.637 3.678 15299.50
47.330 -111.311 3.762 12795.88
47.330 -109.984 3.862 12144.44
47.330 -108.657 3.939 13054.60
47.330 -107.330 3.909 13220.88
47.330 -106.003 3.852 14566.60
47.330 -104.676 3.695 14679.35
47.330 -103.349 3.620 11808.33
47.330 -102.022 3.656 12712.41
47.330 -100.695 3.703 12183.39
47.330 -99.368 3.849 12420.07
47.330 -98.041 3.954 12155.89
47.330 -96.714 4.008 12303.39
47.330 -95.387 3.966 9929.25
47.330 -94.061 3.891 8917.69
47.330 -92.734 3.864 7454.36
47.330 -91.407 3.880 5565.98
47.330 -90.080 3.922 5722.50
47.330 -88.753 3.923 6571.08
47.330 -87.426 3.855 5375.52
47.330 -86.099 3.798 4879.05
47.330 -84.772 3.837 3833.08
47.330 -83.445 3.935 3375.34
47.330 -82.118 3.970 3146.66
47.330 -80.791 3.949 3471.30
47.330 -79.464 3.986 3628.54
47.330 -78.137 4.022 2739.58
47.330 -76.811 4.014 2061.38
47.330 -75.484 3.977 1545.49
47.330 -74.157 4.000 1855.05
47.330 -72.830 3.986 1631.12
47.330 -71.503 3.928 1715.93
47.330 -70.176 3.862 1092.79
47.330 -68.849 3.818 214.75
47.330 -67.522 3.805 329.63
47.330 -66.195 3.795 300.83
47.330 -64.868 3.785 215.80
47.330 -63.541 3.790 186.80
47.330 -62.214 3.822 254.70
48.229 -137.170 3.910 374.65
48.229 -135.820 3.912 100.91
48.229 -134.470 3.938 232.76
48.229 -133.120 3.952 349.64
48.229 -131.770 3.945 299.68
48.229 -130.420 3.940 959.00
48.229 -129.070 3.924 1826.74
48.229 -127.720 3.950 2143.09
48.229 -126.370 3.819 2741.90
48.229 -125.020 3.711 6555.41
48.229 -123.670 3.647 15887.02
48.229 -122.320 3.608 15867.89
48.229 -120.969 3.565 15029.22
48.229 -119.619 3.614 11169.03
48.229 -118.269 3.739 11045.93
48.229 -116.919 3.748 13550.02
48.229 -115.569 3.688 12515.29
48.229 -114.219 3.641 12451.23
48.229 -112.869 3.669 11177.23
48.229 -111.519 3.719 8712.39
48.229 -110.169 3.738 9850.88
48.229 -108.819 3.807 10191.78
48.229 -107.469 3.833 12679.80
48.229 -106.119 3.779 9428.29
48.229 -104.769 3.683 14690.43
48.229 -103.418 3.682 11477.81
48.229 -102.068 3.665 11324.86
48.229 -100.718 3.672 11627.88
48.229 -99.368 3.800 10356.25
48.229 -98.018 3.849 8259.89
48.229 -96.668 3.882 7936.74
48.229 -95.318 3.919 6828.73
48.229 -93.968 3.937 5225.09
48.229 -92.618 3.945 4019.07
48.229 -91.268 3.978 3691.88
48.229 -89.918 4.019 2762.92
48.229 -88.568 4.011 3499.48
48.229 -87.217 3.951 2359.56
48.229 -85.867 3.878 2350.73
48.229 -84.517 3.897 2380.57
48.229 -83.167 3.984 1835.51
48.229 -81.817 4.012 2288.35
48.229 -80.467 3.979 2317.16
48.229 -79.117 3.990 2143.86
48.229 -77.767 3.996 2319.85
48.229 -76.417 3.969 1369.43
48.229 -75.067 3.929 1092.90
48.229 -73.717 3.937 1184.74
48.229 -72.367 3.922 883.12
48.229 -71.017 3.876 564.45
48.229 -69.666 3.817 185.81
48.229 -68.316 3.778 82.90
48.229 -66.966 3.758 229.73
48.229 -65.616 3.748 258.73
48.229 -64.266 3.753 368.63
48.229 -62.916 3.771 226.76
48.229 -61.566 3.849 228.76
49.129 -137.851 4.022 576.42
49.129 -136.477 4.021 167.83
49.129 -135.103 3.982 302.70
49.129 -133.728 3.941 405.59
49.129 -132.354 3.941 672.32
49.129 -130.979 3.967 1154.77
49.129 -129.605 3.879 1149.92
49.129 -128.231 3.820 2441.82
49.129 -126.856 3.755 4302.23
49.129 -125.482 3.718 14628.92
49.129 -124.107 3.667 17168.77
49.129 -122.733 3.612 13371.08
49.129 -121.359 3.605 11647.52
49.129 -119.984 3.605 11589.00
49.129 -118.610 3.688 9687.23
49.129 -117.235 3.707 9052.56
49.129 -115.861 3.632 7584.42
49.129 -114.487 3.671 8204.00
49.129 -113.112 3.710 8952.21
49.129 -111.738 3.769 7120.74
49.129 -110.363 3.736 7540.73
49.129 -108.989 3.750 7576.48
49.129 -107.615 3.793 8608.87
49.129 -106.240 3.778 8910.19
49.129 -104.866 3.754 10888.84
49.129 -103.491 3.764 12917.62
49.129 -102.117 3.708 10385.58
49.129 -100.743 3.732 10163.44
49.129 -99.368 3.719 8496.42
49.129 -97.994 3.753 6882.70
49.129 -96.619 3.811 5554.50
49.129 -95.245 3.890 4348.09
49.129 -93.871 3.937 2276.60
49.129 -92.496 3.931 1804.51
49.129 -91.122 3.943 2109.32
49.129 -89.747 3.955 2631.83
49.129 -88.373 4.004 3099.86
49.129 -86.999 4.025 2478.44
49.129 -85.624 3.978 2638.38
49.129 -84.250 3.979 2284.69
49.129 -82.875 4.014 2058.27
49.129 -81.501 4.015 1651.27
49.129 -80.127 3.961 2185.73
49.129 -78.752 3.924 1695.25
49.129 -77.378 3.899 709.01
49.129 -76.003 3.876 629.36
49.129 -74.629 3.845 315.70
49.129 -73.255 3.827 698.24
49.129 -71.880 3.798 517.51
49.129 -70.506 3.775 326.64
49.129 -69.131 3.759 300.72
49.129 -67.757 3.746 277.78
49.129 -66.383 3.741 143.85
49.129 -65.008 3.744 144.87
49.129 -63.634 3.762 79.93
49.129 -62.259 3.803 140.84
49.129 -60.885 3.920 466.54
50.028 -138.567 4.120 625.39
50.028 -137.167 4.110 785.48
50.028 -135.767 3.964 574.42
50.028 -134.367 3.901 526.44
50.028 -132.967 3.936 311.70
50.028 -131.567 3.933 937.98
50.028 -130.167 3.787 1207.89
50.028 -128.767 3.682 3609.23
50.028 -127.368 3.685 15329.29
50.028 -125.968 3.668 18439.04
50.028 -124.568 3.626 15850.62
50.028 -123.168 3.549 12972.88
50.028 -121.768 3.525 12256.92
50.028 -120.368 3.549 10169.25
50.028 -118.968 3.601 8588.19
50.028 -117.568 3.616 8772.41
50.028 -116.168 3.597 7295.57
50.028 -114.768 3.743 7723.40
50.028 -113.368 3.833 7674.53
50.028 -111.968 3.881 6625.05
50.028 -110.568 3.803 5806.77
50.028 -109.168 3.712 7537.04
50.028 -107.768 3.729 7250.98
50.028 -106.368 3.796 7793.08
50.028 -104.968 3.788 9366.29
50.028 -103.568 3.767 13440.04
50.028 -102.168 3.781 9806.75
50.028 -100.768 3.795 8224.57
50.028 -99.368 3.819 6018.81
50.028 -97.968 3.819 4940.04
50.028 -96.568 3.833 6168.59
50.028 -95.168 3.918 2848.46
50.028 -93.768 3.931 2081.60
50.028 -92.368 3.931 1757.17
50.028 -90.968 3.925 2405.49
50.028 -89.568 3.933 2506.47
50.028 -88.168 3.971 2396.52
50.028 -86.769 3.965 1461.49
50.028 -85.369 3.925 1767.19
50.028 -83.969 3.947 1763.20
50.028 -82.569 3.956 1671.30
50.028 -81.169 3.944 2068.63
50.028 -79.769 3.923 1424.40
50.028 -78.369 3.890 826.16
50.028 -76.969 3.869 511.88
50.028 -75.569 3.842 811.21
50.028 -74.169 3.817 848.84
50.028 -72.769 3.782 199.78
50.028 -71.369 3.750 337.69
50.028 -69.969 3.740 285.66
50.028 -68.569 3.746 132.88
50.028 -67.169 3.757 345.65
50.028 -65.769 3.770 72.93
50.028 -64.369 3.795 127.88
50.028 -62.969 3.830 163.84
50.028 -61.569 3.881 525.50
50.028 -60.169 3.970 151.86
50.927 -139.320 4.103 993.06
50.927 -137.893 4.075 848.19
50.927 -136.466 3.921 350.64
50.927 -135.040 3.893 2.00
50.927 -133.613 3.939 734.24
50.927 -132.186 3.853 587.37
50.927 -130.759 3.672 1867.78
50.927 -129.332 3.596 19262.10
50.927 -127.905 3.661 25581.33
50.927 -126.478 3.663 17448.60
50.927 -125.052 3.570 16305.44
50.927 -123.625 3.487 13110.31
50.927 -122.198 3.524 10868.93
50.927 -120.771 3.568 9494.49
50.927 -119.344 3.603 8804.14
50.927 -117.917 3.609 9142.98
50.927 -116.490 3.660 6934.74
50.927 -115.064 3.828 6196.41
50.927 -113.637 3.925 6216.39
50.927 -112.210 3.971 6065.30
50.927 -110.783 3.900 5265.59
50.927 -109.356 3.774 5785.24
50.927 -107.929 3.715 7266.58
50.927 -106.502 3.768 8230.56
50.927 -105.076 3.783 10799.73
50.927 -103.649 3.799 12291.09
50.927 -102.222 3.865 10564.20
50.927 -100.795 3.897 7532.25
50.927 -99.368 3.946 4985.85
50.927 -97.941 3.927 3596.46
50.927 -96.514 3.955 2822.12
50.927 -95.088 3.963 2249.69
50.927 -93.661 3.982 2152.71
50.927 -92.234 3.953 2366.52
50.927 -90.807 3.931 2683.26
50.927 -89.380 3.961 1985.22
50.927 -87.953 3.981 1366.68
50.927 -86.526 3.921 1721.19
50.927 -85.100 3.844 2047.90
50.927 -83.673 3.886 1354.65
50.927 -82.246 3.913 1709.23
50.927 -80.819 3.900 1477.45
50.927 -79.392 3.871 491.50
50.927 -77.965 3.857 516.93
50.927 -76.538 3.866 545.73
50.927 -75.112 3.849 638.37
50.927 -73.685 3.844 820.11
50.927 -72.258 3.809 255.74
50.927 -70.831 3.768 385.59
50.927 -69.404 3.760 224.79
50.927 -67.977 3.777 297.71
50.927 -66.550 3.808 198.80
50.927 -65.124 3.846 259.76
50.927 -63.697 3.885 306.71
50.927 -62.270 3.906 479.53
50.927 -60.843 3.918 320.70
50.927 -59.416 3.964 749.30
51.827 -140.113 4.032 1076.00
51.827 -138.658 4.000 218.79
51.827 -137.203 3.886 21.97
51.827 -135.747 3.904 155.82
51.827 -134.292 3.931 959.02
51.827 -132.837 3.775 486.50
51.827 -131.382 3.590 28855.08
51.827 -129.927 3.605 40807.01
51.827 -128.472 3.717 20953.13
51.827 -127.016 3.706 15906.85
51.827 -125.561 3.625 12910.54
51.827 -124.106 3.581 11613.20
51.827 -122.651 3.694 9290.31
51.827 -121.196 3.757 7327.16
51.827 -119.741 3.755 5867.12
51.827 -118.285 3.767 6039.27
51.827 -116.830 3.814 5230.89
51.827 -115.375 3.918 4833.22
51.827 -113.920 3.956 4411.63
51.827 -112.465 3.963 4801.34
51.827 -111.010 3.924 5915.16
51.827 -109.554 3.862 6365.41
51.827 -108.099 3.788 7129.74
51.827 -106.644 3.840 10606.96
51.827 -105.189 3.876 10839.67
51.827 -103.734 3.892 10584.11
51.827 -102.279 3.931 11743.92
51.827 -100.823 3.951 6715.09
51.827 -99.368 3.989 4389.43
51.827 -97.913 3.959 3264.68
51.827 -96.458 3.943 1835.14
51.827 -95.003 3.919 2316.63
51.827 -93.548 3.943 2241.69
51.827 -92.092 3.944 1988.96
51.827 -90.637 3.944 2100.23
51.827 -89.182 3.968 1893.98
51.827 -87.727 3.978 1892.99
51.827 -86.272 3.910 1695.26
51.827 -84.817 3.854 1674.35
51.827 -83.361 3.906 1632.42
51.827 -81.906 3.903 1390.84
51.827 -80.451 3.864 1129.80
51.827 -78.996 3.856 777.25
51.827 -77.541 3.855 655.12
51.827 -76.085 3.872 682.35
51.827 -74.630 3.893 538.49
51.827 -73.175 3.901 882.04
51.827 -71.720 3.869 555.47
51.827 -70.265 3.831 488.50
51.827 -68.810 3.818 231.80
51.827 -67.354 3.834 200.79
51.827 -65.899 3.867 194.82
51.827 -64.444 3.904 637.41
51.827 -62.989 3.915 673.35
51.827 -61.534 3.915 546.49
51.827 -60.079 3.918 703.35
51.827 -58.623 3.932 361.66
52.726 -140.948 3.967 432.60
52.726 -139.463 3.929 91.89
52.726 -137.978 3.884 132.84
52.726 -136.493 3.939 582.41
52.726 -135.008 3.883 612.40
52.726 -133.523 3.723 346.64
52.726 -132.038 3.604 4097.08
52.726 -130.553 3.695 9660.97
52.726 -129.068 3.807 8324.97
52.726 -127.583 3.791 7674.58
52.726 -126.098 3.715 7312.43
52.726 -124.613 3.685 7735.37
52.726 -123.128 3.781 5717.27
52.726 -121.643 3.786 5838.01
52.726 -120.158 3.766 4685.38
52.726 -118.673 3.806 5112.97
52.726 -117.188 3.894 5276.73
52.726 -115.703 3.968 5067.88
52.726 -114.218 3.974 3336.70
52.726 -112.733 3.965 5521.67
52.726 -111.248 4.007 6339.62
52.726 -109.763 3.934 6663.10
52.726 -108.278 3.920 8121.55
52.726 -106.793 3.924 10442.07
52.726 -105.308 3.937 10823.68
52.726 -103.823 3.914 10700.94
52.726 -102.338 3.903 10265.38
52.726 -100.853 3.906 8242.53
52.726 -99.368 3.903 3816.07
52.726 -97.883 3.911 2002.97
52.726 -96.398 3.877 1764.19
52.726 -94.913 3.845 2191.76
52.726 -93.428 3.873 1633.29
52.726 -91.943 3.932 1484.46
52.726 -90.458 3.949 1889.00
52.726 -88.973 3.953 1643.25
52.726 -87.488 3.936 1492.54
52.726 -86.003 3.884 1831.10
52.726 -84.518 3.856 1743.49
52.726 -83.033 3.913 980.01
52.726 -81.548 3.884 823.10
52.726 -80.063 3.830 1194.74
52.726 -78.578 3.816 1076.33
52.726 -77.093 3.833 725.63
52.726 -75.608 3.862 721.31
52.726 -74.123 3.898 909.06
52.726 -72.638 3.920 808.23
52.726 -71.153 3.916 985.02
52.726 -69.668 3.905 445.56
52.726 -68.183 3.891 563.48
52.726 -66.698 3.890 534.49
52.726 -65.213 3.904 826.23
52.726 -63.728 3.910 533.50
52.726 -62.243 3.906 530.48
52.726 -60.758 3.899 456.57
52.726 -59.273 3.897 36.97
52.726 -57.788 3.914 248.77
53.625 -141.829 3.914 359.62
53.625 -140.313 3.895 58.93
53.625 -138.796 3.908 267.75
53.625 -137.280 3.937 780.21
53.625 -135.763 3.828 184.80
53.625 -134.247 3.721 357.63
53.625 -132.730 3.728 925.45
53.625 -131.214 3.876 2738.05
53.625 -129.697 3.915 3321.00
53.625 -128.181 3.805 3325.53
53.625 -126.665 3.739 3762.10
53.625 -125.148 3.722 4252.81
53.625 -123.632 3.758 3085.73
53.625 -122.115 3.724 3447.84
53.625 -120.599 3.736 3097.83
53.625 -119.082 3.781 3358.76
53.625 -117.566 3.875 4591.44
53.625 -116.049 3.952 3896.98
53.625 -114.533 3.957 4052.09
53.625 -113.016 3.917 5231.43
53.625 -111.500 3.967 6802.13
53.625 -109.983 3.932 7445.34
53.625 -108.467 3.925 9840.67
53.625 -106.951 3.872 10139.35
53.625 -105.434 3.870 10348.38
53.625 -103.918 3.846 8701.01
53.625 -102.401 3.830 8157.65
53.625 -100.885 3.806 8657.07
53.625 -99.368 3.845 3375.44
53.625 -97.852 3.876 2130.76
53.625 -96.335 3.871 1720.17
53.625 -94.819 3.839 1626.35
53.625 -93.302 3.874 1282.65
53.625 -91.786 3.924 1415.54
53.625 -90.269 3.907 1508.27
53.625 -88.753 3.912 1607.64
53.625 -87.237 3.896 1673.37
53.625 -85.720 3.861 1823.10
53.625 -84.204 3.842 919.04
53.625 -82.687 3.880 698.31
53.625 -81.171 3.856 1025.88
53.625 -79.654 3.799 857.78
53.625 -78.138 3.788 828.22
53.625 -76.621 3.810 870.31
53.625 -75.105 3.821 1084.94
53.625 -73.588 3.858 1327.12
53.625 -72.072 3.902 686.33
53.625 -70.555 3.963 614.38
53.625 -69.039 4.002 624.37
53.625 -67.523 3.986 844.19
53.625 -66.006 3.936 581.46
53.625 -64.490 3.900 339.68
53.625 -62.973 3.879 320.67
53.625 -61.457 3.872 162.84
53.625 -59.940 3.871 4.00
53.625 -58.424 3.883 326.69
53.625 -56.907 3.886 238.74
54.525 -142.759 3.900 258.74
54.525 -141.209 3.902 317.70
54.525 -139.660 3.926 452.53
54.525 -138.110 3.861 317.70
54.525 -136.560 3.762 217.74
54.525 -135.011 3.741 382.66
54.525 -133.461 3.846 753.79
54.525 -131.911 3.980 2610.20
54.525 -130.362 3.956 3070.35
54.525 -128.812 3.785 3085.02
54.525 -127.262 3.695 3285.85
54.525 -125.713 3.709 3483.71
54.525 -124.163 3.739 2951.34
54.525 -122.613 3.715 2956.59
54.525 -121.064 3.780 2520.56
54.525 -119.514 3.836 2582.54
54.525 -117.964 3.873 3699.36
54.525 -116.415 3.911 3616.31
54.525 -114.865 3.876 4298.63
54.525 -113.315 3.855 5177.81
54.525 -111.766 3.893 6323.59
54.525 -110.216 3.902 9145.51
54.525 -108.666 3.869 10305.12
54.525 -107.117 3.852 10612.98
54.525 -105.567 3.838 8448.28
54.525 -104.017 3.848 6159.61
54.525 -102.468 3.814 7242.24
54.525 -100.918 3.782 6628.11
54.525 -99.368 3.832 4551.31
54.525 -97.819 3.880 2856.92
54.525 -96.269 3.895 1678.20
54.525 -94.719 3.869 1683.29
54.525 -93.170 3.867 1285.66
54.525 -91.620 3.898 982.76
54.525 -90.070 3.870 2311.37
54.525 -88.520 3.897 1562.43
54.525 -86.971 3.880 1493.49
54.525 -85.421 3.840 932.13
54.525 -83.871 3.824 695.27
54.525 -82.322 3.836 625.35
54.525 -80.772 3.815 878.07
54.525 -79.222 3.780 857.99
54.525 -77.673 3.789 605.37
54.525 -76.123 3.819 815.21
54.525 -74.573 3.817 812.18
54.525 -73.024 3.821 927.98
54.525 -71.474 3.851 724.24
54.525 -69.924 3.928 739.09
54.525 -68.375 3.994 1352.54
54.525 -66.825 3.974 840.60
54.525 -65.275 3.909 282.73
54.525 -63.726 3.858 327.67
54.525 -62.176 3.831 121.87
54.525 -60.626 3.847 124.86
54.525 -59.077 3.884 416.58
54.525 -57.527 3.885 186.80
54.525 -55.977 3.878 112.89
55.424 -143.742 3.896 495.54
55.424 -142.157 3.896 39.96
55.424 -140.572 3.895 564.41
55.424 -138.988 3.793 226.78
55.424 -137.403 3.736 147.83
55.424 -135.818 3.782 645.56
55.424 -134.233 3.901 622.96
55.424 -132.648 3.987 3012.82
55.424 -131.064 3.863 2621.37
55.424 -129.479 3.701 2793.97
55.424 -127.894 3.633 2554.19
55.424 -126.309 3.659 3237.61
55.424 -124.725 3.681 3351.47
55.424 -123.140 3.701 2484.08
55.424 -121.555 3.806 3038.04
55.424 -119.970 3.881 3600.63
55.424 -118.385 3.896 3904.03
55.424 -116.801 3.856 4340.58
55.424 -115.216 3.827 4613.24
55.424 -113.631 3.824 5420.52
55.424 -112.046 3.878 7315.58
55.424 -110.462 3.908 10978.54
55.424 -108.877 3.893 11495.99
55.424 -107.292 3.857 8962.70
55.424 -105.707 3.862 7267.45
55.424 -104.123 3.886 5008.95
55.424 -102.538 3.852 4802.01
55.424 -100.953 3.817 5295.51
55.424 -99.368 3.782 7795.92
55.424 -97.783 3.841 2433.30
55.424 -96.199 3.887 1876.09
55.424 -94.614 3.864 1166.85
55.424 -93.029 3.846 1302.51
55.424 -91.444 3.887 998.88
55.424 -89.860 3.871 2716.21
55.424 -88.275 3.893 914.03
55.424 -86.690 3.874 1026.98
55.424 -85.105 3.841 1001.94
55.424 -83.520 3.816 801.14
55.424 -81.936 3.801 715.25
55.424 -80.351 3.772 1168.71
55.424 -78.766 3.765 654.16
55.424 -77.181 3.783 702.27
55.424 -75.597 3.802 529.48
55.424 -74.012 3.818 776.16
55.424 -72.427 3.822 411.56
55.424 -70.842 3.834 661.23
55.424 -69.257 3.872 707.25
55.424 -67.673 3.899 943.03
55.424 -66.088 3.854 546.47
55.424 -64.503 3.809 470.32
55.424 -62.918 3.776 224.74
55.424 -61.334 3.784 142.44
55.424 -59.749 3.839 248.76
55.424 -58.164 3.882 117.89
55.424 -56.579 3.878 348.67
55.424 -54.995 3.856 293.73
56.324 -144.782 3.884 49.95
56.324 -143.160 3.890 453.52
56.324 -141.538 3.835 169.82
56.324 -139.916 3.761 255.75
56.324 -138.294 3.760 287.70
56.324 -136.672 3.827 802.36
56.324 -135.050 3.907 871.13
56.324 -133.428 3.938 2320.38
56.324 -131.806 3.772 2713.67
56.324 -130.184 3.661 2469.37
56.324 -128.563 3.643 2132.77
56.324 -126.941 3.655 2193.04
56.324 -125.319 3.674 3876.90
56.324 -123.697 3.688 3034.04
56.324 -122.075 3.785 3076.75
56.324 -120.453 3.873 3354.72
56.324 -118.831 3.860 4095.79
56.324 -117.209 3.816 3616.37
56.324 -115.587 3.810 5387.48
56.324 -113.965 3.810 7385.39
56.324 -112.343 3.919 10522.11
56.324 -110.722 3.958 12487.91
56.324 -109.100 3.953 9972.75
56.324 -107.478 3.934 7697.98
56.324 -105.856 3.928 4898.09
56.324 -104.234 3.927 5357.49
56.324 -102.612 3.942 4449.34
56.324 -100.990 3.849 5287.43
56.324 -99.368 3.751 6451.27
56.324 -97.746 3.760 4269.62
56.324 -96.124 3.816 1319.65
56.324 -94.502 3.846 1296.07
56.324 -92.881 3.860 2030.66
56.324 -91.259 3.915 1526.46
56.324 -89.637 3.879 1596.29
56.324 -88.015 3.903 574.42
56.324 -86.393 3.887 948.05
56.324 -84.771 3.850 738.20
56.324 -83.149 3.815 567.42
56.324 -81.527 3.782 766.20
56.324 -79.905 3.743 1168.13
56.324 -78.283 3.756 624.38
56.324 -76.661 3.792 429.54
56.324 -75.040 3.816 687.41
56.324 -73.418 3.843 860.03
56.324 -71.796 3.849 595.37
56.324 -70.174 3.843 667.28
56.324 -68.552 3.834 420.54
56.324 -66.930 3.806 688.29
56.324 -65.308 3.747 432.59
56.324 -63.686 3.704 294.71
56.324 -62.064 3.695 110.91
56.324 -60.442 3.712 93.92
56.324 -58.820 3.766 74.93
56.324 -57.199 3.820 371.88
56.324 -55.577 3.804 61.94
56.324 -53.955 3.806 0.00
57.223 -145.883 3.894 144.85
57.223 -144.222 3.889 501.47
57.223 -142.561 3.805 0.00
57.223 -140.899 3.764 363.65
57.223 -139.238 3.794 562.42
57.223 -137.577 3.843 763.79
57.223 -135.916 3.877 1118.20
57.223 -134.254 3.870 2019.41
57.223 -132.593 3.744 1983.37
57.223 -130.932 3.689 2240.02
57.223 -129.271 3.675 2079.78
57.223 -127.609 3.673 2183.23
57.223 -125.948 3.699 4127.51
57.223 -124.287 3.682 3854.50
57.223 -122.626 3.757 3039.04
57.223 -120.964 3.869 2561.48
57.223 -119.303 3.876 3894.00
57.223 -117.642 3.854 3724.27
57.223 -115.981 3.854 6684.22
57.223 -114.319 3.868 10306.36
57.223 -112.658 3.945 14010.36
57.223 -110.997 3.998 11990.68
57.223 -109.336 3.982 8558.13
57.223 -107.674 3.975 5558.40
57.223 -106.013 3.950 4634.14
57.223 -104.352 3.967 5292.45
57.223 -102.691 3.986 4527.27
57.223 -101.029 3.896 4195.59
57.223 -99.368 3.774 4227.60
57.223 -97.707 3.702 6063.77
57.223 -96.046 3.763 2543.85
57.223 -94.384 3.832 1884.21
57.223 -92.723 3.911 2054.93
57.223 -91.062 3.975 825.14
57.223 -89.401 3.914 1563.34
57.223 -87.739 3.917 541.44
57.223 -86.078 3.893 790.22
57.223 -84.417 3.849 1046.87
57.223 -82.756 3.813 794.15
57.223 -81.094 3.769 871.55
57.223 -79.433 3.735 940.41
57.223 -77.772 3.764 711.25
57.223 -76.111 3.812 468.51
57.223 -74.449 3.829 534.47
57.223 -72.788 3.839 769.20
57.223 -71.127 3.825 480.50
57.223 -69.466 3.806 64.93
57.223 -67.805 3.794 475.53
57.223 -66.143 3.764 300.71
57.223 -64.482 3.719 183.80
57.223 -62.821 3.680 192.80
57.223 -61.160 3.659 220.80
57.223 -59.498 3.659 297.73
57.223 -57.837 3.692 83.93
57.223 -56.176 3.721 67.94
57.223 -54.515 3.724 89.25
57.223 -52.853 3.770 9.99
58.122 -147.051 3.926 590.38
58.122 -145.348 3.898 84.91
58.122 -143.645 3.814 107.90
58.122 -141.942 3.792 645.35
58.122 -140.239 3.816 526.70
58.122 -138.537 3.841 903.01
58.122 -136.834 3.854 964.01
58.122 -135.131 3.869 2075.02
58.122 -133.428 3.832 2530.23
58.122 -131.725 3.778 2157.87
58.122 -130.022 3.729 3096.52
58.122 -128.319 3.724 2557.13
58.122 -126.616 3.742 4088.74
58.122 -124.913 3.726 3275.49
58.122 -123.210 3.816 2730.18
58.122 -121.507 3.904 3707.38
58.122 -119.804 3.919 3506.43
58.122 -118.101 3.904 4895.02
58.122 -116.398 3.919 8572.23
58.122 -114.695 3.966 15393.08
58.122 -112.992 3.951 14054.37
58.122 -111.289 3.956 10173.57
58.122 -109.586 3.914 5260.67
58.122 -107.883 3.885 4539.39
58.122 -106.180 3.902 4910.86
58.122 -104.477 3.940 3989.82
58.122 -102.774 3.962 4503.32
58.122 -101.071 3.929 4329.48
58.122 -99.368 3.837 4422.34
58.122 -97.665 3.743 6254.23
58.122 -95.962 3.753 3927.05
58.122 -94.259 3.827 2538.45
58.122 -92.556 3.939 1458.52
58.122 -90.853 4.005 1249.65
58.122 -89.150 3.929 1525.34
58.122 -87.447 3.911 875.05
58.122 -85.744 3.895 1279.72
58.122 -84.041 3.825 1041.93
58.122 -82.339 3.782 397.69
58.122 -80.636 3.755 435.38
58.122 -78.933 3.743 808.15
58.122 -77.230 3.779 587.40
58.122 -75.527 3.821 749.25
58.122 -73.824 3.817 910.06
58.122 -72.121 3.791 200.81
58.122 -70.418 3.773 287.68
58.122 -68.715 3.762 191.80
58.122 -67.012 3.757 329.69
58.122 -65.309 3.743 144.86
58.122 -63.606 3.722 176.82
58.122 -61.903 3.707 87.90
58.122 -60.200 3.688 203.81
58.122 -58.497 3.675 105.90
58.122 -56.794 3.667 225.79
58.122 -55.091 3.669 162.85
58.122 -53.388 3.678 99.92
58.122 -51.685 3.744 151.85
59.022 -148.292 3.919 749.20
59.022 -146.545 3.897 86.37
59.022 -144.798 3.832 615.39
59.022 -143.050 3.824 321.66
59.022 -141.303 3.826 906.86
59.022 -139.556 3.814 674.31
59.022 -137.808 3.822 1358.52
59.022 -136.061 3.905 3552.63
59.022 -134.314 3.915 4963.63
59.022 -132.567 3.868 2644.69
59.022 -130.819 3.795 2146.81
59.022 -129.072 3.771 1742.18
59.022 -127.325 3.784 3912.66
59.022 -125.577 3.776 3818.16
59.022 -123.830 3.873 2712.46
59.022 -122.083 3.907 3448.58
59.022 -120.336 3.896 3231.74
59.022 -118.588 3.879 7202.59
59.022 -116.841 3.919 14928.50
59.022 -115.094 3.943 16840.61
59.022 -113.346 3.915 11945.59
59.022 -111.599 3.914 6215.76
59.022 -109.852 3.863 4364.66
59.022 -108.105 3.807 3749.07
59.022 -106.357 3.845 3413.42
59.022 -104.610 3.875 3308.55
59.022 -102.863 3.880 3945.02
59.022 -101.115 3.915 4319.53
59.022 -99.368 3.891 5465.05
59.022 -97.621 3.815 4254.39
59.022 -95.874 3.750 5671.18
59.022 -94.126 3.802 1558.62
59.022 -92.379 3.902 832.16
59.022 -90.632 3.928 1596.30
59.022 -88.884 3.877 1051.92
59.022 -87.137 3.887 1117.90
59.022 -85.390 3.884 1273.70
59.022 -83.643 3.824 704.23
59.022 -81.895 3.780 248.60
59.022 -80.148 3.760 755.25
59.022 -78.401 3.762 963.99
59.022 -76.654 3.789 665.30
59.022 -74.906 3.793 560.45
59.022 -73.159 3.779 601.37
59.022 -71.412 3.757 422.57
59.022 -69.664 3.749 76.92
59.022 -67.917 3.748 369.64
59.022 -66.170 3.740 214.79
59.022 -64.423 3.730 104.89
59.022 -62.675 3.722 11.99
59.022 -60.928 3.719 117.90
59.022 -59.181 3.718 124.88
59.022 -57.433 3.711 103.89
59.022 -55.686 3.695 85.92
59.022 -53.939 3.679 88.92
59.022 -52.192 3.674 178.83
59.022 -50.444 3.720 158.85
59.921 -149.612 3.827 760.82
59.921 -147.818 3.828 248.74
59.921 -146.023 3.808 508.47
59.921 -144.229 3.817 590.35
59.921 -142.434 3.800 867.78
59.921 -140.640 3.743 382.48
59.921 -138.845 3.749 1517.74
59.921 -137.051 3.823 1659.03
59.921 -135.257 3.864 3044.89
59.921 -133.462 3.865 2617.00
59.921 -131.668 3.833 1982.20
59.921 -129.873 3.778 1710.40
59.921 -128.079 3.758 2697.49
59.921 -126.284 3.778 4732.23
59.921 -124.490 3.868 3553.17
59.921 -122.696 3.828 3276.73
59.921 -120.901 3.811 4313.72
59.921 -119.107 3.827 12542.03
59.921 -117.312 3.852 19606.63
59.921 -115.518 3.874 13073.59
59.921 -113.724 3.848 6205.79
59.921 -111.929 3.857 5337.48
59.921 -110.135 3.872 4121.77
59.921 -108.340 3.834 2905.91
59.921 -106.546 3.809 2834.14
59.921 -104.751 3.818 3636.21
59.921 -102.957 3.821 4496.11
59.921 -101.163 3.873 4707.72
59.921 -99.368 3.919 4620.10
59.921 -97.574 3.878 4642.20
59.921 -95.779 3.796 4915.90
59.921 -93.985 3.811 1971.25
59.921 -92.191 3.869 724.13
59.921 -90.396 3.869 1320.63
59.921 -88.602 3.843 1194.79
59.921 -86.807 3.888 1068.89
59.921 -85.013 3.908 1170.84
59.921 -83.218 3.843 899.85
59.921 -81.424 3.782 705.35
59.921 -79.630 3.754 1151.80
59.921 -77.835 3.756 665.31
59.921 -76.041 3.777 440.54
59.921 -74.246 3.767 715.27
59.921 -72.452 3.751 509.48
59.921 -70.657 3.745 225.75
59.921 -68.863 3.747 172.82
59.921 -67.069 3.748 344.67
59.921 -65.274 3.736 120.88
59.921 -63.480 3.721 64.93
59.921 -61.685 3.713 35.97
59.921 -59.891 3.716 65.95
59.921 -58.097 3.724 14.99
59.921 -56.302 3.727 75.93
59.921 -54.508 3.720 92.90
59.921 -52.713 3.710 112.88
59.921 -50.919 3.705 80.92
59.921 -49.124 3.721 259.84
60.820 -151.018 3.738 478.50
60.820 -149.173 3.738 703.78
60.820 -147.329 3.750 624.60
60.820 -145.484 3.760 1147.15
60.820 -143.639 3.711 648.30
60.820 -141.795 3.666 759.15
60.820 -139.950 3.711 1004.13
60.820 -138.106 3.760 808.35
60.820 -136.261 3.800 1495.83
60.820 -134.416 3.825 1864.87
60.820 -132.572 3.803 1369.79
60.820 -130.727 3.738 1138.99
60.820 -128.882 3.707 1790.16
60.820 -127.038 3.770 5007.36
60.820 -125.193 3.841 3502.61
60.820 -123.348 3.743 3539.45
60.820 -121.504 3.724 9276.53
60.820 -119.659 3.777 23396.68
60.820 -117.815 3.841 15378.10
60.820 -115.970 3.811 6042.89
60.820 -114.125 3.786 5471.46
60.820 -112.281 3.819 4531.26
60.820 -110.436 3.905 3963.81
60.820 -108.591 3.918 3144.83
60.820 -106.747 3.848 3156.71
60.820 -104.902 3.805 3192.99
60.820 -103.057 3.812 3510.24
60.820 -101.213 3.853 4696.31
60.820 -99.368 3.912 3846.10
60.820 -97.524 3.912 4967.82
60.820 -95.679 3.869 3790.06
60.820 -93.834 3.846 5035.72
60.820 -91.990 3.885 853.41
60.820 -90.145 3.868 1333.64
60.820 -88.300 3.871 607.38
60.820 -86.456 3.909 1172.79
60.820 -84.611 3.896 1816.11
60.820 -82.766 3.815 1278.65
60.820 -80.922 3.744 377.60
60.820 -79.077 3.727 1304.92
60.820 -77.233 3.744 645.33
60.820 -75.388 3.762 650.34
60.820 -73.543 3.753 714.26
60.820 -71.699 3.745 297.70
60.820 -69.854 3.749 103.89
60.820 -68.009 3.752 426.59
60.820 -66.165 3.743 175.83
60.820 -64.320 3.727 100.89
60.820 -62.475 3.714 6.99
60.820 -60.631 3.708 94.92
60.820 -58.786 3.715 0.00
60.820 -56.942 3.722 0.00
60.820 -55.097 3.726 0.00
60.820 -53.252 3.730 54.95
60.820 -51.408 3.731 94.90
60.820 -49.563 3.731 111.88
60.820 -47.718 3.730 199.78
61.720 -152.518 3.715 380.58
61.720 -150.620 3.715 83.92
61.720 -148.722 3.711 1179.05
61.720 -146.824 3.681 1529.65
61.720 -144.926 3.630 1514.37
61.720 -143.027 3.617 1158.18
61.720 -141.129 3.687 638.78
61.720 -139.231 3.710 592.85
61.720 -137.333 3.740 1225.94
61.720 -135.434 3.766 1505.96
61.720 -133.536 3.745 1102.97
61.720 -131.638 3.685 1666.90
61.720 -129.740 3.690 1728.70
61.720 -127.842 3.805 5178.73
61.720 -125.943 3.818 3859.43
61.720 -124.045 3.677 5725.29
61.720 -122.147 3.700 27940.09
61.720 -120.249 3.813 19370.12
61.720 -118.350 3.814 5852.08
61.720 -116.452 3.797 4397.43
61.720 -114.554 3.799 3910.95
61.720 -112.656 3.886 4433.41
61.720 -110.758 3.943 4346.62
61.720 -108.859 3.924 3140.04
61.720 -106.961 3.872 2445.06
61.720 -105.063 3.824 2860.70
61.720 -103.165 3.837 2818.10
61.720 -101.266 3.868 3490.51
61.720 -99.368 3.914 4913.04
61.720 -97.470 3.935 4908.00
61.720 -95.572 3.942 4236.62
61.720 -93.674 3.949 4049.87
61.720 -91.775 3.950 2292.87
61.720 -89.877 3.891 1364.62
61.720 -87.979 3.892 643.31
61.720 -86.081 3.908 896.08
61.720 -84.182 3.863 924.74
61.720 -82.284 3.762 1068.14
61.720 -80.386 3.705 975.96
61.720 -78.488 3.706 1307.66
61.720 -76.590 3.735 681.29
61.720 -74.691 3.754 590.41
61.720 -72.793 3.755 646.33
61.720 -70.895 3.753 287.70
61.720 -68.997 3.754 246.75
61.720 -67.098 3.747 313.70
61.720 -65.200 3.733 130.87
61.720 -63.302 3.719 13.99
61.720 -61.404 3.709 101.92
61.720 -59.505 3.713 0.00
61.720 -57.607 3.720 0.00
61.720 -55.709 3.724 0.00
61.720 -53.811 3.729 0.00
61.720 -51.913 3.733 0.00
61.720 -50.014 3.737 123.86
61.720 -48.116 3.740 224.75
61.720 -46.218 3.737 178.80
62.619 -154.123 3.716 288.70
62.619 -152.167 3.717 306.95
62.619 -150.212 3.707 460.54
62.619 -148.256 3.667 583.93
62.619 -146.301 3.622 1339.49
62.619 -144.345 3.600 1843.70
62.619 -142.390 3.644 1737.08
62.619 -140.434 3.642 1039.62
62.619 -138.479 3.662 1926.10
62.619 -136.523 3.694 1358.51
62.619 -134.567 3.680 1151.73
62.619 -132.612 3.635 1890.83
62.619 -130.656 3.693 2458.17
62.619 -128.701 3.837 4867.09
62.619 -126.745 3.781 4028.07
62.619 -124.790 3.672 30804.45
62.619 -122.834 3.793 26487.62
62.619 -120.879 3.858 6015.85
62.619 -118.923 3.834 3832.06
62.619 -116.968 3.823 3599.35
62.619 -115.012 3.878 4454.98
62.619 -113.057 3.898 3646.37
62.619 -111.101 3.944 3752.10
62.619 -109.146 3.922 3393.69
62.619 -107.190 3.863 2799.29
62.619 -105.235 3.840 2409.67
62.619 -103.279 3.874 2434.54
62.619 -101.324 3.897 2618.30
62.619 -99.368 3.891 4304.65
62.619 -97.413 3.931 4501.46
62.619 -95.457 3.959 5257.62
62.619 -93.502 3.983 3357.53
62.619 -91.546 3.947 5270.95
62.619 -89.591 3.881 939.80
62.619 -87.635 3.906 501.48
62.619 -85.680 3.909 696.91
62.619 -83.724 3.847 998.35
62.619 -81.769 3.744 788.15
62.619 -79.813 3.694 454.51
62.619 -77.858 3.704 1426.91
62.619 -75.902 3.741 984.96
62.619 -73.946 3.762 1072.90
62.619 -71.991 3.764 354.65
62.619 -70.035 3.767 155.83
62.619 -68.080 3.759 435.58
62.619 -66.124 3.740 180.82
62.619 -64.169 3.722 61.94
62.619 -62.213 3.711 80.93
62.619 -60.258 3.712 20.98
62.619 -58.302 3.718 0.00
62.619 -56.347 3.723 0.00
62.619 -54.391 3.728 124.14
62.619 -52.436 3.730 126.85
62.619 -50.480 3.732 133.84
62.619 -48.525 3.732 33.96
62.619 -46.569 3.733 0.00
62.619 -44.614 3.732 51.95
63.518 -155.841 3.715 295.68
63.518 -153.824 3.710 300.67
63.518 -151.807 3.690 717.11
63.518 -149.790 3.670 1309.54
63.518 -147.773 3.659 1512.72
63.518 -145.757 3.659 1867.04
63.518 -143.740 3.669 1758.47
63.518 -141.723 3.648 1323.97
63.518 -139.706 3.655 2296.46
63.518 -137.689 3.669 2661.98
63.518 -135.672 3.640 2636.83
63.518 -133.655 3.609 3325.50
63.518 -131.638 3.663 3430.74
63.518 -129.622 3.822 4271.69
63.518 -127.605 3.902 6646.48
63.518 -125.588 3.842 31970.40
63.518 -123.571 3.840 6176.77
63.518 -121.554 3.856 3787.17
63.518 -119.537 3.844 3205.88
63.518 -117.520 3.864 3458.50
63.518 -115.503 3.879 2865.01
63.518 -113.486 3.915 2380.89
63.518 -111.470 3.919 2969.86
63.518 -109.453 3.892 2540.18
63.518 -107.436 3.869 2700.60
63.518 -105.419 3.880 2042.33
63.518 -103.402 3.873 1905.07
63.518 -101.385 3.874 2257.60
63.518 -99.368 3.871 2991.96
63.518 -97.351 3.872 4658.23
63.518 -95.334 3.858 5455.46
63.518 -93.318 3.866 4296.69
63.518 -91.301 3.851 4696.87
63.518 -89.284 3.826 3039.34
63.518 -87.267 3.916 606.38
63.518 -85.250 3.929 796.27
63.518 -83.233 3.854 1021.99
63.518 -81.216 3.749 798.16
63.518 -79.199 3.713 624.35
63.518 -77.182 3.735 1197.73
63.518 -75.166 3.774 846.13
63.518 -73.149 3.791 1093.85
63.518 -71.132 3.791 1013.94
63.518 -69.115 3.786 795.18
63.518 -67.098 3.757 290.72
63.518 -65.081 3.730 103.89
63.518 -63.064 3.714 54.96
63.518 -61.047 3.710 47.96
63.518 -59.030 3.716 0.00
63.518 -57.014 3.719 0.00
63.518 -54.997 3.721 0.00
63.518 -52.980 3.724 0.00
63.518 -50.963 3.726 0.00
63.518 -48.946 3.725 0.00
63.518 -46.929 3.722 0.00
63.518 -44.912 3.720 0.00
63.518 -42.895 3.723 15.98
64.418 -157.686 3.722 352.61
64.418 -155.603 3.722 107.88
64.418 -153.520 3.706 131.86
64.418 -151.437 3.694 384.18
64.418 -149.355 3.703 573.63
64.418 -147.272 3.721 1718.71
64.418 -145.189 3.734 1579.12
64.418 -143.106 3.719 1338.97
64.418 -141.023 3.724 2555.84
64.418 -138.941 3.719 2299.26
64.418 -136.858 3.672 2936.87
64.418 -134.775 3.682 3451.73
64.418 -132.692 3.746 2620.62
64.418 -130.610 3.896 3735.93
64.418 -128.527 4.091 9324.33
64.418 -126.444 3.988 5327.62
64.418 -124.361 3.919 3860.85
64.418 -122.279 3.881 3976.61
64.418 -120.196 3.879 3189.02
64.418 -118.113 3.864 1785.08
64.418 -116.030 3.894 1532.38
64.418 -113.948 3.965 1367.89
64.418 -111.865 3.983 2090.68
64.418 -109.782 3.940 2798.56
64.418 -107.699 3.894 2110.79
64.418 -105.616 3.880 2110.85
64.418 -103.534 3.858 2107.33
64.418 -101.451 3.816 2267.08
64.418 -99.368 3.802 2352.94
64.418 -97.285 3.781 4239.09
64.418 -95.203 3.800 4804.47
64.418 -93.120 3.802 5006.27
64.418 -91.037 3.759 3160.22
64.418 -88.954 3.760 7314.26
64.418 -86.872 3.879 708.87
64.418 -84.789 3.909 923.33
64.418 -82.706 3.836 875.14
64.418 -80.623 3.731 812.14
64.418 -78.541 3.704 879.07
64.418 -76.458 3.743 868.11
64.418 -74.375 3.785 953.05
64.418 -72.292 3.801 812.19
64.418 -70.210 3.800 347.64
64.418 -68.127 3.782 562.46
64.418 -66.044 3.747 202.15
64.418 -63.961 3.721 37.97
64.418 -61.878 3.710 72.94
64.418 -59.796 3.714 0.00
64.418 -57.713 3.718 0.00
64.418 -55.630 3.718 0.00
64.418 -53.547 3.718 0.00
64.418 -51.465 3.719 0.00
64.418 -49.382 3.720 0.00
64.418 -47.299 3.719 0.00
64.418 -45.216 3.715 0.00
64.418 -43.134 3.709 255.65
64.418 -41.051 3.713 143.83
65.317 -159.670 3.721 0.00
65.317 -157.516 3.724 45.96
65.317 -155.363 3.719 107.89
65.317 -153.209 3.712 119.87
65.317 -151.055 3.716 241.76
65.317 -148.902 3.728 508.68
65.317 -146.748 3.739 745.55
65.317 -144.595 3.740 908.36
65.317 -142.441 3.753 793.68
65.317 -140.287 3.756 1224.47
65.317 -138.134 3.748 2771.11
65.317 -135.980 3.794 1657.62
65.317 -133.826 3.830 2315.82
65.317 -131.673 3.852 3622.70
65.317 -129.519 3.986 4091.84
65.317 -127.365 3.952 1814.75
65.317 -125.212 3.906 1421.36
65.317 -123.058 3.887 1402.05
65.317 -120.905 3.843 1721.78
65.317 -118.751 3.858 1623.53
65.317 -116.597 3.926 1175.96
65.317 -114.444 4.005 1224.93
65.317 -112.290 4.032 1761.82
65.317 -110.136 3.970 1538.41
65.317 -107.983 3.918 1925.00
65.317 -105.829 3.894 2261.67
65.317 -103.675 3.864 1830.14
65.317 -101.522 3.819 1700.33
65.317 -99.368 3.798 2287.58
65.317 -97.215 3.795 2835.08
65.317 -95.061 3.831 4716.06
65.317 -92.907 3.854 5556.05
65.317 -90.754 3.840 2878.30
65.317 -88.600 3.845 914.12
65.317 -86.446 3.917 786.19
65.317 -84.293 3.911 945.02
65.317 -82.139 3.826 664.36
65.317 -79.985 3.721 810.14
65.317 -77.832 3.707 1047.90
65.317 -75.678 3.753 957.03
65.317 -73.525 3.787 1070.91
65.317 -71.371 3.795 483.51
65.317 -69.217 3.794 443.57
65.317 -67.064 3.763 257.75
65.317 -64.910 3.732 81.26
65.317 -62.756 3.713 97.92
65.317 -60.603 3.712 0.00
65.317 -58.449 3.718 0.00
65.317 -56.295 3.719 0.00
65.317 -54.142 3.719 0.00
65.317 -51.988 3.718 0.00
65.317 -49.835 3.718 0.00
65.317 -47.681 3.718 0.00
65.317 -45.527 3.719 0.00
65.317 -43.374 3.718 0.00
65.317 -41.220 3.714 44.96
65.317 -39.066 3.711 145.86
66.216 -161.810 3.709 173.82
66.216 -159.580 3.711 88.91
66.216 -157.350 3.714 93.90
66.216 -155.120 3.714 170.83
66.216 -152.890 3.713 209.78
66.216 -150.660 3.712 293.70
66.216 -148.430 3.713 479.52
66.216 -146.200 3.723 794.26
66.216 -143.970 3.745 872.87
66.216 -141.740 3.770 3069.91
66.216 -139.510 3.801 2386.86
66.216 -137.279 3.863 2333.61
66.216 -135.049 3.885 2121.21
66.216 -132.819 3.815 3061.41
66.216 -130.589 3.917 2067.33
66.216 -128.359 3.913 1502.42
66.216 -126.129 3.915 1528.28
66.216 -123.899 3.888 1069.55
66.216 -121.669 3.884 671.40
66.216 -119.439 3.895 1192.55
66.216 -117.209 3.904 1512.26
66.216 -114.979 3.937 1154.40
66.216 -112.749 3.975 1230.41
66.216 -110.519 3.949 1198.37
66.216 -108.288 3.893 1804.90
66.216 -106.058 3.869 1668.15
66.216 -103.828 3.853 2397.90
66.216 -101.598 3.840 2061.36
66.216 -99.368 3.809 1934.43
66.216 -97.138 3.815 2493.76
66.216 -94.908 3.829 4261.12
66.216 -92.678 3.880 5933.46
66.216 -90.448 3.914 3978.19
66.216 -88.218 3.940 979.83
66.216 -85.988 3.961 901.56
66.216 -83.758 3.914 1024.97
66.216 -81.528 3.821 1000.03
66.216 -79.298 3.720 878.09
66.216 -77.067 3.721 1362.60
66.216 -74.837 3.765 906.08
66.216 -72.607 3.796 843.13
66.216 -70.377 3.799 387.60
66.216 -68.147 3.783 551.48
66.216 -65.917 3.748 206.80
66.216 -63.687 3.725 123.90
66.216 -61.457 3.719 0.00
66.216 -59.227 3.721 0.00
66.216 -56.997 3.724 0.00
66.216 -54.767 3.723 0.00
66.216 -52.537 3.721 0.00
66.216 -50.307 3.719 0.00
66.216 -48.077 3.718 0.00
66.216 -45.846 3.718 0.00
66.216 -43.616 3.719 0.00
66.216 -41.386 3.719 0.00
66.216 -39.156 3.718 0.00
66.216 -36.926 3.716 0.00
67.116 -164.125 3.712 119.89
67.116 -161.812 3.714 0.00
67.116 -159.499 3.717 0.00
67.116 -157.186 3.720 0.00
67.116 -154.874 3.720 34.97
67.116 -152.561 3.719 104.90
67.116 -150.248 3.719 357.18
67.116 -147.935 3.723 584.64
67.116 -145.623 3.736 851.02
67.116 -143.310 3.766 811.79
67.116 -140.997 3.826 1199.79
67.116 -138.685 3.924 1413.19
67.116 -136.372 3.945 928.46
67.116 -134.059 3.883 3397.38
67.116 -131.746 3.931 2377.29
67.116 -129.434 3.929 1059.89
67.116 -127.121 3.898 1057.90
67.116 -124.808 3.902 1005.06
67.116 -122.495 3.912 826.87
67.116 -120.183 3.888 515.46
67.116 -117.870 3.849 483.53
67.116 -115.557 3.829 762.45
67.116 -113.245 3.832 666.65
67.116 -110.932 3.845 853.03
67.116 -108.619 3.844 980.16
67.116 -106.306 3.828 1764.19
67.116 -103.994 3.840 1904.06
67.116 -101.681 3.840 2517.39
67.116 -99.368 3.840 2219.84
67.116 -97.055 3.835 2545.37
67.116 -94.743 3.842 3014.90
67.116 -92.430 3.867 5044.66
67.116 -90.117 3.920 5765.72
67.116 -87.805 3.964 1526.95
67.116 -85.492 3.965 682.32
67.116 -83.179 3.904 882.07
67.116 -80.866 3.804 868.14
67.116 -78.554 3.711 776.17
67.116 -76.241 3.725 1393.58
67.116 -73.928 3.776 1288.70
67.116 -71.615 3.802 741.25
67.116 -69.303 3.796 615.41
67.116 -66.990 3.759 315.70
67.116 -64.677 3.735 187.83
67.116 -62.365 3.726 119.89
67.116 -60.052 3.727 98.91
67.116 -57.739 3.729 95.91
67.116 -55.426 3.729 94.91
67.116 -53.114 3.728 91.91
67.116 -50.801 3.724 60.95
67.116 -48.488 3.721 0.00
67.116 -46.176 3.719 0.00
67.116 -43.863 3.719 0.00
67.116 -41.550 3.718 0.00
67.116 -39.237 3.719 0.00
67.116 -36.925 3.719 0.00
67.116 -34.612 3.719 0.00
68.015 -166.634 3.718 15.99
68.015 -164.232 3.718 69.93
68.015 -161.829 3.718 34.97
68.015 -159.427 3.720 0.00
68.015 -157.025 3.721 0.00
68.015 -154.622 3.723 0.00
68.015 -152.220 3.725 65.94
68.015 -149.818 3.726 183.80
68.015 -147.415 3.727 505.49
68.015 -145.013 3.744 507.13
68.015 -142.611 3.819 1143.29
68.015 -140.208 3.932 1181.21
68.015 -137.806 3.916 676.20
68.015 -135.404 3.888 3593.17
68.015 -133.001 3.891 2101.63
68.015 -130.599 3.881 898.10
68.015 -128.196 3.871 253.73
68.015 -125.794 3.874 243.75
68.015 -123.392 3.859 463.88
68.015 -120.989 3.826 342.20
68.015 -118.587 3.783 303.69
68.015 -116.185 3.746 289.72
68.015 -113.782 3.733 526.48
68.015 -111.380 3.757 601.41
68.015 -108.978 3.799 819.22
68.015 -106.575 3.812 1358.62
68.015 -104.173 3.816 1661.30
68.015 -101.771 3.843 2046.90
68.015 -99.368 3.854 2511.45
68.015 -96.966 3.862 2218.84
68.015 -94.563 3.869 2971.90
68.015 -92.161 3.863 4941.96
68.015 -89.759 3.912 6210.80
68.015 -87.356 3.956 3225.67
68.015 -84.954 3.964 921.04
68.015 -82.552 3.906 1038.93
68.015 -80.149 3.788 1184.81
68.015 -77.747 3.706 765.18
68.015 -75.345 3.725 1251.71
68.015 -72.942 3.768 1095.87
68.015 -70.540 3.789 474.51
68.015 -68.138 3.766 424.60
68.015 -65.735 3.730 102.90
68.015 -63.333 3.719 41.96
68.015 -60.931 3.719 0.00
68.015 -58.528 3.722 0.00
68.015 -56.126 3.723 0.00
68.015 -53.723 3.723 0.00
68.015 -51.321 3.723 0.00
68.015 -48.919 3.721 0.00
68.015 -46.516 3.719 0.00
68.015 -44.114 3.719 0.00
68.015 -41.712 3.718 0.00
68.015 -39.309 3.719 0.00
68.015 -36.907 3.719 0.00
68.015 -34.505 3.720 0.00
68.015 -32.102 3.720 0.00
68.915 -169.364 3.721 0.00
68.915 -166.864 3.721 0.00
68.915 -164.364 3.719 35.97
68.915 -161.865 3.718 69.93
68.915 -159.365 3.719 17.98
68.915 -156.865 3.721 0.00
68.915 -154.365 3.724 0.00
68.915 -151.865 3.726 17.98
