35.638 -117.074 2.835 405.53
35.638 -115.967 2.812 566.43
35.638 -114.861 2.829 546.95
35.638 -113.754 2.849 428.63
35.638 -112.648 2.829 455.54
35.638 -111.541 2.793 768.56
35.638 -110.434 2.813 622.93
35.638 -109.328 2.868 362.95
35.638 -108.221 2.914 231.71
35.638 -107.115 2.936 5.80
35.638 -106.008 2.837 242.39
35.638 -104.901 2.656 1594.03
35.638 -103.795 2.606 8466.35
35.638 -102.688 2.605 15081.16
35.638 -101.581 2.572 12608.46
35.638 -100.475 2.308 6509.79
35.638 -99.368 2.081 13446.55
35.638 -98.262 2.164 19962.21
35.638 -97.155 2.454 38789.07
35.638 -96.048 2.846 40324.61
35.638 -94.942 2.920 23823.99
35.638 -93.835 2.793 21584.91
35.638 -92.729 2.831 20624.75
35.638 -91.622 2.800 18638.77
35.638 -90.515 2.643 9718.70
35.638 -89.409 2.639 14900.37
35.638 -88.302 2.953 19805.44
35.638 -87.195 3.190 12367.11
35.638 -86.089 3.186 11809.84
35.638 -84.982 3.057 13052.89
35.638 -83.876 2.967 19399.10
35.638 -82.769 3.020 26219.73
35.638 -81.662 3.126 30883.87
35.638 -80.556 3.238 33622.56
35.638 -79.449 3.179 20287.53
35.638 -78.343 3.082 19093.05
35.638 -77.236 2.994 5312.56
35.638 -76.129 2.954 24.57
35.638 -75.023 2.936 0.00
35.638 -73.916 2.940 0.00
35.638 -72.809 2.943 0.00
35.638 -71.703 2.943 0.00
35.638 -70.596 2.943 0.00
35.638 -69.490 2.943 0.00
35.638 -68.383 2.943 0.00
36.538 -130.710 2.943 0.00
36.538 -129.591 2.943 0.00
36.538 -128.471 2.943 0.00
36.538 -127.352 2.943 0.00
36.538 -126.233 2.943 0.00
36.538 -125.113 2.943 0.00
36.538 -123.994 2.943 0.00
36.538 -122.875 2.944 0.00
36.538 -121.755 2.947 0.00
36.538 -120.636 2.944 0.00
36.538 -119.516 2.911 113.75
36.538 -118.397 2.859 932.14
36.538 -117.278 2.840 510.77
36.538 -116.158 2.841 300.84
36.538 -115.039 2.840 188.53
36.538 -113.920 2.819 805.66
36.538 -112.800 2.780 1340.84
36.538 -111.681 2.766 1215.59
36.538 -110.562 2.809 746.80
36.538 -109.442 2.879 175.22
36.538 -108.323 2.917 49.01
36.538 -107.204 2.893 135.18
36.538 -106.084 2.765 350.79
36.538 -104.965 2.613 6246.26
36.538 -103.846 2.676 11035.00
36.538 -102.726 2.817 20809.49
36.538 -101.607 2.777 19440.64
36.538 -100.488 2.538 17349.79
36.538 -99.368 2.370 18185.66
36.538 -98.249 2.482 26529.29
36.538 -97.130 2.714 43660.28
36.538 -96.010 2.945 56375.22
36.538 -94.891 3.131 48925.52
36.538 -93.771 3.158 43056.55
36.538 -92.652 3.132 35615.55
36.538 -91.533 3.102 37382.63
36.538 -90.413 3.008 31098.90
36.538 -89.294 2.857 27429.64
36.538 -88.175 2.991 24473.48
36.538 -87.055 3.130 17175.43
36.538 -85.936 3.088 10089.14
36.538 -84.817 2.955 20630.52
36.538 -83.697 2.788 23519.94
36.538 -82.578 2.786 27398.46
36.538 -81.459 2.911 31944.40
36.538 -80.339 3.088 22641.60
36.538 -79.220 3.212 23995.77
36.538 -78.101 3.139 9407.03
36.538 -76.981 3.030 3235.56
36.538 -75.862 2.952 20.89
36.538 -74.743 2.927 0.00
36.538 -73.623 2.939 0.00
36.538 -72.504 2.944 0.00
36.538 -71.384 2.943 0.00
36.538 -70.265 2.943 0.00
36.538 -69.146 2.943 0.00
36.538 -68.026 2.943 0.00
37.437 -131.083 2.943 0.00
37.437 -129.950 2.943 0.00
37.437 -128.817 2.943 0.00
37.437 -127.685 2.943 0.00
37.437 -126.552 2.943 0.00
37.437 -125.419 2.943 0.00
37.437 -124.287 2.943 0.00
37.437 -123.154 2.944 0.00
37.437 -122.021 2.947 0.00
37.437 -120.889 2.934 0.00
37.437 -119.756 2.884 143.31
37.437 -118.623 2.823 1097.62
37.437 -117.491 2.825 265.44
37.437 -116.358 2.828 185.69
37.437 -115.225 2.799 579.48
37.437 -114.093 2.764 703.68
37.437 -112.960 2.746 588.87
37.437 -111.827 2.773 332.54
37.437 -110.695 2.825 213.74
37.437 -109.562 2.883 54.99
37.437 -108.429 2.911 102.21
37.437 -107.297 2.884 340.77
37.437 -106.164 2.768 487.49
37.437 -105.032 2.637 5528.15
37.437 -103.899 2.683 21864.95
37.437 -102.766 2.813 31415.23
37.437 -101.634 2.819 29578.96
37.437 -100.501 2.714 34692.83
37.437 -99.368 2.639 40317.58
37.437 -98.236 2.761 39447.85
37.437 -97.103 2.938 40789.60
37.437 -95.970 3.039 49367.36
37.437 -94.838 3.106 56549.49
37.437 -93.705 3.144 45278.69
37.437 -92.572 3.124 44341.82
37.437 -91.440 3.132 50353.40
37.437 -90.307 3.181 51435.42
37.437 -89.174 3.026 43419.79
37.437 -88.042 2.923 30510.27
37.437 -86.909 2.887 14159.76
37.437 -85.776 2.865 13886.16
37.437 -84.644 2.823 16300.45
37.437 -83.511 2.677 20433.88
37.437 -82.378 2.609 25382.39
37.437 -81.246 2.728 33485.30
37.437 -80.113 2.874 28448.00
37.437 -78.980 3.141 19411.57
37.437 -77.848 3.216 7749.45
37.437 -76.715 3.078 4264.40
37.437 -75.582 2.954 155.99
37.437 -74.450 2.928 0.00
37.437 -73.317 2.937 0.00
37.437 -72.184 2.944 0.00
37.437 -71.052 2.944 0.00
37.437 -69.919 2.943 0.00
37.437 -68.786 2.943 0.00
37.437 -67.654 2.943 0.00
38.336 -131.472 2.943 0.00
38.336 -130.326 2.943 0.00
38.336 -129.179 2.943 0.00
38.336 -128.033 2.943 0.00
38.336 -126.886 2.943 0.00
38.336 -125.740 2.943 0.00
38.336 -124.593 2.943 0.00
38.336 -123.446 2.944 0.00
38.336 -122.300 2.945 0.00
38.336 -121.153 2.928 6.67
38.336 -120.007 2.876 217.66
38.336 -118.860 2.829 326.53
38.336 -117.713 2.822 298.38
38.336 -116.567 2.811 509.43
38.336 -115.420 2.770 450.83
38.336 -114.274 2.712 786.59
38.336 -113.127 2.688 1242.93
38.336 -111.981 2.729 594.49
38.336 -110.834 2.788 292.72
38.336 -109.687 2.854 304.53
38.336 -108.541 2.908 162.10
38.336 -107.394 2.915 137.76
38.336 -106.248 2.836 150.35
38.336 -105.101 2.700 385.14
38.336 -103.955 2.636 2452.12
38.336 -102.808 2.676 7465.23
38.336 -101.661 2.735 10007.98
38.336 -100.515 2.776 18177.70
38.336 -99.368 2.734 35209.80
38.336 -98.222 2.752 29632.01
38.336 -97.075 2.883 29191.29
38.336 -95.928 2.979 30336.74
38.336 -94.782 3.087 36265.46
38.336 -93.635 3.140 48235.67
38.336 -92.489 3.130 41358.69
38.336 -91.342 3.112 54848.33
38.336 -90.196 3.098 51190.57
38.336 -89.049 2.917 46420.18
38.336 -87.902 2.777 25679.51
38.336 -86.756 2.697 17036.07
38.336 -85.609 2.716 20701.86
38.336 -84.463 2.826 20373.80
38.336 -83.316 2.843 18933.59
38.336 -82.170 2.613 29165.14
38.336 -81.023 2.484 30384.06
38.336 -79.876 2.633 23588.88
38.336 -78.730 3.035 13084.46
38.336 -77.583 3.212 5637.38
38.336 -76.437 3.086 2396.08
38.336 -75.290 2.977 379.99
38.336 -74.143 2.935 0.00
38.336 -72.997 2.926 0.00
38.336 -71.850 2.936 0.00
38.336 -70.704 2.943 0.00
38.336 -69.557 2.944 0.00
38.336 -68.411 2.943 0.00
38.336 -67.264 2.943 0.00
39.236 -131.880 2.943 0.00
39.236 -130.719 2.943 0.00
39.236 -129.558 2.943 0.00
39.236 -128.397 2.943 0.00
39.236 -127.235 2.943 0.00
39.236 -126.074 2.943 0.00
39.236 -124.913 2.943 0.00
39.236 -123.752 2.944 0.00
39.236 -122.591 2.944 0.00
39.236 -121.430 2.932 6.65
39.236 -120.269 2.900 223.10
39.236 -119.107 2.884 65.00
39.236 -117.946 2.882 112.05
39.236 -116.785 2.858 28.59
39.236 -115.624 2.768 589.52
39.236 -114.463 2.673 723.37
39.236 -113.302 2.643 259.26
39.236 -112.141 2.668 704.31
39.236 -110.980 2.740 944.56
39.236 -109.818 2.847 212.49
39.236 -108.657 2.922 5.69
39.236 -107.496 2.948 41.52
39.236 -106.335 2.923 111.08
39.236 -105.174 2.826 197.79
39.236 -104.013 2.701 95.86
39.236 -102.852 2.613 1867.97
39.236 -101.690 2.637 2303.28
39.236 -100.529 2.711 4487.71
39.236 -99.368 2.732 18369.67
39.236 -98.207 2.726 16959.09
39.236 -97.046 2.808 15651.16
39.236 -95.885 2.910 15094.18
39.236 -94.724 3.034 19128.42
39.236 -93.563 3.075 37352.04
39.236 -92.401 3.087 43444.65
39.236 -91.240 3.074 49416.01
39.236 -90.079 3.031 32957.08
39.236 -88.918 2.832 36964.59
39.236 -87.757 2.700 30211.82
39.236 -86.596 2.637 16293.31
39.236 -85.435 2.699 18962.84
39.236 -84.273 2.898 25219.90
39.236 -83.112 3.067 26023.06
39.236 -81.951 2.672 27736.66
39.236 -80.790 2.334 18537.50
39.236 -79.629 2.423 12752.18
39.236 -78.468 2.823 8449.82
39.236 -77.307 3.103 4078.59
39.236 -76.145 3.088 3349.65
39.236 -74.984 3.003 583.96
39.236 -73.823 2.966 0.00
39.236 -72.662 2.939 0.00
39.236 -71.501 2.926 0.00
39.236 -70.340 2.934 0.00
39.236 -69.179 2.941 0.00
39.236 -68.018 2.944 0.00
39.236 -66.856 2.943 0.00
40.135 -132.306 2.943 0.00
40.135 -131.130 2.943 0.00
40.135 -129.954 2.943 0.00
40.135 -128.777 2.943 0.00
40.135 -127.601 2.943 0.00
40.135 -126.424 2.943 0.00
40.135 -125.248 2.943 0.00
40.135 -124.072 2.943 0.00
40.135 -122.895 2.942 8.30
40.135 -121.719 2.935 130.13
40.135 -120.543 2.922 175.96
40.135 -119.366 2.923 102.08
40.135 -118.190 2.909 116.06
40.135 -117.014 2.828 324.07
40.135 -115.837 2.684 304.06
40.135 -114.661 2.553 827.77
40.135 -113.484 2.531 1666.77
40.135 -112.308 2.616 1500.34
40.135 -111.132 2.756 50.58
40.135 -109.955 2.873 163.28
40.135 -108.779 2.943 5.82
40.135 -107.603 2.944 43.17
40.135 -106.426 2.939 211.31
40.135 -105.250 2.940 23.08
40.135 -104.074 2.856 10.49
40.135 -102.897 2.719 402.69
40.135 -101.721 2.635 1395.04
40.135 -100.545 2.651 1930.11
40.135 -99.368 2.694 5206.44
40.135 -98.192 2.720 8385.04
40.135 -97.015 2.777 10034.15
40.135 -95.839 2.864 8817.20
40.135 -94.663 2.946 14251.79
40.135 -93.486 3.022 27097.68
40.135 -92.310 3.052 31375.78
40.135 -91.134 3.045 34250.84
40.135 -89.957 2.990 20541.99
40.135 -88.781 2.887 13768.83
40.135 -87.605 2.820 15285.72
40.135 -86.428 2.792 11296.57
40.135 -85.252 2.851 33848.29
40.135 -84.076 3.020 33070.97
40.135 -82.899 3.107 20931.90
40.135 -81.723 2.788 29848.39
40.135 -80.546 2.466 12641.01
40.135 -79.370 2.369 7222.67
40.135 -78.194 2.562 7360.83
40.135 -77.017 2.854 13243.83
40.135 -75.841 2.984 7682.21
40.135 -74.665 3.007 7997.19
40.135 -73.488 3.025 986.62
40.135 -72.312 3.002 0.00
40.135 -71.136 2.949 0.00
40.135 -69.959 2.931 0.00
40.135 -68.783 2.934 0.00
40.135 -67.607 2.941 0.00
40.135 -66.430 2.944 0.00
41.034 -132.752 2.943 0.00
41.034 -131.560 2.943 0.00
41.034 -130.368 2.943 0.00
41.034 -129.175 2.943 0.00
41.034 -127.983 2.943 0.00
41.034 -126.791 2.943 0.00
41.034 -125.598 2.943 0.00
41.034 -124.406 2.943 0.00
41.034 -123.214 2.944 0.24
41.034 -122.022 2.940 4.22
41.034 -120.829 2.931 79.43
41.034 -119.637 2.914 32.04
41.034 -118.445 2.849 97.13
41.034 -117.252 2.702 592.54
41.034 -116.060 2.525 1292.12
41.034 -114.868 2.411 3793.89
41.034 -113.676 2.476 1391.80
41.034 -112.483 2.616 252.75
41.034 -111.291 2.716 296.94
41.034 -110.099 2.830 174.36
41.034 -108.906 2.921 8.36
41.034 -107.714 2.925 3.12
41.034 -106.522 2.911 154.34
41.034 -105.330 2.953 63.89
41.034 -104.137 2.950 5.25
41.034 -102.945 2.856 0.00
41.034 -101.753 2.725 728.04
41.034 -100.560 2.644 1038.33
41.034 -99.368 2.660 2594.57
41.034 -98.176 2.759 8079.21
41.034 -96.984 2.808 8834.81
41.034 -95.791 2.770 8538.36
41.034 -94.599 2.778 11818.26
41.034 -93.407 2.895 15717.52
41.034 -92.215 2.991 26694.09
41.034 -91.022 3.005 22948.27
41.034 -89.830 2.954 18101.20
41.034 -88.638 2.939 18986.77
41.034 -87.445 2.967 15202.63
41.034 -86.253 2.997 16643.17
41.034 -85.061 3.003 28559.01
41.034 -83.869 3.117 22502.35
41.034 -82.676 3.156 22980.72
41.034 -81.484 2.939 20749.08
41.034 -80.292 2.723 19063.18
41.034 -79.099 2.512 9740.67
41.034 -77.907 2.479 4650.94
41.034 -76.715 2.604 8219.37
41.034 -75.523 2.799 13871.00
41.034 -74.330 3.002 10710.23
41.034 -73.138 3.109 10292.93
41.034 -71.946 3.089 2004.01
41.034 -70.753 3.008 338.76
41.034 -69.561 2.956 0.00
41.034 -68.369 2.933 0.00
41.034 -67.177 2.937 0.00
41.034 -65.984 2.943 0.00
41.934 -133.219 2.943 0.00
41.934 -132.010 2.943 0.00
41.934 -130.801 2.943 0.00
41.934 -129.592 2.943 0.00
41.934 -128.383 2.943 0.00
41.934 -127.174 2.943 0.00
41.934 -125.965 2.943 0.00
41.934 -124.756 2.943 0.00
41.934 -123.547 2.944 0.00
41.934 -122.338 2.943 0.74
41.934 -121.129 2.928 2.57
41.934 -119.920 2.874 328.89
41.934 -118.711 2.767 391.82
41.934 -117.502 2.607 1040.47
41.934 -116.293 2.460 2048.38
41.934 -115.085 2.418 2156.62
41.934 -113.876 2.491 1433.91
41.934 -112.667 2.577 857.80
41.934 -111.458 2.580 1477.57
41.934 -110.249 2.678 400.68
41.934 -109.040 2.817 208.50
41.934 -107.831 2.881 82.53
41.934 -106.622 2.891 114.99
41.934 -105.413 2.934 0.00
41.934 -104.204 2.963 5.19
41.934 -102.995 2.921 0.00
41.934 -101.786 2.806 196.87
41.934 -100.577 2.672 713.12
41.934 -99.368 2.649 8300.66
41.934 -98.159 2.805 7012.70
41.934 -96.950 2.937 11767.49
41.934 -95.741 2.873 11668.95
41.934 -94.532 2.759 12007.78
41.934 -93.323 2.716 9006.56
41.934 -92.115 2.897 14754.71
41.934 -90.906 3.004 36338.61
41.934 -89.697 2.985 18219.51
41.934 -88.488 2.976 24395.56
41.934 -87.279 3.011 34024.38
41.934 -86.070 3.000 33366.66
41.934 -84.861 2.977 27762.70
41.934 -83.652 3.086 25134.62
41.934 -82.443 3.162 32779.06
41.934 -81.234 3.100 23364.90
41.934 -80.025 3.054 22675.12
41.934 -78.816 2.917 29752.58
41.934 -77.607 2.728 17027.19
41.934 -76.398 2.674 10402.51
41.934 -75.189 2.797 15113.79
41.934 -73.980 2.978 17054.30
41.934 -72.771 3.121 13913.16
41.934 -71.562 3.145 15419.86
41.934 -70.353 3.073 15818.83
41.934 -69.145 3.005 221.90
41.934 -67.936 2.943 0.00
41.934 -66.727 2.930 0.00
41.934 -65.518 2.941 0.00
42.833 -133.707 2.944 0.00
42.833 -132.481 2.943 0.00
42.833 -131.254 2.943 0.00
42.833 -130.028 2.943 0.00
42.833 -128.802 2.943 0.00
42.833 -127.575 2.943 0.00
42.833 -126.349 2.943 0.00
42.833 -125.122 2.943 0.00
42.833 -123.896 2.945 0.00
42.833 -122.670 2.947 0.00
42.833 -121.443 2.933 0.00
42.833 -120.217 2.876 64.34
42.833 -118.990 2.767 322.84
42.833 -117.764 2.643 959.35
42.833 -116.538 2.561 733.10
42.833 -115.311 2.531 1543.31
42.833 -114.085 2.565 1112.98
42.833 -112.858 2.579 996.16
42.833 -111.632 2.534 1887.76
42.833 -110.406 2.604 1212.99
42.833 -109.179 2.769 166.29
42.833 -107.953 2.850 238.89
42.833 -106.727 2.882 222.01
42.833 -105.500 2.924 60.31
42.833 -104.274 2.951 65.54
42.833 -103.047 2.946 59.28
42.833 -101.821 2.874 106.69
42.833 -100.595 2.746 539.90
42.833 -99.368 2.710 4416.61
42.833 -98.142 2.898 11200.57
42.833 -96.915 3.117 12958.19
42.833 -95.689 3.066 16228.50
42.833 -94.463 2.845 11396.19
42.833 -93.236 2.674 8410.27
42.833 -92.010 2.859 7105.44
42.833 -90.783 3.075 30073.36
42.833 -89.557 3.103 23767.85
42.833 -88.331 3.060 19320.02
42.833 -87.104 3.015 35346.88
42.833 -85.878 2.850 30559.81
42.833 -84.652 2.741 31793.76
42.833 -83.425 2.928 35825.14
42.833 -82.199 3.134 34613.77
42.833 -80.972 3.146 35933.02
42.833 -79.746 3.205 27047.98
42.833 -78.520 3.174 31615.82
42.833 -77.293 3.060 43165.44
42.833 -76.067 2.986 36946.50
42.833 -74.840 3.046 27010.36
42.833 -73.614 3.090 26504.41
42.833 -72.388 3.120 22406.15
42.833 -71.161 3.141 16526.77
42.833 -69.935 3.137 5999.84
42.833 -68.708 3.073 609.69
42.833 -67.482 2.979 0.00
42.833 -66.256 2.932 0.00
42.833 -65.029 2.934 0.00
43.732 -134.219 2.944 0.00
43.732 -132.974 2.944 0.00
43.732 -131.729 2.943 0.00
43.732 -130.485 2.943 0.00
43.732 -129.240 2.943 0.00
43.732 -127.995 2.943 0.00
43.732 -126.751 2.943 0.00
43.732 -125.506 2.943 0.00
43.732 -124.261 2.944 0.00
43.732 -123.017 2.947 0.00
43.732 -121.772 2.943 0.00
43.732 -120.527 2.909 28.43
43.732 -119.283 2.840 295.93
43.732 -118.038 2.778 389.06
43.732 -116.793 2.735 151.71
43.732 -115.549 2.685 979.89
43.732 -114.304 2.669 1204.31
43.732 -113.059 2.647 527.45
43.732 -111.815 2.609 1284.57
43.732 -110.570 2.677 1108.64
43.732 -109.325 2.803 203.32
43.732 -108.081 2.860 156.29
43.732 -106.836 2.899 18.33
43.732 -105.591 2.932 14.94
43.732 -104.347 2.947 46.33
43.732 -103.102 2.951 130.60
43.732 -101.858 2.927 130.36
43.732 -100.613 2.853 208.69
43.732 -99.368 2.829 5059.79
43.732 -98.124 2.967 10062.92
43.732 -96.879 3.152 18670.71
43.732 -95.634 3.111 15304.70
43.732 -94.390 2.905 19554.44
43.732 -93.145 2.663 8664.47
43.732 -91.900 2.850 7521.57
43.732 -90.656 3.189 31216.99
43.732 -89.411 3.215 28923.15
43.732 -88.166 3.146 30089.43
43.732 -86.922 2.959 28537.97
43.732 -85.677 2.569 58487.49
43.732 -84.432 2.384 36422.92
43.732 -83.188 2.610 31090.25
43.732 -81.943 2.980 31076.03
43.732 -80.698 3.086 50931.83
43.732 -79.454 3.142 48125.48
43.732 -78.209 3.206 40884.50
43.732 -76.964 3.177 43210.25
43.732 -75.720 3.189 46390.26
43.732 -74.475 3.239 51236.13
43.732 -73.230 3.192 45472.83
43.732 -71.986 3.110 30546.35
43.732 -70.741 3.098 25938.41
43.732 -69.496 3.138 13263.62
43.732 -68.252 3.104 2244.56
43.732 -67.007 2.992 0.00
43.732 -65.763 2.939 0.00
43.732 -64.518 2.934 0.00
44.632 -134.754 2.942 0.00
44.632 -133.490 2.943 0.00
44.632 -132.227 2.943 0.00
44.632 -130.963 2.943 0.00
44.632 -129.699 2.943 0.00
44.632 -128.435 2.943 0.00
44.632 -127.172 2.943 0.00
44.632 -125.908 2.943 0.00
44.632 -124.644 2.943 0.00
44.632 -123.380 2.946 0.00
44.632 -122.116 2.949 0.00
44.632 -120.853 2.940 1.77
44.632 -119.589 2.913 19.52
44.632 -118.325 2.882 116.59
44.632 -117.061 2.838 405.07
44.632 -115.797 2.772 797.49
44.632 -114.534 2.724 716.23
44.632 -113.270 2.691 846.21
44.632 -112.006 2.699 1240.91
44.632 -110.742 2.799 290.92
44.632 -109.479 2.877 102.56
44.632 -108.215 2.881 167.35
44.632 -106.951 2.900 18.41
44.632 -105.687 2.930 10.41
44.632 -104.423 2.944 5.98
44.632 -103.160 2.948 0.00
44.632 -101.896 2.947 0.00
44.632 -100.632 2.920 0.00
44.632 -99.368 2.909 1567.59
44.632 -98.104 3.002 8054.13
44.632 -96.841 3.104 13971.07
44.632 -95.577 3.124 16071.15
44.632 -94.313 2.909 10859.00
44.632 -93.049 2.713 9401.10
44.632 -91.785 2.878 7606.85
44.632 -90.522 3.231 21453.18
44.632 -89.258 3.261 28609.10
44.632 -87.994 3.194 25523.74
44.632 -86.730 3.078 24423.79
44.632 -85.467 2.787 33297.36
44.632 -84.203 2.645 39943.64
44.632 -82.939 2.776 23504.52
44.632 -81.675 3.017 21630.73
44.632 -80.411 3.140 27962.47
44.632 -79.148 3.161 41275.95
44.632 -77.884 3.211 46940.88
44.632 -76.620 3.225 42060.88
44.632 -75.356 3.234 44844.22
44.632 -74.092 3.187 46305.69
44.632 -72.829 3.131 38460.24
44.632 -71.565 3.077 25211.38
44.632 -70.301 3.130 25795.52
44.632 -69.037 3.165 16922.21
44.632 -67.773 3.096 15941.75
44.632 -66.510 2.978 185.91
44.632 -65.246 2.927 187.90
44.632 -63.982 2.927 150.27
45.531 -135.316 2.939 0.00
45.531 -134.032 2.941 0.00
45.531 -132.748 2.943 0.00
45.531 -131.464 2.943 0.00
45.531 -130.180 2.943 0.00
45.531 -128.897 2.943 0.00
45.531 -127.613 2.943 0.00
45.531 -126.329 2.943 0.00
45.531 -125.045 2.943 0.00
45.531 -123.761 2.944 0.00
45.531 -122.477 2.946 0.00
45.531 -121.193 2.943 3.01
45.531 -119.910 2.930 0.00
45.531 -118.626 2.913 2.25
45.531 -117.342 2.878 39.11
45.531 -116.058 2.802 535.78
45.531 -114.774 2.737 957.10
45.531 -113.490 2.708 901.73
45.531 -112.207 2.756 1411.10
45.531 -110.923 2.871 70.62
45.531 -109.639 2.930 11.58
45.531 -108.355 2.913 28.10
45.531 -107.071 2.893 138.58
45.531 -105.787 2.918 0.00
45.531 -104.504 2.937 0.00
45.531 -103.220 2.943 0.00
45.531 -101.936 2.944 0.00
45.531 -100.652 2.945 0.00
45.531 -99.368 2.971 1567.90
45.531 -98.084 3.044 5786.87
45.531 -96.801 3.132 10716.59
45.531 -95.517 3.179 17367.60
45.531 -94.233 3.056 11442.19
45.531 -92.949 2.886 11707.69
45.531 -91.665 2.949 16631.70
45.531 -90.381 3.169 14676.90
45.531 -89.097 3.259 23279.04
45.531 -87.814 3.178 18855.35
45.531 -86.530 3.019 16553.50
45.531 -85.246 2.928 18766.53
45.531 -83.962 3.002 28937.98
45.531 -82.678 3.131 40368.42
45.531 -81.394 3.195 22165.52
45.531 -80.111 3.227 25485.77
45.531 -78.827 3.221 33662.18
45.531 -77.543 3.216 47738.73
45.531 -76.259 3.220 47485.71
45.531 -74.975 3.223 33852.44
45.531 -73.691 3.098 33365.59
45.531 -72.408 2.960 26223.46
45.531 -71.124 3.025 20645.06
45.531 -69.840 3.177 22333.76
45.531 -68.556 3.197 11171.20
45.531 -67.272 3.074 2547.14
45.531 -65.988 2.965 323.17
45.531 -64.705 2.921 176.12
45.531 -63.421 2.922 95.91
46.431 -135.904 2.936 94.91
46.431 -134.600 2.938 4.35
46.431 -133.295 2.942 0.00
46.431 -131.990 2.943 0.00
46.431 -130.685 2.943 0.00
46.431 -129.380 2.943 0.00
46.431 -128.075 2.943 0.00
46.431 -126.770 2.943 0.00
46.431 -125.466 2.943 0.00
46.431 -124.161 2.943 0.00
46.431 -122.856 2.939 0.00
46.431 -121.551 2.927 69.89
46.431 -120.246 2.908 124.46
46.431 -118.941 2.889 354.27
46.431 -117.636 2.870 326.21
46.431 -116.331 2.826 361.53
46.431 -115.027 2.773 800.20
46.431 -113.722 2.757 1928.36
46.431 -112.417 2.819 568.10
46.431 -111.112 2.911 134.79
46.431 -109.807 2.950 6.66
46.431 -108.502 2.935 6.87
46.431 -107.197 2.916 10.78
46.431 -105.893 2.917 66.37
46.431 -104.588 2.935 0.00
46.431 -103.283 2.941 0.00
46.431 -101.978 2.938 0.00
46.431 -100.673 2.942 0.00
46.431 -99.368 2.987 164.12
46.431 -98.063 3.090 3873.84
46.431 -96.758 3.193 9283.52
46.431 -95.454 3.201 11850.90
46.431 -94.149 3.187 7995.91
46.431 -92.844 3.034 5598.88
46.431 -91.539 2.944 3023.54
46.431 -90.234 2.970 3910.47
46.431 -88.929 2.982 5303.84
46.431 -87.624 2.932 10048.31
46.431 -86.320 2.802 10236.82
46.431 -85.015 2.762 17365.48
46.431 -83.710 2.995 17456.94
46.431 -82.405 3.272 18691.18
46.431 -81.100 3.293 18286.16
46.431 -79.795 3.219 27488.91
46.431 -78.490 3.181 29547.76
46.431 -77.185 3.188 29044.21
46.431 -75.881 3.219 26664.89
46.431 -74.576 3.239 26749.51
46.431 -73.271 3.128 30387.56
46.431 -71.966 2.884 20133.20
46.431 -70.661 2.901 13124.13
46.431 -69.356 3.076 12888.52
46.431 -68.051 3.178 13141.39
46.431 -66.747 3.048 93.11
46.431 -65.442 2.950 89.10
46.431 -64.137 2.924 0.00
46.431 -62.832 2.933 0.00
47.330 -136.522 2.941 0.00
47.330 -135.195 2.942 0.00
47.330 -133.868 2.943 0.00
47.330 -132.541 2.943 0.00
47.330 -131.214 2.943 0.00
47.330 -129.887 2.943 0.00
47.330 -128.561 2.943 0.00
47.330 -127.234 2.943 0.00
47.330 -125.907 2.943 0.00
47.330 -124.580 2.943 0.00
47.330 -123.253 2.941 0.00
47.330 -121.926 2.932 139.96
47.330 -120.599 2.916 272.76
47.330 -119.272 2.905 202.95
47.330 -117.945 2.901 113.11
47.330 -116.618 2.886 177.38
47.330 -115.291 2.861 288.91
47.330 -113.964 2.858 318.28
47.330 -112.637 2.896 64.32
47.330 -111.311 2.942 5.87
47.330 -109.984 2.954 20.58
47.330 -108.657 2.945 0.00
47.330 -107.330 2.936 0.00
47.330 -106.003 2.934 0.67
47.330 -104.676 2.941 1.39
47.330 -103.349 2.942 0.00
47.330 -102.022 2.936 0.00
47.330 -100.695 2.935 0.00
47.330 -99.368 2.981 16.12
47.330 -98.041 3.100 4019.73
47.330 -96.714 3.231 7645.30
47.330 -95.387 3.257 10290.50
47.330 -94.061 3.295 9232.85
47.330 -92.734 3.180 5211.74
47.330 -91.407 3.004 2832.38
47.330 -90.080 2.904 824.40
47.330 -88.753 2.824 3170.76
47.330 -87.426 2.836 764.12
47.330 -86.099 2.820 279.66
47.330 -84.772 2.841 375.31
47.330 -83.445 2.994 1157.87
47.330 -82.118 3.182 2955.46
47.330 -80.791 3.239 3672.55
47.330 -79.464 3.249 5247.95
47.330 -78.137 3.229 7120.11
47.330 -76.811 3.195 16409.62
47.330 -75.484 3.168 11553.10
47.330 -74.157 3.178 9252.94
47.330 -72.830 3.144 9217.97
47.330 -71.503 3.014 8713.91
47.330 -70.176 2.958 7536.44
47.330 -68.849 2.997 1716.70
47.330 -67.522 3.027 399.47
47.330 -66.195 2.972 66.94
47.330 -64.868 2.932 0.00
47.330 -63.541 2.932 0.00
47.330 -62.214 2.942 0.00
48.229 -137.170 2.943 0.00
48.229 -135.820 2.943 0.00
48.229 -134.470 2.943 0.00
48.229 -133.120 2.943 0.00
48.229 -131.770 2.943 0.00
48.229 -130.420 2.943 0.00
48.229 -129.070 2.943 0.00
48.229 -127.720 2.943 0.00
48.229 -126.370 2.943 0.00
48.229 -125.020 2.944 0.00
48.229 -123.670 2.944 0.00
48.229 -122.320 2.942 0.00
48.229 -120.969 2.937 164.95
48.229 -119.619 2.932 61.98
48.229 -118.269 2.929 106.09
48.229 -116.919 2.924 261.86
48.229 -115.569 2.915 82.98
48.229 -114.219 2.914 257.06
48.229 -112.869 2.934 23.71
48.229 -111.519 2.949 0.00
48.229 -110.169 2.948 7.07
48.229 -108.819 2.945 0.00
48.229 -107.469 2.943 0.00
48.229 -106.119 2.942 0.00
48.229 -104.769 2.944 0.93
48.229 -103.418 2.943 1.17
48.229 -102.068 2.937 0.00
48.229 -100.718 2.937 0.00
48.229 -99.368 2.972 0.00
48.229 -98.018 3.071 2722.56
48.229 -96.668 3.214 5685.68
48.229 -95.318 3.253 9761.80
48.229 -93.968 3.267 10648.62
48.229 -92.618 3.201 3240.40
48.229 -91.268 3.068 2344.62
48.229 -89.918 2.946 1426.51
48.229 -88.568 2.876 686.65
48.229 -87.217 2.894 0.00
48.229 -85.867 2.920 100.88
48.229 -84.517 2.948 133.87
48.229 -83.167 2.985 211.83
48.229 -81.817 3.059 129.17
48.229 -80.467 3.113 379.13
48.229 -79.117 3.146 441.80
48.229 -77.767 3.183 248.08
48.229 -76.417 3.187 376.68
48.229 -75.067 3.150 431.79
48.229 -73.717 3.149 552.66
48.229 -72.367 3.133 348.08
48.229 -71.017 3.077 563.23
48.229 -69.666 3.007 239.62
48.229 -68.316 2.971 1.10
48.229 -66.966 2.954 5.06
48.229 -65.616 2.936 0.00
48.229 -64.266 2.931 0.00
48.229 -62.916 2.941 0.00
48.229 -61.566 2.945 0.00
49.129 -137.851 2.943 0.00
49.129 -136.477 2.943 0.00
49.129 -135.103 2.943 0.00
49.129 -133.728 2.943 0.00
49.129 -132.354 2.943 0.00
49.129 -130.979 2.943 0.00
49.129 -129.605 2.943 0.00
49.129 -128.231 2.943 0.00
49.129 -126.856 2.943 0.00
49.129 -125.482 2.943 0.00
49.129 -124.107 2.944 0.00
49.129 -122.733 2.945 0.00
49.129 -121.359 2.945 0.00
49.129 -119.984 2.945 204.20
49.129 -118.610 2.943 6.94
49.129 -117.235 2.940 0.00
49.129 -115.861 2.933 27.99
49.129 -114.487 2.930 193.42
49.129 -113.112 2.939 6.52
49.129 -111.738 2.945 0.00
49.129 -110.363 2.943 0.00
49.129 -108.989 2.943 0.00
49.129 -107.615 2.944 0.00
49.129 -106.240 2.943 0.00
49.129 -104.866 2.944 0.00
49.129 -103.491 2.943 0.59
49.129 -102.117 2.940 0.00
49.129 -100.743 2.938 0.00
49.129 -99.368 2.953 0.00
49.129 -97.994 3.010 2512.21
49.129 -96.619 3.118 2174.14
49.129 -95.245 3.156 3379.72
49.129 -93.871 3.142 211.15
49.129 -92.496 3.095 0.00
49.129 -91.122 3.020 0.00
49.129 -89.747 2.964 232.81
49.129 -88.373 2.945 74.96
49.129 -86.999 2.961 0.00
49.129 -85.624 2.986 100.88
49.129 -84.250 3.001 200.79
49.129 -82.875 2.997 355.91
49.129 -81.501 3.019 214.81
49.129 -80.127 3.052 467.61
49.129 -78.752 3.062 380.67
49.129 -77.378 3.090 393.63
49.129 -76.003 3.074 440.61
49.129 -74.629 3.027 215.94
49.129 -73.255 3.013 122.09
49.129 -71.880 3.012 82.94
49.129 -70.506 3.006 116.47
49.129 -69.131 2.972 128.28
49.129 -67.757 2.945 102.61
49.129 -66.383 2.934 0.00
49.129 -65.008 2.935 0.00
49.129 -63.634 2.940 0.00
49.129 -62.259 2.944 0.00
49.129 -60.885 2.944 0.00
50.028 -138.567 2.943 0.00
50.028 -137.167 2.943 0.00
50.028 -135.767 2.943 0.00
50.028 -134.367 2.943 0.00
50.028 -132.967 2.943 0.00
50.028 -131.567 2.943 0.00
50.028 -130.167 2.943 0.00
50.028 -128.767 2.943 0.00
50.028 -127.368 2.943 0.00
50.028 -125.968 2.943 0.00
50.028 -124.568 2.943 1.99
50.028 -123.168 2.943 6.00
50.028 -121.768 2.944 6.20
50.028 -120.368 2.946 13.14
50.028 -118.968 2.946 112.95
50.028 -117.568 2.945 0.00
50.028 -116.168 2.941 0.00
50.028 -114.768 2.938 0.00
50.028 -113.368 2.941 2.90
50.028 -111.968 2.943 0.00
50.028 -110.568 2.943 0.00
50.028 -109.168 2.943 0.00
50.028 -107.768 2.943 0.00
50.028 -106.368 2.943 0.00
50.028 -104.968 2.943 0.00
50.028 -103.568 2.943 0.00
50.028 -102.168 2.942 0.00
50.028 -100.768 2.940 0.00
50.028 -99.368 2.942 0.00
50.028 -97.968 2.955 0.00
50.028 -96.568 2.996 2.30
50.028 -95.168 3.017 186.03
50.028 -93.768 3.006 99.89
50.028 -92.368 2.980 99.89
50.028 -90.968 2.966 99.89
50.028 -89.568 2.975 407.67
50.028 -88.168 2.985 98.90
50.028 -86.769 3.001 193.80
50.028 -85.369 3.019 363.60
50.028 -83.969 3.017 142.85
50.028 -82.569 3.014 97.90
50.028 -81.169 3.028 321.74
50.028 -79.769 3.025 165.51
50.028 -78.369 3.024 112.93
50.028 -76.969 3.032 361.68
50.028 -75.569 2.994 0.00
50.028 -74.169 2.959 52.42
50.028 -72.769 2.952 157.03
50.028 -71.369 2.952 0.00
50.028 -69.969 2.957 126.76
50.028 -68.569 2.946 13.28
50.028 -67.169 2.938 0.00
50.028 -65.769 2.939 0.00
50.028 -64.369 2.942 0.00
50.028 -62.969 2.944 0.00
50.028 -61.569 2.944 0.00
50.028 -60.169 2.943 0.00
50.927 -139.320 2.943 0.00
50.927 -137.893 2.943 0.00
50.927 -136.466 2.943 0.00
50.927 -135.040 2.943 0.00
50.927 -133.613 2.943 0.00
50.927 -132.186 2.943 0.00
50.927 -130.759 2.943 0.00
50.927 -129.332 2.943 0.00
50.927 -127.905 2.943 0.00
50.927 -126.478 2.943 0.00
50.927 -125.052 2.943 0.00
50.927 -123.625 2.943 6.08
50.927 -122.198 2.943 4.69
50.927 -120.771 2.944 0.00
50.927 -119.344 2.945 27.99
50.927 -117.917 2.945 59.28
50.927 -116.490 2.944 0.00
50.927 -115.064 2.942 0.00
50.927 -113.637 2.943 2.90
50.927 -112.210 2.943 0.00
50.927 -110.783 2.943 0.00
50.927 -109.356 2.943 0.00
50.927 -107.929 2.943 0.00
50.927 -106.502 2.943 0.00
50.927 -105.076 2.943 0.00
50.927 -103.649 2.943 0.00
50.927 -102.222 2.943 0.00
50.927 -100.795 2.941 0.00
50.927 -99.368 2.939 0.00
50.927 -97.941 2.937 0.00
50.927 -96.514 2.941 0.00
50.927 -95.088 2.943 0.00
50.927 -93.661 2.942 0.00
50.927 -92.234 2.936 0.00
50.927 -90.807 2.947 162.86
50.927 -89.380 2.966 246.79
50.927 -87.953 2.973 104.89
50.927 -86.526 2.981 9.99
50.927 -85.100 2.998 200.78
50.927 -83.673 2.998 0.00
50.927 -82.246 3.003 142.91
50.927 -80.819 3.008 254.26
50.927 -79.392 3.007 102.94
50.927 -77.965 3.021 172.86
50.927 -76.538 3.003 141.85
50.927 -75.112 2.965 26.02
50.927 -73.685 2.945 18.83
50.927 -72.258 2.954 62.18
50.927 -70.831 2.963 65.94
50.927 -69.404 2.960 127.76
50.927 -67.977 2.947 13.28
50.927 -66.550 2.942 0.00
50.927 -65.124 2.943 0.00
50.927 -63.697 2.943 0.00
50.927 -62.270 2.943 0.00
50.927 -60.843 2.943 0.00
50.927 -59.416 2.943 0.00
51.827 -140.113 2.943 0.00
51.827 -138.658 2.943 0.00
51.827 -137.203 2.943 0.00
51.827 -135.747 2.943 0.00
51.827 -134.292 2.943 0.00
51.827 -132.837 2.943 0.00
51.827 -131.382 2.943 0.00
51.827 -129.927 2.943 0.00
51.827 -128.472 2.943 0.00
51.827 -127.016 2.943 0.00
51.827 -125.561 2.943 0.00
51.827 -124.106 2.943 0.00
51.827 -122.651 2.943 8.23
51.827 -121.196 2.943 0.00
51.827 -119.741 2.943 0.00
51.827 -118.285 2.943 2.85
51.827 -116.830 2.943 0.00
51.827 -115.375 2.943 0.00
51.827 -113.920 2.943 1.59
51.827 -112.465 2.943 1.30
51.827 -111.010 2.943 0.00
51.827 -109.554 2.942 0.00
51.827 -108.099 2.943 0.00
51.827 -106.644 2.943 0.00
51.827 -105.189 2.943 0.00
51.827 -103.734 2.943 0.00
51.827 -102.279 2.943 0.00
51.827 -100.823 2.943 0.00
51.827 -99.368 2.941 0.00
51.827 -97.913 2.939 0.00
51.827 -96.458 2.937 0.00
51.827 -95.003 2.937 0.00
51.827 -93.548 2.938 0.00
51.827 -92.092 2.937 0.00
51.827 -90.637 2.939 240.48
51.827 -89.182 2.945 4.00
51.827 -87.727 2.950 0.00
51.827 -86.272 2.964 54.94
51.827 -84.817 2.988 146.84
51.827 -83.361 2.991 139.91
51.827 -81.906 2.993 185.88
51.827 -80.451 2.996 26.98
51.827 -78.996 3.010 49.97
51.827 -77.541 3.018 270.99
51.827 -76.085 2.982 28.78
51.827 -74.630 2.948 2.77
51.827 -73.175 2.941 11.11
51.827 -71.720 2.956 0.00
51.827 -70.265 2.975 131.45
51.827 -68.810 2.968 129.15
51.827 -67.354 2.949 1.55
51.827 -65.899 2.942 0.00
51.827 -64.444 2.942 0.00
51.827 -62.989 2.943 0.00
51.827 -61.534 2.943 0.00
51.827 -60.079 2.943 0.00
51.827 -58.623 2.943 0.00
52.726 -140.948 2.943 0.00
52.726 -139.463 2.943 0.00
52.726 -137.978 2.943 0.00
52.726 -136.493 2.943 0.00
52.726 -135.008 2.943 0.00
52.726 -133.523 2.943 0.00
52.726 -132.038 2.943 0.00
52.726 -130.553 2.943 0.00
52.726 -129.068 2.943 0.00
52.726 -127.583 2.943 0.00
52.726 -126.098 2.943 0.00
52.726 -124.613 2.943 0.00
52.726 -123.128 2.943 1.62
52.726 -121.643 2.943 6.61
52.726 -120.158 2.943 0.00
52.726 -118.673 2.943 2.85
52.726 -117.188 2.943 0.00
52.726 -115.703 2.943 0.00
52.726 -114.218 2.944 0.00
52.726 -112.733 2.946 2.90
52.726 -111.248 2.945 0.00
52.726 -109.763 2.943 0.00
52.726 -108.278 2.942 0.00
52.726 -106.793 2.943 0.00
52.726 -105.308 2.943 0.00
52.726 -103.823 2.943 0.00
52.726 -102.338 2.943 0.00
52.726 -100.853 2.943 0.00
52.726 -99.368 2.943 0.00
52.726 -97.883 2.943 0.00
52.726 -96.398 2.942 0.00
52.726 -94.913 2.942 0.00
52.726 -93.428 2.942 0.00
52.726 -91.943 2.941 0.00
52.726 -90.458 2.937 74.86
52.726 -88.973 2.940 0.00
52.726 -87.488 2.951 0.00
52.726 -86.003 2.974 127.85
52.726 -84.518 2.992 163.85
52.726 -83.033 2.988 114.04
52.726 -81.548 2.991 102.92
52.726 -80.063 3.003 0.00
52.726 -78.578 3.021 224.92
52.726 -77.093 3.000 130.69
52.726 -75.608 2.962 0.00
52.726 -74.123 2.940 7.66
52.726 -72.638 2.940 3.45
52.726 -71.153 2.955 0.00
52.726 -69.668 2.977 143.67
52.726 -68.183 2.972 120.40
52.726 -66.698 2.950 0.00
52.726 -65.213 2.941 0.00
52.726 -63.728 2.942 0.00
52.726 -62.243 2.943 0.00
52.726 -60.758 2.943 0.00
52.726 -59.273 2.943 0.00
52.726 -57.788 2.943 0.00
53.625 -141.829 2.943 0.00
53.625 -140.313 2.943 0.00
53.625 -138.796 2.943 0.00
53.625 -137.280 2.943 0.00
53.625 -135.763 2.943 0.00
53.625 -134.247 2.943 0.00
53.625 -132.730 2.943 0.00
53.625 -131.214 2.943 0.00
53.625 -129.697 2.943 0.00
53.625 -128.181 2.943 0.00
53.625 -126.665 2.943 0.00
53.625 -125.148 2.943 0.00
53.625 -123.632 2.943 0.00
53.625 -122.115 2.943 5.31
53.625 -120.599 2.943 2.92
53.625 -119.082 2.943 2.85
53.625 -117.566 2.943 0.00
53.625 -116.049 2.943 0.00
53.625 -114.533 2.946 0.00
53.625 -113.016 2.951 105.30
53.625 -111.500 2.951 14.99
53.625 -109.983 2.946 0.00
53.625 -108.467 2.943 0.00
53.625 -106.951 2.942 0.00
53.625 -105.434 2.943 0.00
53.625 -103.918 2.943 0.00
53.625 -102.401 2.943 0.00
53.625 -100.885 2.943 0.00
53.625 -99.368 2.943 0.00
53.625 -97.852 2.943 0.00
53.625 -96.335 2.943 0.00
53.625 -94.819 2.943 0.00
53.625 -93.302 2.943 0.00
53.625 -91.786 2.941 0.00
53.625 -90.269 2.940 0.00
53.625 -88.753 2.947 0.00
53.625 -87.237 2.966 0.00
53.625 -85.720 2.992 295.70
53.625 -84.204 2.986 35.97
53.625 -82.687 2.983 63.95
53.625 -81.171 2.996 49.49
53.625 -79.654 3.017 153.24
53.625 -78.138 3.011 155.55
53.625 -76.621 2.976 35.96
53.625 -75.105 2.947 0.54
53.625 -73.588 2.938 10.57
53.625 -72.072 2.940 0.00
53.625 -70.555 2.952 0.00
53.625 -69.039 2.973 114.69
53.625 -67.523 2.975 151.24
53.625 -66.006 2.953 0.00
53.625 -64.490 2.943 0.00
53.625 -62.973 2.942 0.00
53.625 -61.457 2.943 0.00
53.625 -59.940 2.943 0.00
53.625 -58.424 2.943 0.00
53.625 -56.907 2.943 0.00
54.525 -142.759 2.943 0.00
54.525 -141.209 2.943 0.00
54.525 -139.660 2.943 0.00
54.525 -138.110 2.943 0.00
54.525 -136.560 2.943 0.00
54.525 -135.011 2.943 0.00
54.525 -133.461 2.943 0.00
54.525 -131.911 2.943 0.00
54.525 -130.362 2.943 0.00
54.525 -128.812 2.943 0.00
54.525 -127.262 2.943 0.00
54.525 -125.713 2.943 0.00
54.525 -124.163 2.943 0.00
54.525 -122.613 2.943 0.00
54.525 -121.064 2.943 8.31
54.525 -119.514 2.943 2.85
54.525 -117.964 2.943 0.00
54.525 -116.415 2.943 0.00
54.525 -114.865 2.945 0.00
54.525 -113.315 2.950 0.00
54.525 -111.766 2.954 114.91
54.525 -110.216 2.951 13.99
54.525 -108.666 2.946 0.00
54.525 -107.117 2.943 0.00
54.525 -105.567 2.942 0.00
54.525 -104.017 2.943 0.00
54.525 -102.468 2.943 0.00
54.525 -100.918 2.943 0.00
54.525 -99.368 2.943 0.00
54.525 -97.819 2.943 0.00
54.525 -96.269 2.943 0.00
54.525 -94.719 2.942 0.00
54.525 -93.170 2.941 0.00
54.525 -91.620 2.942 0.00
54.525 -90.070 2.947 0.00
54.525 -88.520 2.959 0.00
54.525 -86.971 2.980 99.92
54.525 -85.421 2.993 177.95
54.525 -83.871 2.981 0.00
54.525 -82.322 2.989 130.32
54.525 -80.772 3.007 43.53
54.525 -79.222 3.017 186.85
54.525 -77.673 2.989 100.88
54.525 -76.123 2.956 0.00
54.525 -74.573 2.940 11.22
54.525 -73.024 2.939 0.00
54.525 -71.474 2.943 0.00
54.525 -69.924 2.951 17.04
54.525 -68.375 2.967 3.74
54.525 -66.825 2.974 226.50
54.525 -65.275 2.954 0.00
54.525 -63.726 2.943 0.00
54.525 -62.176 2.942 0.00
54.525 -60.626 2.943 0.00
54.525 -59.077 2.943 0.00
54.525 -57.527 2.943 0.00
54.525 -55.977 2.943 0.00
55.424 -143.742 2.943 0.00
55.424 -142.157 2.943 0.00
55.424 -140.572 2.943 0.00
55.424 -138.988 2.943 0.00
55.424 -137.403 2.943 0.00
55.424 -135.818 2.943 0.00
55.424 -134.233 2.943 0.00
55.424 -132.648 2.943 0.00
55.424 -131.064 2.943 0.00
55.424 -129.479 2.943 0.00
55.424 -127.894 2.943 0.00
55.424 -126.309 2.943 0.00
55.424 -124.725 2.943 0.00
55.424 -123.140 2.943 0.00
55.424 -121.555 2.943 0.54
55.424 -119.970 2.943 10.62
55.424 -118.385 2.943 0.00
55.424 -116.801 2.942 0.00
55.424 -115.216 2.943 0.00
55.424 -113.631 2.945 0.00
55.424 -112.046 2.950 0.00
55.424 -110.462 2.954 116.91
55.424 -108.877 2.951 13.99
55.424 -107.292 2.946 0.00
55.424 -105.707 2.943 0.00
55.424 -104.123 2.942 0.00
55.424 -102.538 2.943 0.00
55.424 -100.953 2.943 0.00
55.424 -99.368 2.943 0.00
55.424 -97.783 2.943 0.00
55.424 -96.199 2.942 0.00
55.424 -94.614 2.941 0.00
55.424 -93.029 2.942 0.00
55.424 -91.444 2.948 0.00
55.424 -89.860 2.959 0.00
55.424 -88.275 2.972 108.91
55.424 -86.690 2.981 28.98
55.424 -85.105 2.986 114.78
55.424 -83.520 2.985 84.29
55.424 -81.936 3.002 49.62
55.424 -80.351 3.018 189.85
55.424 -78.766 2.993 22.98
55.424 -77.181 2.962 33.21
55.424 -75.597 2.942 4.75
55.424 -74.012 2.939 6.37
55.424 -72.427 2.944 0.00
55.424 -70.842 2.949 0.00
55.424 -69.257 2.956 32.77
55.424 -67.673 2.964 101.93
55.424 -66.088 2.960 13.99
55.424 -64.503 2.948 0.00
55.424 -62.918 2.942 0.00
55.424 -61.334 2.942 0.00
55.424 -59.749 2.943 0.00
55.424 -58.164 2.943 0.00
55.424 -56.579 2.943 0.00
55.424 -54.995 2.943 0.00
56.324 -144.782 2.943 0.00
56.324 -143.160 2.943 0.00
56.324 -141.538 2.943 0.00
56.324 -139.916 2.943 0.00
56.324 -138.294 2.943 0.00
56.324 -136.672 2.943 0.00
56.324 -135.050 2.943 0.00
56.324 -133.428 2.943 0.00
56.324 -131.806 2.943 0.00
56.324 -130.184 2.943 0.00
56.324 -128.563 2.943 0.00
56.324 -126.941 2.943 0.00
56.324 -125.319 2.943 0.00
56.324 -123.697 2.943 0.00
56.324 -122.075 2.943 0.00
56.324 -120.453 2.943 2.59
56.324 -118.831 2.943 0.00
56.324 -117.209 2.943 0.00
56.324 -115.587 2.942 0.00
56.324 -113.965 2.943 0.00
56.324 -112.343 2.945 0.00
56.324 -110.722 2.950 0.00
56.324 -109.100 2.954 116.91
56.324 -107.478 2.951 15.99
56.324 -105.856 2.946 0.00
56.324 -104.234 2.943 0.00
56.324 -102.612 2.942 0.00
56.324 -100.990 2.943 0.00
56.324 -99.368 2.943 0.00
56.324 -97.746 2.942 0.00
56.324 -96.124 2.941 0.00
56.324 -94.502 2.943 0.00
56.324 -92.881 2.950 0.00
56.324 -91.259 2.961 0.00
56.324 -89.637 2.971 120.90
56.324 -88.015 2.972 25.29
56.324 -86.393 2.980 130.24
56.324 -84.771 2.980 12.73
56.324 -83.149 2.996 102.92
56.324 -81.527 3.015 92.93
56.324 -79.905 3.006 119.90
56.324 -78.283 2.968 0.00
56.324 -76.661 2.944 0.00
56.324 -75.040 2.939 11.22
56.324 -73.418 2.944 0.00
56.324 -71.796 2.952 0.00
56.324 -70.174 2.958 45.79
56.324 -68.552 2.960 105.11
56.324 -66.930 2.954 0.00
56.324 -65.308 2.948 0.00
56.324 -63.686 2.943 0.00
56.324 -62.064 2.942 0.00
56.324 -60.442 2.943 0.00
56.324 -58.820 2.943 0.00
56.324 -57.199 2.943 0.00
56.324 -55.577 2.943 0.00
56.324 -53.955 2.943 0.00
57.223 -145.883 2.943 0.00
57.223 -144.222 2.943 0.00
57.223 -142.561 2.943 0.00
57.223 -140.899 2.943 0.00
57.223 -139.238 2.943 0.00
57.223 -137.577 2.943 0.00
57.223 -135.916 2.943 0.00
57.223 -134.254 2.943 0.00
57.223 -132.593 2.943 0.00
57.223 -130.932 2.943 0.00
57.223 -129.271 2.942 0.00
57.223 -127.609 2.943 0.00
57.223 -125.948 2.943 0.00
57.223 -124.287 2.943 0.00
57.223 -122.626 2.943 0.00
57.223 -120.964 2.943 0.00
57.223 -119.303 2.943 0.00
57.223 -117.642 2.943 0.00
57.223 -115.981 2.943 0.00
57.223 -114.319 2.942 0.00
57.223 -112.658 2.943 0.00
57.223 -110.997 2.945 0.00
57.223 -109.336 2.950 0.00
57.223 -107.674 2.954 114.91
57.223 -106.013 2.951 20.98
57.223 -104.352 2.947 0.00
57.223 -102.691 2.943 0.00
57.223 -101.029 2.942 0.00
57.223 -99.368 2.941 0.00
57.223 -97.707 2.942 0.00
57.223 -96.046 2.944 0.00
57.223 -94.384 2.952 0.00
57.223 -92.723 2.964 8.99
57.223 -91.062 2.972 128.39
57.223 -89.401 2.964 35.61
57.223 -87.739 2.963 21.31
57.223 -86.078 2.980 99.90
57.223 -84.417 2.991 48.96
57.223 -82.756 3.011 58.95
57.223 -81.094 3.018 208.82
57.223 -79.433 2.980 0.00
57.223 -77.772 2.948 0.00
57.223 -76.111 2.939 9.17
57.223 -74.449 2.945 2.05
57.223 -72.788 2.953 0.00
57.223 -71.127 2.960 70.95
57.223 -69.466 2.960 82.74
57.223 -67.805 2.953 0.00
57.223 -66.143 2.946 0.00
57.223 -64.482 2.942 0.00
57.223 -62.821 2.942 0.00
57.223 -61.160 2.942 0.00
57.223 -59.498 2.943 0.00
57.223 -57.837 2.943 0.00
57.223 -56.176 2.943 0.00
57.223 -54.515 2.943 0.00
57.223 -52.853 2.943 0.00
58.122 -147.051 2.943 0.00
58.122 -145.348 2.943 0.00
58.122 -143.645 2.943 0.00
58.122 -141.942 2.943 0.00
58.122 -140.239 2.943 0.00
58.122 -138.537 2.943 0.00
58.122 -136.834 2.943 0.00
58.122 -135.131 2.943 0.00
58.122 -133.428 2.942 0.00
58.122 -131.725 2.941 6.00
58.122 -130.022 2.940 89.04
58.122 -128.319 2.941 0.00
58.122 -126.616 2.942 0.00
58.122 -124.913 2.943 0.00
58.122 -123.210 2.943 0.00
58.122 -121.507 2.943 0.00
58.122 -119.804 2.943 0.00
58.122 -118.101 2.943 0.00
58.122 -116.398 2.943 0.00
58.122 -114.695 2.943 0.00
58.122 -112.992 2.942 0.00
58.122 -111.289 2.943 0.00
58.122 -109.586 2.945 0.00
58.122 -107.883 2.950 0.00
58.122 -106.180 2.954 109.91
58.122 -104.477 2.951 28.98
58.122 -102.774 2.946 0.00
58.122 -101.071 2.942 0.00
58.122 -99.368 2.942 0.00
58.122 -97.665 2.945 0.00
58.122 -95.962 2.952 0.00
58.122 -94.259 2.962 27.53
58.122 -92.556 2.972 147.80
58.122 -90.853 2.963 27.12
58.122 -89.150 2.951 0.00
58.122 -87.447 2.959 0.00
58.122 -85.744 2.989 100.90
58.122 -84.041 3.013 103.92
58.122 -82.339 3.025 184.84
58.122 -80.636 2.995 29.97
58.122 -78.933 2.957 0.00
58.122 -77.230 2.941 2.59
58.122 -75.527 2.945 8.63
58.122 -73.824 2.955 1.00
58.122 -72.121 2.961 101.93
58.122 -70.418 2.958 31.98
58.122 -68.715 2.952 20.78
58.122 -67.012 2.946 0.00
58.122 -65.309 2.942 0.00
58.122 -63.606 2.942 0.00
58.122 -61.903 2.943 0.00
58.122 -60.200 2.943 0.00
58.122 -58.497 2.943 0.00
58.122 -56.794 2.943 0.00
58.122 -55.091 2.943 0.00
58.122 -53.388 2.943 0.00
58.122 -51.685 2.943 0.00
59.022 -148.292 2.943 0.00
59.022 -146.545 2.943 0.00
59.022 -144.798 2.943 0.00
59.022 -143.050 2.943 0.00
59.022 -141.303 2.943 0.00
59.022 -139.556 2.942 0.00
59.022 -137.808 2.942 13.13
59.022 -136.061 2.942 50.90
59.022 -134.314 2.940 367.40
59.022 -132.567 2.938 123.04
59.022 -130.819 2.938 29.98
59.022 -129.072 2.938 74.94
59.022 -127.325 2.941 0.00
59.022 -125.577 2.943 0.00
59.022 -123.830 2.943 0.00
59.022 -122.083 2.943 0.00
59.022 -120.336 2.943 0.00
59.022 -118.588 2.943 0.00
59.022 -116.841 2.943 0.00
59.022 -115.094 2.943 0.00
59.022 -113.346 2.943 0.00
59.022 -111.599 2.942 0.00
59.022 -109.852 2.942 0.00
59.022 -108.105 2.945 0.00
59.022 -106.357 2.949 0.00
59.022 -104.610 2.953 102.92
59.022 -102.863 2.951 39.97
59.022 -101.115 2.949 0.00
59.022 -99.368 2.950 0.00
59.022 -97.621 2.953 0.00
59.022 -95.874 2.959 84.91
59.022 -94.126 2.959 189.11
59.022 -92.379 2.955 0.00
59.022 -90.632 2.947 0.00
59.022 -88.884 2.946 0.00
59.022 -87.137 2.973 85.91
59.022 -85.390 3.006 59.95
59.022 -83.643 3.027 131.89
59.022 -81.895 3.013 140.87
59.022 -80.148 2.970 0.00
59.022 -78.401 2.946 0.00
59.022 -76.654 2.947 11.22
59.022 -74.906 2.957 34.98
59.022 -73.159 2.961 102.93
59.022 -71.412 2.955 0.00
59.022 -69.664 2.949 16.62
59.022 -67.917 2.945 4.16
59.022 -66.170 2.942 0.00
59.022 -64.423 2.942 0.00
59.022 -62.675 2.943 0.00
59.022 -60.928 2.943 0.00
59.022 -59.181 2.943 0.00
59.022 -57.433 2.943 0.00
59.022 -55.686 2.943 0.00
59.022 -53.939 2.943 0.00
59.022 -52.192 2.943 0.00
59.022 -50.444 2.943 0.00
59.921 -149.612 2.943 0.00
59.921 -147.818 2.943 0.00
59.921 -146.023 2.943 0.00
59.921 -144.229 2.943 0.00
59.921 -142.434 2.941 0.00
59.921 -140.640 2.940 17.48
59.921 -138.845 2.940 75.63
59.921 -137.051 2.942 112.49
59.921 -135.257 2.941 209.15
59.921 -133.462 2.937 143.15
59.921 -131.668 2.936 48.96
59.921 -129.873 2.936 58.95
59.921 -128.079 2.938 46.96
59.921 -126.284 2.942 0.00
59.921 -124.490 2.943 0.00
59.921 -122.696 2.944 0.00
59.921 -120.901 2.943 0.00
59.921 -119.107 2.943 0.00
59.921 -117.312 2.943 0.00
59.921 -115.518 2.943 0.00
59.921 -113.724 2.943 0.00
59.921 -111.929 2.942 0.00
59.921 -110.135 2.941 0.00
59.921 -108.340 2.941 0.00
59.921 -106.546 2.944 0.00
59.921 -104.751 2.951 0.00
59.921 -102.957 2.959 90.93
59.921 -101.163 2.963 54.96
59.921 -99.368 2.965 54.94
59.921 -97.574 2.963 113.88
59.921 -95.779 2.955 29.97
59.921 -93.985 2.944 64.99
59.921 -92.191 2.937 42.99
59.921 -90.396 2.935 0.00
59.921 -88.602 2.953 0.00
59.921 -86.807 2.999 100.90
59.921 -85.013 3.028 103.92
59.921 -83.218 3.028 216.81
59.921 -81.424 2.986 0.00
59.921 -79.630 2.955 0.00
59.921 -77.835 2.950 7.45
59.921 -76.041 2.958 77.83
59.921 -74.246 2.960 67.95
59.921 -72.452 2.954 0.00
59.921 -70.657 2.947 0.00
59.921 -68.863 2.944 20.78
59.921 -67.069 2.942 0.00
59.921 -65.274 2.942 0.00
59.921 -63.480 2.943 0.00
59.921 -61.685 2.943 0.00
59.921 -59.891 2.943 0.00
59.921 -58.097 2.943 0.00
59.921 -56.302 2.943 0.00
59.921 -54.508 2.943 0.00
59.921 -52.713 2.943 0.00
59.921 -50.919 2.943 0.00
59.921 -49.124 2.943 0.00
60.820 -151.018 2.943 0.00
60.820 -149.173 2.943 0.00
60.820 -147.329 2.943 0.00
60.820 -145.484 2.942 5.72
60.820 -143.639 2.939 33.70
60.820 -141.795 2.939 0.00
60.820 -139.950 2.939 42.98
60.820 -138.106 2.940 194.77
60.820 -136.261 2.938 188.43
60.820 -134.416 2.934 213.57
60.820 -132.572 2.932 177.90
60.820 -130.727 2.932 99.92
60.820 -128.882 2.934 85.93
60.820 -127.038 2.938 19.98
60.820 -125.193 2.942 0.00
60.820 -123.348 2.943 0.00
60.820 -121.504 2.943 0.00
60.820 -119.659 2.942 0.00
60.820 -117.815 2.942 0.00
60.820 -115.970 2.942 0.00
60.820 -114.125 2.942 0.00
60.820 -112.281 2.942 0.00
60.820 -110.436 2.943 0.00
60.820 -108.591 2.944 0.00
60.820 -106.747 2.948 0.00
60.820 -104.902 2.955 0.00
60.820 -103.057 2.965 44.95
60.820 -101.213 2.973 189.82
60.820 -99.368 2.970 134.88
60.820 -97.524 2.960 0.00
60.820 -95.679 2.948 0.00
60.820 -93.834 2.937 0.00
60.820 -91.990 2.926 109.98
60.820 -90.145 2.934 0.00
60.820 -88.300 2.971 0.00
60.820 -86.456 3.027 144.86
60.820 -84.611 3.044 238.80
60.820 -82.766 3.007 38.96
60.820 -80.922 2.967 0.00
60.820 -79.077 2.953 13.18
60.820 -77.233 2.958 114.07
60.820 -75.388 2.957 29.98
60.820 -73.543 2.951 0.00
60.820 -71.699 2.946 0.00
60.820 -69.854 2.943 8.31
60.820 -68.009 2.943 12.67
60.820 -66.165 2.943 0.00
60.820 -64.320 2.943 0.00
60.820 -62.475 2.943 0.00
60.820 -60.631 2.943 0.00
60.820 -58.786 2.943 0.00
60.820 -56.942 2.943 0.00
60.820 -55.097 2.943 0.00
60.820 -53.252 2.943 0.00
60.820 -51.408 2.943 0.00
60.820 -49.563 2.943 0.00
60.820 -47.718 2.943 0.00
61.720 -152.518 2.943 0.00
61.720 -150.620 2.943 0.00
61.720 -148.722 2.943 0.00
61.720 -146.824 2.941 0.77
61.720 -144.926 2.936 80.38
61.720 -143.027 2.935 26.98
61.720 -141.129 2.937 0.00
61.720 -139.231 2.938 12.00
61.720 -137.333 2.937 222.96
61.720 -135.434 2.932 229.85
61.720 -133.536 2.929 159.61
61.720 -131.638 2.928 210.05
61.720 -129.740 2.927 196.87
61.720 -127.842 2.928 120.90
61.720 -125.943 2.935 0.00
61.720 -124.045 2.942 0.00
61.720 -122.147 2.943 0.00
61.720 -120.249 2.942 0.00
61.720 -118.350 2.941 0.00
61.720 -116.452 2.940 0.00
61.720 -114.554 2.941 0.00
61.720 -112.656 2.946 0.00
61.720 -110.758 2.950 0.00
61.720 -108.859 2.954 0.00
61.720 -106.961 2.959 63.93
61.720 -105.063 2.962 112.88
61.720 -103.165 2.961 69.93
61.720 -101.266 2.958 0.00
61.720 -99.368 2.958 55.95
61.720 -97.470 2.956 101.92
61.720 -95.572 2.950 0.00
61.720 -93.674 2.938 0.00
61.720 -91.775 2.925 108.98
61.720 -89.877 2.944 0.00
61.720 -87.979 3.003 74.92
61.720 -86.081 3.049 199.83
61.720 -84.182 3.034 149.87
61.720 -82.284 2.986 0.00
61.720 -80.386 2.961 59.96
61.720 -78.488 2.956 103.27
61.720 -76.590 2.954 0.00
61.720 -74.691 2.949 0.00
61.720 -72.793 2.944 0.00
61.720 -70.895 2.943 0.00
61.720 -68.997 2.943 20.78
61.720 -67.098 2.944 0.00
61.720 -65.200 2.943 0.00
61.720 -63.302 2.943 0.00
61.720 -61.404 2.943 0.00
61.720 -59.505 2.943 0.00
61.720 -57.607 2.943 0.00
61.720 -55.709 2.943 0.00
61.720 -53.811 2.943 0.00
61.720 -51.913 2.943 0.00
61.720 -50.014 2.943 0.00
61.720 -48.116 2.943 0.00
61.720 -46.218 2.943 0.00
62.619 -154.123 2.943 0.00
62.619 -152.167 2.944 0.00
62.619 -150.212 2.944 0.00
62.619 -148.256 2.940 0.00
62.619 -146.301 2.932 1.12
62.619 -144.345 2.925 136.51
62.619 -142.390 2.924 10.99
62.619 -140.434 2.927 85.95
62.619 -138.479 2.931 610.83
62.619 -136.523 2.934 282.84
62.619 -134.567 2.934 0.00
62.619 -132.612 2.931 77.67
62.619 -130.656 2.924 193.77
62.619 -128.701 2.921 370.83
62.619 -126.745 2.928 211.91
62.619 -124.790 2.944 0.00
62.619 -122.834 2.950 0.00
62.619 -120.879 2.950 0.00
62.619 -118.923 2.948 75.02
62.619 -116.968 2.947 283.99
62.619 -115.012 2.950 244.40
62.619 -113.057 2.956 23.97
62.619 -111.101 2.963 135.86
62.619 -109.146 2.963 164.98
62.619 -107.190 2.959 49.95
62.619 -105.235 2.953 0.00
62.619 -103.279 2.948 0.00
62.619 -101.324 2.946 0.00
62.619 -99.368 2.949 0.00
62.619 -97.413 2.957 29.98
62.619 -95.457 2.961 130.89
62.619 -93.502 2.951 5.00
