31.141 -125.638 3.005 0.00
31.141 -124.587 3.005 0.00
31.141 -123.536 3.005 0.00
31.141 -122.485 3.005 0.00
31.141 -121.435 3.005 0.00
31.141 -120.384 3.000 0.00
31.141 -119.333 2.991 0.00
31.141 -118.282 2.995 0.00
31.141 -117.232 3.084 0.00
31.141 -116.181 3.284 239.16
31.141 -115.130 3.392 4596.56
31.141 -114.079 3.388 5357.88
31.141 -113.028 3.397 7150.27
31.141 -111.978 3.184 10098.88
31.141 -110.927 2.953 17830.19
31.141 -109.876 2.941 20027.71
31.141 -108.825 2.881 23493.84
31.141 -107.774 2.774 22083.62
31.141 -106.724 2.799 30236.87
31.141 -105.673 2.805 44553.91
31.141 -104.622 2.844 40097.91
31.141 -103.571 2.889 30570.46
31.141 -102.521 2.902 30105.75
31.141 -101.470 2.916 36739.30
31.141 -100.419 2.964 52359.08
31.141 -99.368 2.984 52441.81
31.141 -98.317 2.974 50389.47
31.141 -97.267 2.895 49986.67
31.141 -96.216 2.693 38298.59
31.141 -95.165 2.629 30495.91
31.141 -94.114 2.585 18834.96
31.141 -93.063 2.550 22697.04
31.141 -92.013 2.431 29874.90
31.141 -90.962 2.367 34040.30
31.141 -89.911 2.465 33318.97
31.141 -88.860 2.530 28535.79
31.141 -87.810 2.596 24897.73
31.141 -86.759 2.760 24933.63
31.141 -85.708 2.893 37639.89
31.141 -84.657 2.895 31777.10
31.141 -83.606 2.945 43484.32
31.141 -82.556 3.000 28278.61
31.141 -81.505 2.989 24666.17
31.141 -80.454 2.963 6928.23
31.141 -79.403 2.917 4701.08
31.141 -78.353 2.985 53.97
31.141 -77.302 3.078 204.97
31.141 -76.251 3.116 3.10
31.141 -75.200 3.145 302.24
31.141 -74.149 3.074 34.31
31.141 -73.099 3.011 0.00
31.141 -72.048 2.998 0.00
31.141 -70.997 3.003 0.00
31.141 -69.946 3.005 0.00
32.041 -129.076 3.005 0.00
32.041 -128.015 3.005 0.00
32.041 -126.954 3.005 0.00
32.041 -125.893 3.005 0.00
32.041 -124.832 3.005 0.00
32.041 -123.771 3.005 0.00
32.041 -122.710 3.004 0.00
32.041 -121.649 3.001 0.00
32.041 -120.588 3.005 0.00
32.041 -119.527 3.017 0.00
32.041 -118.466 3.045 0.00
32.041 -117.405 3.173 52.95
32.041 -116.344 3.326 3203.75
32.041 -115.283 3.324 36445.85
32.041 -114.222 3.177 29556.67
32.041 -113.161 3.221 28845.08
32.041 -112.100 3.087 31817.92
32.041 -111.039 2.952 42619.74
32.041 -109.978 3.003 40567.14
32.041 -108.917 2.927 37340.42
32.041 -107.856 2.851 35908.62
32.041 -106.795 2.902 36508.78
32.041 -105.734 2.977 35225.24
32.041 -104.673 2.902 39183.75
32.041 -103.612 2.881 39346.67
32.041 -102.551 2.886 31518.85
32.041 -101.490 2.921 36958.55
32.041 -100.429 2.930 62436.24
32.041 -99.368 2.901 52462.59
32.041 -98.307 2.916 52135.32
32.041 -97.246 2.982 48055.50
32.041 -96.185 2.801 44735.20
32.041 -95.124 2.710 39952.24
32.041 -94.063 2.649 65682.84
32.041 -93.002 2.699 42269.02
32.041 -91.941 2.663 42943.13
32.041 -90.880 2.631 46794.44
32.041 -89.819 2.707 45305.71
32.041 -88.758 2.794 37655.05
32.041 -87.697 2.857 30910.67
32.041 -86.636 3.014 28105.72
32.041 -85.575 3.113 38850.41
32.041 -84.515 3.064 41823.52
32.041 -83.454 3.036 41075.16
32.041 -82.393 2.977 31100.80
32.041 -81.332 2.967 30414.81
32.041 -80.271 2.960 10264.05
32.041 -79.210 2.925 4941.03
32.041 -78.149 2.984 335.77
32.041 -77.088 3.067 160.83
32.041 -76.027 3.118 98.88
32.041 -74.966 3.133 202.27
32.041 -73.905 3.061 37.07
32.041 -72.844 3.006 1.47
32.041 -71.783 2.999 0.00
32.041 -70.722 3.004 0.00
32.041 -69.661 3.005 0.00
32.940 -129.374 3.005 0.00
32.940 -128.302 3.005 0.00
32.940 -127.231 3.005 0.00
32.940 -126.159 3.005 0.00
32.940 -125.087 3.005 0.00
32.940 -124.016 3.004 0.00
32.940 -122.944 3.003 0.00
32.940 -121.873 3.011 0.00
32.940 -120.801 3.031 0.00
32.940 -119.729 3.024 413.25
32.940 -118.658 3.027 807.84
32.940 -117.586 3.146 2256.26
32.940 -116.514 3.228 12274.54
32.940 -115.443 3.325 126751.17
32.940 -114.371 3.152 129036.28
32.940 -113.299 3.123 83804.98
32.940 -112.228 3.087 67604.86
32.940 -111.156 3.021 65697.86
32.940 -110.085 2.993 53582.68
32.940 -109.013 2.878 49434.80
32.940 -107.941 2.825 47829.52
32.940 -106.870 2.865 43985.52
32.940 -105.798 3.033 42497.24
32.940 -104.726 2.947 43752.48
32.940 -103.655 2.930 56609.79
32.940 -102.583 2.959 52124.71
32.940 -101.511 3.032 61272.05
32.940 -100.440 2.963 83023.86
32.940 -99.368 2.907 82246.70
32.940 -98.297 2.898 87319.86
32.940 -97.225 2.986 78065.73
32.940 -96.153 2.770 66237.12
32.940 -95.082 2.673 63091.40
32.940 -94.010 2.644 64445.25
32.940 -92.938 2.703 52190.31
32.940 -91.867 2.764 51241.63
32.940 -90.795 2.767 48593.29
32.940 -89.723 2.822 48441.00
32.940 -88.652 2.927 46656.80
32.940 -87.580 2.973 42248.00
32.940 -86.509 3.092 38167.14
32.940 -85.437 3.165 47141.63
32.940 -84.365 3.167 40622.01
32.940 -83.294 3.102 38555.12
32.940 -82.222 3.050 43683.62
32.940 -81.150 3.063 27989.47
32.940 -80.079 2.992 20744.38
32.940 -79.007 2.957 10678.62
32.940 -77.935 2.999 838.33
32.940 -76.864 3.050 36.96
32.940 -75.792 3.110 99.88
32.940 -74.721 3.123 199.76
32.940 -73.649 3.054 34.31
32.940 -72.577 3.006 1.63
32.940 -71.506 3.001 3.10
32.940 -70.434 3.004 1.47
32.940 -69.362 3.005 0.00
33.839 -129.686 3.005 0.00
33.839 -128.603 3.005 0.00
33.839 -127.521 3.005 0.00
33.839 -126.438 3.005 0.00
33.839 -125.355 3.004 0.00
33.839 -124.272 3.003 0.00
33.839 -123.189 3.012 0.00
33.839 -122.107 3.032 0.00
33.839 -121.024 3.010 0.00
33.839 -119.941 2.928 515.03
33.839 -118.858 2.905 2777.32
33.839 -117.775 2.947 28889.78
33.839 -116.693 2.996 42127.84
33.839 -115.610 3.041 69217.05
33.839 -114.527 3.108 88543.03
33.839 -113.444 3.067 85887.84
33.839 -112.362 3.096 80314.37
33.839 -111.279 2.950 78966.26
33.839 -110.196 2.923 69871.62
33.839 -109.113 2.863 62972.89
33.839 -108.030 2.840 58273.62
33.839 -106.948 2.833 51881.14
33.839 -105.865 2.950 45993.75
33.839 -104.782 2.933 40177.16
33.839 -103.699 2.937 54962.73
33.839 -102.617 2.947 66538.76
33.839 -101.534 3.001 71160.16
33.839 -100.451 3.019 79270.52
33.839 -99.368 2.966 81887.03
33.839 -98.285 2.936 85713.60
33.839 -97.203 2.961 89672.60
33.839 -96.120 2.819 82265.05
33.839 -95.037 2.823 80217.77
33.839 -93.954 2.809 72242.78
33.839 -92.872 2.846 58384.77
33.839 -91.789 2.881 63625.50
33.839 -90.706 2.906 52822.31
33.839 -89.623 3.030 51704.32
33.839 -88.540 3.108 43913.04
33.839 -87.458 3.103 47200.79
33.839 -86.375 3.093 47390.81
33.839 -85.292 3.212 57071.83
33.839 -84.209 3.182 49501.14
33.839 -83.126 3.114 47728.23
33.839 -82.044 3.092 47731.14
33.839 -80.961 3.093 29480.61
33.839 -79.878 3.026 42436.86
33.839 -78.795 3.029 17072.41
33.839 -77.713 3.037 1644.08
33.839 -76.630 3.051 111.93
33.839 -75.547 3.108 119.86
33.839 -74.464 3.110 180.79
33.839 -73.381 3.046 34.31
33.839 -72.299 3.007 0.00
33.839 -71.216 3.002 0.00
33.839 -70.133 3.005 1.63
33.839 -69.050 3.005 3.13
34.739 -130.012 3.005 1.66
34.739 -128.918 3.005 0.00
34.739 -127.823 3.005 0.00
34.739 -126.729 3.005 0.00
34.739 -125.635 3.004 0.00
34.739 -124.540 3.009 0.00
34.739 -123.446 3.022 0.00
34.739 -122.351 3.004 0.00
34.739 -121.257 2.893 0.00
34.739 -120.162 2.774 743.64
34.739 -119.068 2.765 7046.89
34.739 -117.974 2.854 29294.73
34.739 -116.879 2.949 46590.30
34.739 -115.785 2.949 62526.54
34.739 -114.690 3.011 72839.09
34.739 -113.596 3.076 61660.35
34.739 -112.501 3.020 60129.21
34.739 -111.407 2.980 70676.13
34.739 -110.313 3.027 69357.85
34.739 -109.218 2.981 60470.28
34.739 -108.124 2.888 57764.75
34.739 -107.029 2.836 54014.82
34.739 -105.935 2.987 47441.40
34.739 -104.840 2.994 47224.91
34.739 -103.746 2.951 66269.77
34.739 -102.651 2.946 82672.45
34.739 -101.557 2.926 81778.20
34.739 -100.463 2.976 89061.66
34.739 -99.368 2.957 107481.82
34.739 -98.274 2.910 109749.45
34.739 -97.179 2.971 101733.74
34.739 -96.085 2.931 108558.82
34.739 -94.990 2.896 114447.59
34.739 -93.896 2.894 88998.50
34.739 -92.802 2.935 75158.62
34.739 -91.707 2.985 67500.73
34.739 -90.613 3.028 71879.38
34.739 -89.518 3.147 66241.35
34.739 -88.424 3.169 72997.59
34.739 -87.329 3.190 45952.70
34.739 -86.235 3.139 50002.07
34.739 -85.141 3.178 53554.02
34.739 -84.046 3.133 52476.71
34.739 -82.952 3.065 54791.45
34.739 -81.857 3.054 47955.45
34.739 -80.763 3.056 43658.04
34.739 -79.668 3.083 35146.23
34.739 -78.574 3.051 24023.53
34.739 -77.480 3.041 8507.64
34.739 -76.385 3.042 405.77
34.739 -75.291 3.108 223.74
34.739 -74.196 3.088 70.92
34.739 -73.102 3.031 34.31
34.739 -72.007 3.004 0.00
34.739 -70.913 3.003 0.00
34.739 -69.818 3.005 0.00
34.739 -68.724 3.005 0.00
35.638 -130.353 3.005 4.54
35.638 -129.247 3.005 2.08
35.638 -128.140 3.005 0.00
35.638 -127.034 3.005 0.00
35.638 -125.927 3.006 0.00
35.638 -124.820 3.010 0.00
35.638 -123.714 3.004 0.00
35.638 -122.607 2.934 0.00
35.638 -121.500 2.791 1229.56
35.638 -120.394 2.690 9966.13
35.638 -119.287 2.777 14929.71
35.638 -118.181 2.941 24361.50
35.638 -117.074 3.025 34845.72
35.638 -115.967 3.010 59071.57
35.638 -114.861 2.967 60368.82
35.638 -113.754 3.002 70394.45
35.638 -112.648 3.054 66487.60
35.638 -111.541 3.016 69151.85
35.638 -110.434 3.094 61720.65
35.638 -109.328 3.128 54274.39
35.638 -108.221 3.055 53272.88
35.638 -107.115 2.912 54990.96
35.638 -106.008 2.912 49837.86
35.638 -104.901 2.968 51014.49
35.638 -103.795 3.001 67542.35
35.638 -102.688 3.013 86458.96
35.638 -101.581 2.974 91993.10
35.638 -100.475 2.908 108523.02
35.638 -99.368 2.849 120610.38
35.638 -98.262 2.864 132271.27
35.638 -97.155 2.878 196524.80
35.638 -96.048 3.003 153314.73
35.638 -94.942 3.091 111854.82
35.638 -93.835 3.076 96311.77
35.638 -92.729 3.063 118024.37
35.638 -91.622 3.077 88560.27
35.638 -90.515 3.074 96780.48
35.638 -89.409 3.099 92698.80
35.638 -88.302 3.114 76346.09
35.638 -87.195 3.173 50271.32
35.638 -86.089 3.173 55414.54
35.638 -84.982 3.169 56253.89
35.638 -83.876 3.104 59088.36
35.638 -82.769 3.060 62074.67
35.638 -81.662 3.032 51885.29
35.638 -80.556 3.100 59141.60
35.638 -79.449 3.111 38079.17
35.638 -78.343 3.026 40528.90
35.638 -77.236 2.998 16221.82
35.638 -76.129 3.003 10455.75
35.638 -75.023 3.092 199.76
35.638 -73.916 3.067 9.51
35.638 -72.809 3.016 24.46
35.638 -71.703 3.001 0.00
35.638 -70.596 3.003 0.00
35.638 -69.490 3.005 0.00
35.638 -68.383 3.005 0.00
36.538 -130.710 3.005 0.00
36.538 -129.591 3.005 1.05
36.538 -128.471 3.005 3.13
36.538 -127.352 3.006 2.75
36.538 -126.233 3.005 0.00
36.538 -125.113 3.003 0.00
36.538 -123.994 2.996 0.00
36.538 -122.875 2.958 1.29
36.538 -121.755 2.904 2510.49
36.538 -120.636 2.897 33941.66
36.538 -119.516 3.042 39729.54
36.538 -118.397 3.025 46554.48
36.538 -117.278 2.920 54168.34
36.538 -116.158 2.928 68629.55
36.538 -115.039 2.933 70065.04
36.538 -113.920 2.979 85445.73
36.538 -112.800 3.131 70695.49
36.538 -111.681 3.075 60850.76
36.538 -110.562 3.091 54515.18
36.538 -109.442 3.147 48202.15
36.538 -108.323 3.127 51192.56
36.538 -107.204 2.994 56046.45
36.538 -106.084 2.925 55016.44
36.538 -104.965 2.917 58450.82
36.538 -103.846 2.944 75604.46
36.538 -102.726 2.964 98885.70
36.538 -101.607 2.926 107341.02
36.538 -100.488 2.949 112385.24
36.538 -99.368 2.946 130081.70
36.538 -98.249 2.977 128065.49
36.538 -97.130 2.947 130180.90
36.538 -96.010 2.940 147737.52
36.538 -94.891 3.053 135172.06
36.538 -93.771 3.029 132429.23
36.538 -92.652 3.037 120040.16
36.538 -91.533 3.134 103167.70
36.538 -90.413 3.155 113004.30
36.538 -89.294 3.138 103353.10
36.538 -88.175 3.192 73899.35
36.538 -87.055 3.173 55641.61
36.538 -85.936 3.157 51135.80
36.538 -84.817 3.115 60875.91
36.538 -83.697 3.114 67570.73
36.538 -82.578 3.075 62458.55
36.538 -81.459 3.098 59580.75
36.538 -80.339 3.129 49541.26
36.538 -79.220 3.148 47391.27
36.538 -78.101 3.047 37284.27
36.538 -76.981 2.970 25028.17
36.538 -75.862 2.997 1966.05
36.538 -74.743 3.089 203.48
36.538 -73.623 3.064 34.31
36.538 -72.504 3.013 0.00
36.538 -71.384 3.000 0.00
36.538 -70.265 3.004 0.00
36.538 -69.146 3.005 0.00
36.538 -68.026 3.005 0.00
37.437 -131.083 3.005 0.00
37.437 -129.950 3.005 0.00
37.437 -128.817 3.005 0.00
37.437 -127.685 3.004 0.35
37.437 -126.552 2.998 3.13
37.437 -125.419 3.003 3.13
37.437 -124.287 3.028 0.94
37.437 -123.154 3.056 3.75
37.437 -122.021 3.126 14233.60
37.437 -120.889 3.323 25941.08
37.437 -119.756 3.229 23149.05
37.437 -118.623 2.978 50148.85
37.437 -117.491 2.777 54560.37
37.437 -116.358 2.788 70239.02
37.437 -115.225 2.830 75871.02
37.437 -114.093 2.831 81202.88
37.437 -112.960 2.944 76562.05
37.437 -111.827 2.966 58416.68
37.437 -110.695 3.102 57056.06
37.437 -109.562 3.067 47226.86
37.437 -108.429 2.969 51374.79
37.437 -107.297 2.932 56751.55
37.437 -106.164 2.984 68168.20
37.437 -105.032 3.097 94926.99
37.437 -103.899 3.026 84713.95
37.437 -102.766 2.962 105794.23
37.437 -101.634 2.918 101125.01
37.437 -100.501 2.945 109500.04
37.437 -99.368 2.984 115415.77
37.437 -98.236 2.958 119007.69
37.437 -97.103 2.983 112469.84
37.437 -95.970 2.996 121294.55
37.437 -94.838 3.063 141368.67
37.437 -93.705 3.072 133723.47
37.437 -92.572 3.067 120312.77
37.437 -91.440 3.108 110823.41
37.437 -90.307 3.137 115194.43
37.437 -89.174 3.157 96727.28
37.437 -88.042 3.127 72266.58
37.437 -86.909 3.073 59893.16
37.437 -85.776 3.086 56769.43
37.437 -84.644 3.074 61499.38
37.437 -83.511 3.125 67608.26
37.437 -82.378 3.047 70922.13
37.437 -81.246 3.123 76412.05
37.437 -80.113 3.132 61265.24
37.437 -78.980 3.142 53278.40
37.437 -77.848 3.047 40726.73
37.437 -76.715 2.949 27410.83
37.437 -75.582 2.966 2519.27
37.437 -74.450 3.061 212.86
37.437 -73.317 3.051 34.31
37.437 -72.184 3.013 0.00
37.437 -71.052 3.003 0.00
37.437 -69.919 3.004 0.00
37.437 -68.786 3.005 0.00
37.437 -67.654 3.005 0.00
38.336 -131.472 3.005 0.00
38.336 -130.326 3.005 0.00
38.336 -129.179 3.004 0.00
38.336 -128.033 3.000 0.00
38.336 -126.886 3.008 0.00
38.336 -125.740 3.046 0.00
38.336 -124.593 3.065 6.70
38.336 -123.446 3.059 213.35
38.336 -122.300 3.124 8267.70
38.336 -121.153 3.452 22820.63
38.336 -120.007 3.182 25440.22
38.336 -118.860 2.852 52283.18
38.336 -117.713 2.726 64861.59
38.336 -116.567 2.734 69369.77
38.336 -115.420 2.854 66861.70
38.336 -114.274 2.862 81011.68
38.336 -113.127 2.873 84203.91
38.336 -111.981 2.827 79802.23
38.336 -110.834 3.028 63005.90
38.336 -109.687 3.002 53119.71
38.336 -108.541 2.945 52560.13
38.336 -107.394 2.910 59451.95
38.336 -106.248 2.927 62489.30
38.336 -105.101 2.977 43233.55
38.336 -103.955 2.995 42016.28
38.336 -102.808 3.003 63373.70
38.336 -101.661 2.921 66655.17
38.336 -100.515 2.906 78324.02
38.336 -99.368 2.973 94975.48
38.336 -98.222 2.967 104907.49
38.336 -97.075 2.983 95230.43
38.336 -95.928 2.992 98815.73
38.336 -94.782 3.041 106435.19
38.336 -93.635 3.064 120026.54
38.336 -92.489 3.051 113596.29
38.336 -91.342 3.098 128844.66
38.336 -90.196 3.124 111984.41
38.336 -89.049 3.140 100061.09
38.336 -87.902 3.122 82054.45
38.336 -86.756 3.021 67484.66
38.336 -85.609 3.042 64439.59
38.336 -84.463 3.083 68356.93
38.336 -83.316 3.130 71438.45
38.336 -82.170 3.032 83691.58
38.336 -81.023 3.076 84295.21
38.336 -79.876 3.194 83938.12
38.336 -78.730 3.263 76171.83
38.336 -77.583 3.080 45817.48
38.336 -76.437 2.953 23241.91
38.336 -75.290 2.948 7100.48
38.336 -74.143 3.027 161.61
38.336 -72.997 3.025 34.31
38.336 -71.850 3.004 0.00
38.336 -70.704 3.003 0.00
38.336 -69.557 3.005 0.00
38.336 -68.411 3.005 0.00
38.336 -67.264 3.005 0.00
39.236 -131.880 3.005 0.00
39.236 -130.719 3.004 0.00
39.236 -129.558 3.002 0.00
39.236 -128.397 3.009 0.00
39.236 -127.235 3.041 0.00
39.236 -126.074 3.037 3.64
39.236 -124.913 2.911 0.59
39.236 -123.752 2.790 515.67
39.236 -122.591 2.848 8196.53
39.236 -121.430 3.004 17196.62
39.236 -120.269 2.920 44992.95
39.236 -119.107 2.718 80519.85
39.236 -117.946 2.737 52143.63
39.236 -116.785 2.709 57534.84
39.236 -115.624 2.804 65053.57
39.236 -114.463 2.894 64502.96
39.236 -113.302 2.986 69646.88
39.236 -112.141 2.901 71765.05
39.236 -110.980 2.968 64331.59
39.236 -109.818 3.027 54280.32
39.236 -108.657 3.031 59784.98
39.236 -107.496 2.986 64544.78
39.236 -106.335 2.958 60580.30
39.236 -105.174 2.932 45571.80
39.236 -104.013 2.918 39445.22
39.236 -102.852 2.990 46015.68
39.236 -101.690 3.094 47859.44
39.236 -100.529 3.010 54570.14
39.236 -99.368 2.948 70509.95
39.236 -98.207 2.903 73311.31
39.236 -97.046 2.990 82626.50
39.236 -95.885 3.025 76011.31
39.236 -94.724 3.044 83620.22
39.236 -93.563 3.029 106111.20
39.236 -92.401 3.050 99229.98
39.236 -91.240 3.139 102841.00
39.236 -90.079 3.140 84644.85
39.236 -88.918 3.070 89190.02
39.236 -87.757 3.067 83380.85
39.236 -86.596 2.981 65623.86
39.236 -85.435 2.986 66673.27
39.236 -84.273 3.067 78372.51
39.236 -83.112 3.191 74802.36
39.236 -81.951 3.116 84063.85
39.236 -80.790 3.024 73354.91
39.236 -79.629 3.120 63036.35
39.236 -78.468 3.186 46416.33
39.236 -77.307 3.102 31866.92
39.236 -76.145 3.016 24364.01
39.236 -74.984 3.000 11783.50
39.236 -73.823 3.040 107.28
39.236 -72.662 3.024 34.31
39.236 -71.501 2.996 0.00
39.236 -70.340 3.000 0.00
39.236 -69.179 3.004 0.00
39.236 -68.018 3.005 0.00
39.236 -66.856 3.005 0.00
40.135 -132.306 3.005 0.00
40.135 -131.130 3.004 0.00
40.135 -129.954 3.007 0.00
40.135 -128.777 3.018 0.00
40.135 -127.601 3.010 2.85
40.135 -126.424 2.912 1.43
40.135 -125.248 2.722 0.00
40.135 -124.072 2.471 6498.62
40.135 -122.895 2.449 25154.88
40.135 -121.719 2.674 23669.65
40.135 -120.543 2.982 46238.18
40.135 -119.366 2.943 62466.44
40.135 -118.190 3.028 43799.57
40.135 -117.014 2.970 49900.29
40.135 -115.837 2.974 61001.70
40.135 -114.661 3.019 70910.45
40.135 -113.484 3.110 68171.95
40.135 -112.308 2.958 74157.65
40.135 -111.132 2.835 64858.65
40.135 -109.955 2.882 57902.99
40.135 -108.779 2.962 66331.25
40.135 -107.603 2.933 62277.02
40.135 -106.426 3.000 48004.99
40.135 -105.250 2.919 42962.68
40.135 -104.074 2.847 36412.09
40.135 -102.897 2.910 36138.80
40.135 -101.721 3.011 39628.09
40.135 -100.545 3.007 43896.03
40.135 -99.368 2.986 53129.13
40.135 -98.192 3.003 62258.17
40.135 -97.015 3.047 74006.89
40.135 -95.839 3.057 80833.80
40.135 -94.663 3.025 81729.65
40.135 -93.486 3.040 85693.88
40.135 -92.310 3.048 84720.21
40.135 -91.134 3.065 71064.73
40.135 -89.957 3.088 58006.74
40.135 -88.781 3.071 52345.19
40.135 -87.605 3.080 60645.25
40.135 -86.428 3.001 54107.32
40.135 -85.252 2.980 78871.37
40.135 -84.076 3.043 85442.64
40.135 -82.899 3.132 67016.75
40.135 -81.723 3.101 82898.61
40.135 -80.546 3.012 68415.62
40.135 -79.370 3.062 61553.39
40.135 -78.194 3.125 48899.15
40.135 -77.017 3.076 50913.51
40.135 -75.841 3.077 28322.82
40.135 -74.665 3.112 20452.83
40.135 -73.488 3.092 4662.03
40.135 -72.312 3.060 34.31
40.135 -71.136 3.007 0.00
40.135 -69.959 2.997 0.00
40.135 -68.783 3.003 0.00
40.135 -67.607 3.005 0.00
40.135 -66.430 3.005 0.00
41.034 -132.752 3.005 0.00
41.034 -131.560 3.006 0.00
41.034 -130.368 3.007 0.00
41.034 -129.175 2.997 2.13
41.034 -127.983 2.970 2.24
41.034 -126.791 2.954 0.00
41.034 -125.598 2.864 68.30
41.034 -124.406 2.547 40377.90
41.034 -123.214 2.449 34198.02
41.034 -122.022 2.615 30499.10
41.034 -120.829 2.845 32753.95
41.034 -119.637 2.805 44488.89
41.034 -118.445 2.854 47146.75
41.034 -117.252 2.966 42557.84
41.034 -116.060 2.983 48090.81
41.034 -114.868 3.058 101684.95
41.034 -113.676 3.229 73919.88
41.034 -112.483 3.094 71188.32
41.034 -111.291 2.861 68361.38
41.034 -110.099 2.750 78933.58
41.034 -108.906 2.845 57703.11
41.034 -107.714 2.896 53018.03
41.034 -106.522 3.037 41061.33
41.034 -105.330 2.967 35658.05
41.034 -104.137 2.887 33080.30
41.034 -102.945 2.902 29469.83
41.034 -101.753 2.950 33258.11
41.034 -100.560 2.956 42267.60
41.034 -99.368 2.940 52374.07
41.034 -98.176 2.974 61548.73
41.034 -96.984 3.052 74039.69
41.034 -95.791 3.053 78573.78
41.034 -94.599 3.053 79453.48
41.034 -93.407 3.049 76954.38
41.034 -92.215 3.028 71552.85
41.034 -91.022 3.025 56395.26
41.034 -89.830 3.078 59330.38
41.034 -88.638 3.083 50384.59
41.034 -87.445 3.126 47867.02
41.034 -86.253 3.035 51613.14
41.034 -85.061 3.028 73604.66
41.034 -83.869 3.117 62288.13
41.034 -82.676 3.165 60905.16
41.034 -81.484 3.106 55229.79
41.034 -80.292 3.117 58818.22
41.034 -79.099 3.084 57532.52
41.034 -77.907 3.098 53614.84
41.034 -76.715 3.056 52332.29
41.034 -75.523 3.050 50673.15
41.034 -74.330 3.090 30988.15
41.034 -73.138 3.135 23043.88
41.034 -71.946 3.093 2369.55
41.034 -70.753 3.019 1150.61
41.034 -69.561 2.994 0.00
41.034 -68.369 2.998 0.00
41.034 -67.177 3.004 0.00
41.034 -65.984 3.006 0.00
41.934 -133.219 3.005 0.00
41.934 -132.010 3.006 0.00
41.934 -130.801 3.000 1.51
41.934 -129.592 2.981 2.94
41.934 -128.383 3.017 0.00
41.934 -127.174 3.271 3.07
41.934 -125.965 3.679 425.65
41.934 -124.756 3.471 12905.94
41.934 -123.547 2.868 18796.87
41.934 -122.338 2.680 20272.33
41.934 -121.129 2.868 23856.15
41.934 -119.920 2.875 37530.03
41.934 -118.711 2.825 41416.19
41.934 -117.502 2.884 48573.50
41.934 -116.293 2.916 53108.89
41.934 -115.085 2.985 65639.47
41.934 -113.876 3.181 64344.45
41.934 -112.667 3.148 66576.94
41.934 -111.458 2.932 87137.03
41.934 -110.249 2.768 80289.54
41.934 -109.040 2.786 61664.71
41.934 -107.831 2.845 45066.10
41.934 -106.622 3.044 39270.52
41.934 -105.413 3.016 34114.11
41.934 -104.204 2.939 27865.88
41.934 -102.995 2.940 25370.06
41.934 -101.786 2.948 28739.96
41.934 -100.577 2.945 36656.12
41.934 -99.368 2.966 54771.69
41.934 -98.159 3.019 58948.05
41.934 -96.950 3.071 72919.98
41.934 -95.741 3.014 79463.90
41.934 -94.532 2.993 73868.32
41.934 -93.323 3.014 68955.48
41.934 -92.115 3.073 56819.98
41.934 -90.906 3.064 66741.84
41.934 -89.697 3.037 52602.65
41.934 -88.488 3.043 54278.66
41.934 -87.279 3.122 57774.35
41.934 -86.070 3.065 58369.37
41.934 -84.861 3.041 58878.59
41.934 -83.652 3.125 50658.82
41.934 -82.443 3.148 56854.26
41.934 -81.234 3.138 53636.30
41.934 -80.025 3.156 55933.69
41.934 -78.816 3.089 62441.59
41.934 -77.607 3.056 51930.45
41.934 -76.398 3.065 46051.20
41.934 -75.189 3.126 40830.91
41.934 -73.980 3.145 36576.17
41.934 -72.771 3.160 24740.97
41.934 -71.562 3.112 16429.52
41.934 -70.353 3.030 13164.98
41.934 -69.145 3.007 30.40
41.934 -67.936 2.995 0.00
41.934 -66.727 2.997 0.00
41.934 -65.518 3.004 0.00
42.833 -133.707 3.006 0.00
42.833 -132.481 3.005 1.01
42.833 -131.254 2.996 3.55
42.833 -130.028 2.980 0.00
42.833 -128.802 3.080 0.00
42.833 -127.575 3.561 22.25
42.833 -126.349 4.423 7389.99
42.833 -125.122 3.953 8006.91
42.833 -123.896 3.228 6165.59
42.833 -122.670 2.825 12915.82
42.833 -121.443 2.813 16953.02
42.833 -120.217 2.798 23564.34
42.833 -118.990 2.736 33288.04
42.833 -117.764 2.901 42599.70
42.833 -116.538 2.998 50009.00
42.833 -115.311 2.972 51702.46
42.833 -114.085 3.074 60140.31
42.833 -112.858 3.126 55360.30
42.833 -111.632 2.993 68529.58
42.833 -110.406 2.880 64441.55
42.833 -109.179 2.924 53973.53
42.833 -107.953 2.886 44091.18
42.833 -106.727 2.955 38015.14
42.833 -105.500 2.942 33936.42
42.833 -104.274 2.993 30909.00
42.833 -103.047 3.004 29067.26
42.833 -101.821 3.004 31365.07
42.833 -100.595 2.995 35565.82
42.833 -99.368 3.017 45035.66
42.833 -98.142 3.090 66773.65
42.833 -96.915 3.107 71488.22
42.833 -95.689 3.067 73907.63
42.833 -94.463 2.998 70071.84
42.833 -93.236 2.957 60521.23
42.833 -92.010 3.002 48829.38
42.833 -90.783 3.044 65889.52
42.833 -89.557 3.066 51855.32
42.833 -88.331 3.091 51119.43
42.833 -87.104 3.070 65485.81
42.833 -85.878 3.029 54974.27
42.833 -84.652 3.006 57575.90
42.833 -83.425 3.069 58545.37
42.833 -82.199 3.095 52162.54
42.833 -80.972 3.092 59962.16
42.833 -79.746 3.123 55235.86
42.833 -78.520 3.111 56367.79
42.833 -77.293 3.117 61733.86
42.833 -76.067 3.130 54859.81
42.833 -74.840 3.171 45422.28
42.833 -73.614 3.226 44688.63
42.833 -72.388 3.288 44806.04
42.833 -71.161 3.202 18738.77
42.833 -69.935 3.116 3243.52
42.833 -68.708 3.069 200.31
42.833 -67.482 3.025 0.00
42.833 -66.256 3.003 0.00
42.833 -65.029 3.002 0.00
43.732 -134.219 3.005 0.64
43.732 -132.974 3.005 4.03
43.732 -131.729 2.999 0.00
43.732 -130.485 2.982 0.00
43.732 -129.240 3.024 16.88
43.732 -127.995 3.250 67.30
43.732 -126.751 3.484 21593.54
43.732 -125.506 3.187 8432.28
43.732 -124.261 2.941 9892.97
43.732 -123.017 2.794 12217.37
43.732 -121.772 2.811 14618.39
43.732 -120.527 2.792 22325.61
43.732 -119.283 2.753 30665.32
43.732 -118.038 2.853 31715.57
43.732 -116.793 3.010 42892.79
43.732 -115.549 2.942 43374.87
43.732 -114.304 2.899 49887.45
43.732 -113.059 3.043 46186.81
43.732 -111.815 2.946 46418.86
43.732 -110.570 2.788 56848.43
43.732 -109.325 2.899 42204.06
43.732 -108.081 2.947 39114.66
43.732 -106.836 2.902 35712.95
43.732 -105.591 2.892 31384.19
43.732 -104.347 3.026 29214.82
43.732 -103.102 3.129 25471.47
43.732 -101.858 3.074 24923.01
43.732 -100.613 3.034 30660.52
43.732 -99.368 3.050 45270.48
43.732 -98.124 3.103 58501.00
43.732 -96.879 3.098 76644.28
43.732 -95.634 3.131 70978.30
43.732 -94.390 3.087 68934.00
43.732 -93.145 2.975 59169.91
43.732 -91.900 3.059 43115.84
43.732 -90.656 3.072 57713.42
43.732 -89.411 3.016 52047.77
43.732 -88.166 3.030 47210.08
43.732 -86.922 3.010 50215.90
43.732 -85.677 3.019 86390.84
43.732 -84.432 3.046 57294.63
43.732 -83.188 3.092 52150.06
43.732 -81.943 3.151 46063.97
43.732 -80.698 3.145 64797.03
43.732 -79.454 3.103 65370.46
43.732 -78.209 3.088 61164.34
43.732 -76.964 3.143 62999.55
43.732 -75.720 3.210 61010.48
43.732 -74.475 3.256 66876.12
43.732 -73.230 3.250 52497.87
43.732 -71.986 3.257 41938.91
43.732 -70.741 3.236 41024.05
43.732 -69.496 3.109 13089.45
43.732 -68.252 3.084 1448.29
43.732 -67.007 3.034 115.89
43.732 -65.763 3.012 0.00
43.732 -64.518 3.008 0.00
44.632 -134.754 3.005 4.81
44.632 -133.490 3.006 0.00
44.632 -132.227 3.007 0.00
44.632 -130.963 3.001 12.15
44.632 -129.699 3.010 27.78
44.632 -128.435 3.065 123.30
44.632 -127.172 3.063 1309.62
44.632 -125.908 2.909 8053.29
44.632 -124.644 2.820 10204.89
44.632 -123.380 2.800 16163.73
44.632 -122.116 2.859 14207.97
44.632 -120.853 2.913 16372.24
44.632 -119.589 2.859 21640.08
44.632 -118.325 2.834 30322.21
44.632 -117.061 2.963 36161.83
44.632 -115.797 2.940 36320.77
44.632 -114.534 2.844 41684.40
44.632 -113.270 2.944 51028.14
44.632 -112.006 2.958 45610.98
44.632 -110.742 2.848 45788.25
44.632 -109.479 2.932 35180.67
44.632 -108.215 2.957 26619.50
44.632 -106.951 2.903 26683.94
44.632 -105.687 2.877 22567.12
44.632 -104.423 2.966 19916.92
44.632 -103.160 3.050 22127.33
44.632 -101.896 3.086 26619.52
44.632 -100.632 3.080 27469.20
44.632 -99.368 3.126 33400.73
44.632 -98.104 3.203 51960.14
44.632 -96.841 3.175 68759.89
44.632 -95.577 3.187 63189.67
44.632 -94.313 3.126 61161.25
44.632 -93.049 2.995 53729.33
44.632 -91.785 3.080 45138.64
44.632 -90.522 3.112 46362.27
44.632 -89.258 3.059 50279.89
44.632 -87.994 3.064 43446.57
44.632 -86.730 3.022 46135.21
44.632 -85.467 2.996 56215.83
44.632 -84.203 2.995 59610.61
44.632 -82.939 3.065 34953.18
44.632 -81.675 3.147 32707.61
44.632 -80.411 3.159 36407.37
44.632 -79.148 3.115 48943.13
44.632 -77.884 3.035 65432.45
44.632 -76.620 3.125 61084.92
44.632 -75.356 3.235 56791.29
44.632 -74.092 3.192 58242.21
44.632 -72.829 3.182 43663.99
44.632 -71.565 3.117 29410.70
44.632 -70.301 3.057 29459.42
44.632 -69.037 3.013 18364.79
44.632 -67.773 3.023 16692.85
44.632 -66.510 3.007 185.91
44.632 -65.246 3.003 303.80
44.632 -63.982 3.005 291.73
45.531 -135.316 3.005 4.53
45.531 -134.032 3.009 0.00
45.531 -132.748 3.010 7.93
45.531 -131.464 2.997 20.99
45.531 -130.180 3.011 21.38
45.531 -128.897 3.159 117.90
45.531 -127.613 3.446 380.68
45.531 -126.329 3.606 1317.17
45.531 -125.045 3.369 3791.80
45.531 -123.761 2.993 9722.49
45.531 -122.477 2.844 14312.80
45.531 -121.193 2.943 17412.85
45.531 -119.910 2.938 19950.57
45.531 -118.626 2.911 31266.98
45.531 -117.342 2.969 34082.23
45.531 -116.058 2.914 30256.37
45.531 -114.774 2.887 31195.72
45.531 -113.490 2.923 37540.62
45.531 -112.207 2.985 50273.40
45.531 -110.923 2.945 26613.27
45.531 -109.639 3.009 19939.27
45.531 -108.355 2.974 20208.64
45.531 -107.071 2.932 23001.30
45.531 -105.787 2.919 21501.54
45.531 -104.504 3.015 15229.36
45.531 -103.220 3.039 16012.06
45.531 -101.936 3.040 24124.74
45.531 -100.652 3.015 26956.38
45.531 -99.368 3.000 37254.46
45.531 -98.084 3.055 51627.09
45.531 -96.801 3.068 59380.77
45.531 -95.517 3.112 62088.86
45.531 -94.233 3.136 50109.55
45.531 -92.949 3.095 43555.45
45.531 -91.665 3.125 48181.47
45.531 -90.381 3.186 32117.10
45.531 -89.097 3.174 42167.10
45.531 -87.814 3.169 39336.71
45.531 -86.530 3.124 38915.59
45.531 -85.246 3.098 35087.99
45.531 -83.962 3.113 37260.95
45.531 -82.678 3.151 47440.47
45.531 -81.394 3.159 31016.91
45.531 -80.111 3.166 35040.79
45.531 -78.827 3.150 39383.73
45.531 -77.543 3.029 49395.69
45.531 -76.259 3.025 60033.07
45.531 -74.975 3.247 36786.35
45.531 -73.691 3.179 38387.01
45.531 -72.408 3.167 32090.87
45.531 -71.124 3.156 24725.54
45.531 -69.840 3.094 22070.60
45.531 -68.556 2.992 11279.15
45.531 -67.272 2.975 2729.03
45.531 -65.988 2.982 1210.75
45.531 -64.705 2.994 640.29
45.531 -63.421 3.000 389.13
46.431 -135.904 3.003 424.83
46.431 -134.600 3.008 21.09
46.431 -133.295 2.992 16.50
46.431 -131.990 2.955 30.57
46.431 -130.685 3.014 0.00
46.431 -129.380 3.368 223.79
46.431 -128.075 4.181 476.92
46.431 -126.770 4.782 1227.42
46.431 -125.466 4.307 2686.73
46.431 -124.161 3.223 4202.71
46.431 -122.856 2.844 10774.99
46.431 -121.551 2.900 18402.61
46.431 -120.246 2.993 25766.96
46.431 -118.941 3.086 30831.44
46.431 -117.636 3.087 26051.40
46.431 -116.331 2.960 23494.25
46.431 -115.027 2.952 27726.18
46.431 -113.722 2.899 32300.37
46.431 -112.417 2.884 25367.20
46.431 -111.112 2.919 18423.47
46.431 -109.807 3.001 16102.65
46.431 -108.502 2.967 17031.04
46.431 -107.197 2.998 18603.54
46.431 -105.893 3.013 23068.71
46.431 -104.588 2.998 14356.65
46.431 -103.283 2.962 16183.33
46.431 -101.978 2.944 23063.11
46.431 -100.673 3.005 27357.47
46.431 -99.368 2.998 29661.13
46.431 -98.063 3.050 36032.71
46.431 -96.758 3.078 46785.20
46.431 -95.454 3.133 48962.21
46.431 -94.149 3.152 38189.59
46.431 -92.844 3.066 32764.67
46.431 -91.539 3.007 27191.10
46.431 -90.234 3.010 18466.72
46.431 -88.929 3.084 16872.86
46.431 -87.624 3.131 18584.13
46.431 -86.320 3.088 26537.84
46.431 -85.015 3.074 27959.60
46.431 -83.710 3.078 24365.94
46.431 -82.405 3.122 24502.39
46.431 -81.100 3.144 21870.47
46.431 -79.795 3.146 33915.18
46.431 -78.490 3.122 34315.33
46.431 -77.185 3.122 34485.57
46.431 -75.881 3.102 30213.01
46.431 -74.576 3.166 26471.84
46.431 -73.271 3.133 31592.03
46.431 -71.966 3.085 28178.54
46.431 -70.661 3.104 21748.39
46.431 -69.356 3.105 13682.51
46.431 -68.051 3.058 13851.46
46.431 -66.747 3.050 401.59
46.431 -65.442 3.042 562.60
46.431 -64.137 3.028 191.06
46.431 -62.832 3.011 105.88
47.330 -136.522 2.991 124.39
47.330 -135.195 2.983 19.95
47.330 -133.868 2.963 28.97
47.330 -132.541 2.971 2.20
47.330 -131.214 3.162 0.00
47.330 -129.887 3.725 224.79
47.330 -128.561 4.840 899.95
47.330 -127.234 5.345 1912.69
47.330 -125.907 4.514 1875.10
47.330 -124.580 3.206 3207.92
47.330 -123.253 2.797 10906.94
47.330 -121.926 2.830 16678.65
47.330 -120.599 3.005 19642.22
47.330 -119.272 3.146 20230.36
47.330 -117.945 3.085 18508.14
47.330 -116.618 2.937 19268.65
47.330 -115.291 2.924 20835.13
47.330 -113.964 2.919 18911.85
47.330 -112.637 2.924 17703.51
47.330 -111.311 2.912 14402.86
47.330 -109.984 2.982 13215.60
47.330 -108.657 3.016 12416.84
47.330 -107.330 3.053 14129.80
47.330 -106.003 3.062 15652.57
47.330 -104.676 2.984 16398.35
47.330 -103.349 2.947 14929.46
47.330 -102.022 2.963 20819.71
47.330 -100.695 3.027 24928.94
47.330 -99.368 3.037 27987.56
47.330 -98.041 3.082 38213.90
47.330 -96.714 3.144 39776.02
47.330 -95.387 3.129 34823.29
47.330 -94.061 3.141 30451.25
47.330 -92.734 3.098 23311.42
47.330 -91.407 3.066 14555.37
47.330 -90.080 3.016 14422.51
47.330 -88.753 3.083 12426.06
47.330 -87.426 3.121 9251.49
47.330 -86.099 3.183 5953.65
47.330 -84.772 3.238 4524.13
47.330 -83.445 3.225 5388.28
47.330 -82.118 3.202 7319.42
47.330 -80.791 3.167 9540.79
47.330 -79.464 3.138 10735.43
47.330 -78.137 3.116 11152.06
47.330 -76.811 3.108 17759.73
47.330 -75.484 3.078 12199.88
47.330 -74.157 3.078 11020.38
47.330 -72.830 3.088 10361.37
47.330 -71.503 3.091 9716.21
47.330 -70.176 3.089 11333.86
47.330 -68.849 3.083 2136.18
47.330 -67.522 3.097 625.93
47.330 -66.195 3.117 471.81
47.330 -64.868 3.106 316.44
47.330 -63.541 3.068 192.55
47.330 -62.214 3.033 84.75
48.229 -137.170 2.987 46.04
48.229 -135.820 2.966 23.99
48.229 -134.470 3.014 15.72
48.229 -133.120 3.137 3.73
48.229 -131.770 3.472 12.65
48.229 -130.420 4.190 675.98
48.229 -129.070 5.120 1252.22
48.229 -127.720 4.853 2147.30
48.229 -126.370 3.996 1243.57
48.229 -125.020 3.066 5589.50
48.229 -123.670 2.819 13921.89
48.229 -122.320 2.928 14159.55
48.229 -120.969 3.096 15164.36
48.229 -119.619 3.135 12506.24
48.229 -118.269 3.051 13288.95
48.229 -116.919 2.940 16458.09
48.229 -115.569 2.915 15429.53
48.229 -114.219 2.977 13977.14
48.229 -112.869 3.035 13789.73
48.229 -111.519 3.019 8584.97
48.229 -110.169 3.012 9700.46
48.229 -108.819 3.049 9555.25
48.229 -107.469 3.066 11950.97
48.229 -106.119 3.066 11279.05
48.229 -104.769 2.983 17837.51
48.229 -103.418 2.989 12729.26
48.229 -102.068 3.077 16542.40
48.229 -100.718 3.084 19715.03
48.229 -99.368 3.067 23187.15
48.229 -98.018 3.085 22685.74
48.229 -96.668 3.107 24146.16
48.229 -95.318 3.120 27553.02
48.229 -93.968 3.134 18575.89
48.229 -92.618 3.148 7747.86
48.229 -91.268 3.159 7522.34
48.229 -89.918 3.110 5345.74
48.229 -88.568 3.141 6237.75
48.229 -87.217 3.175 3968.50
48.229 -85.867 3.228 3507.74
48.229 -84.517 3.239 2657.46
48.229 -83.167 3.191 2663.20
48.229 -81.817 3.161 3345.40
48.229 -80.467 3.164 3615.68
48.229 -79.117 3.165 4311.09
48.229 -77.767 3.139 3819.68
48.229 -76.417 3.113 3518.95
48.229 -75.067 3.073 2237.58
48.229 -73.717 3.075 1964.24
48.229 -72.367 3.103 1088.24
48.229 -71.017 3.105 801.38
48.229 -69.666 3.080 353.14
48.229 -68.316 3.058 234.12
48.229 -66.966 3.050 389.17
48.229 -65.616 3.059 341.57
48.229 -64.266 3.068 374.07
48.229 -62.916 3.066 266.04
48.229 -61.566 3.083 254.42
49.129 -137.851 3.121 44.37
49.129 -136.477 3.111 20.38
49.129 -135.103 3.181 0.00
49.129 -133.728 3.388 182.81
49.129 -132.354 3.799 672.32
49.129 -130.979 4.492 958.98
49.129 -129.605 4.847 628.07
49.129 -128.231 4.218 2081.52
49.129 -126.856 3.540 3252.57
49.129 -125.482 2.993 12768.12
49.129 -124.107 2.968 15677.75
49.129 -122.733 3.088 12510.08
49.129 -121.359 3.108 9780.35
49.129 -119.984 3.045 10487.86
49.129 -118.610 3.027 10491.70
49.129 -117.235 2.978 10475.00
49.129 -115.861 2.950 9649.77
49.129 -114.487 2.955 8081.39
49.129 -113.112 3.027 9235.22
49.129 -111.738 3.046 7702.24
49.129 -110.363 3.027 7706.11
49.129 -108.989 3.038 9021.31
49.129 -107.615 3.098 9054.16
49.129 -106.240 3.139 10527.79
49.129 -104.866 3.038 11468.60
49.129 -103.491 3.065 13143.70
49.129 -102.117 3.122 11163.45
49.129 -100.743 3.109 11576.27
49.129 -99.368 3.104 10416.82
49.129 -97.994 3.116 11430.86
49.129 -96.619 3.109 10627.36
49.129 -95.245 3.083 9486.51
49.129 -93.871 3.102 2975.84
49.129 -92.496 3.126 3284.07
49.129 -91.122 3.119 3837.72
49.129 -89.747 3.080 3858.28
49.129 -88.373 3.107 3838.99
49.129 -86.999 3.126 4546.51
49.129 -85.624 3.143 3599.84
49.129 -84.250 3.121 2952.98
49.129 -82.875 3.081 3829.87
49.129 -81.501 3.085 3134.42
49.129 -80.127 3.121 4197.50
49.129 -78.752 3.141 2710.54
49.129 -77.378 3.102 2062.14
49.129 -76.003 3.089 1653.55
49.129 -74.629 3.070 1380.91
49.129 -73.255 3.084 951.22
49.129 -71.880 3.100 831.17
49.129 -70.506 3.088 503.54
49.129 -69.131 3.055 431.88
49.129 -67.757 3.027 610.53
49.129 -66.383 3.005 241.16
49.129 -65.008 2.997 144.87
49.129 -63.634 2.998 79.93
49.129 -62.259 3.032 123.85
49.129 -60.885 3.154 140.24
50.028 -138.567 3.409 303.55
50.028 -137.167 3.427 488.85
50.028 -135.767 3.391 415.56
50.028 -134.367 3.540 526.44
50.028 -132.967 3.913 311.70
50.028 -131.567 4.422 609.35
50.028 -130.167 4.337 762.62
50.028 -128.767 3.746 3122.28
50.028 -127.368 3.344 13953.93
50.028 -125.968 3.057 17543.04
50.028 -124.568 3.075 13446.26
50.028 -123.168 3.074 10720.81
50.028 -121.768 2.955 11406.09
50.028 -120.368 2.920 9774.71
50.028 -118.968 2.983 8005.50
50.028 -117.568 2.959 8440.92
50.028 -116.168 2.894 7313.17
50.028 -114.768 2.870 7306.49
50.028 -113.368 2.957 7572.03
50.028 -111.968 3.052 7864.02
50.028 -110.568 3.042 6280.88
50.028 -109.168 2.988 7546.40
50.028 -107.768 3.052 8708.63
50.028 -106.368 3.133 9285.88
50.028 -104.968 3.085 8989.90
50.028 -103.568 3.098 13256.08
50.028 -102.168 3.096 8997.08
50.028 -100.768 3.089 7942.97
50.028 -99.368 3.094 6815.78
50.028 -97.968 3.083 5958.60
50.028 -96.568 3.078 7775.42
50.028 -95.168 3.068 3506.91
50.028 -93.768 3.070 2853.86
50.028 -92.368 3.060 2182.53
50.028 -90.968 3.056 4191.24
50.028 -89.568 3.030 3224.86
50.028 -88.168 3.068 3529.24
50.028 -86.769 3.071 2749.46
50.028 -85.369 3.096 2273.35
50.028 -83.969 3.078 2562.09
50.028 -82.569 3.078 2691.73
50.028 -81.169 3.107 3452.10
50.028 -79.769 3.138 2322.64
50.028 -78.369 3.084 1563.96
50.028 -76.969 3.049 1826.39
50.028 -75.569 3.041 1965.61
50.028 -74.169 3.053 1468.77
50.028 -72.769 3.065 498.85
50.028 -71.369 3.053 256.56
50.028 -69.969 3.029 314.39
50.028 -68.569 3.009 260.52
50.028 -67.169 3.004 458.57
50.028 -65.769 3.011 72.93
50.028 -64.369 3.021 127.88
50.028 -62.969 3.051 43.64
50.028 -61.569 3.130 82.69
50.028 -60.169 3.294 91.89
50.927 -139.320 3.604 812.06
50.927 -137.893 3.614 625.78
50.927 -136.466 3.438 285.70
50.927 -135.040 3.495 2.00
50.927 -133.613 3.831 547.45
50.927 -132.186 4.067 279.69
50.927 -130.759 3.825 1426.40
50.927 -129.332 3.443 18835.89
50.927 -127.905 3.349 23419.24
50.927 -126.478 3.076 13964.74
50.927 -125.052 2.954 14122.56
50.927 -123.625 2.946 11266.21
50.927 -122.198 2.826 10412.22
50.927 -120.771 2.815 7426.87
50.927 -119.344 2.881 8241.96
50.927 -117.917 2.905 9619.04
50.927 -116.490 2.852 7124.96
50.927 -115.064 2.863 6605.62
50.927 -113.637 2.887 6212.63
50.927 -112.210 2.994 7003.04
50.927 -110.783 2.974 5102.40
50.927 -109.356 2.920 6081.70
50.927 -107.929 3.012 7653.69
50.927 -106.502 3.123 8842.22
50.927 -105.076 3.131 9577.86
50.927 -103.649 3.060 12159.29
50.927 -102.222 3.025 11050.80
50.927 -100.795 3.037 6725.63
50.927 -99.368 3.043 5498.13
50.927 -97.941 3.048 4857.75
50.927 -96.514 3.068 3091.14
50.927 -95.088 3.060 3140.64
50.927 -93.661 3.043 2599.70
50.927 -92.234 3.042 2949.25
50.927 -90.807 3.065 4078.36
50.927 -89.380 3.053 2294.52
50.927 -87.953 3.058 2869.02
50.927 -86.526 3.038 3243.25
50.927 -85.100 3.064 2782.79
50.927 -83.673 3.077 1577.33
50.927 -82.246 3.106 2723.28
50.927 -80.819 3.117 2790.64
50.927 -79.392 3.112 1294.74
50.927 -77.965 3.058 1837.13
50.927 -76.538 3.024 1466.52
50.927 -75.112 3.035 1571.39
50.927 -73.685 3.061 1176.85
50.927 -72.258 3.074 298.55
50.927 -70.831 3.046 376.46
50.927 -69.404 3.020 330.06
50.927 -67.977 3.036 312.71
50.927 -66.550 3.088 82.91
50.927 -65.124 3.149 140.87
50.927 -63.697 3.208 67.23
50.927 -62.270 3.259 238.44
50.927 -60.843 3.324 398.37
50.927 -59.416 3.411 639.39
51.827 -140.113 3.510 791.97
51.827 -138.658 3.484 79.92
51.827 -137.203 3.314 0.00
51.827 -135.747 3.386 0.00
51.827 -134.292 3.729 670.32
51.827 -132.837 3.871 427.53
51.827 -131.382 3.590 26518.28
51.827 -129.927 3.410 36180.14
51.827 -128.472 3.291 17099.88
51.827 -127.016 3.039 12469.37
51.827 -125.561 2.885 10951.63
51.827 -124.106 2.881 9764.09
51.827 -122.651 2.809 8422.84
51.827 -121.196 2.827 6203.71
51.827 -119.741 2.906 6138.53
51.827 -118.285 2.928 5815.19
51.827 -116.830 2.863 4806.92
51.827 -115.375 2.858 3920.29
51.827 -113.920 2.862 4469.70
51.827 -112.465 2.927 6038.95
51.827 -111.010 2.955 5791.76
51.827 -109.554 2.940 6533.07
51.827 -108.099 3.006 7633.03
51.827 -106.644 3.127 10853.82
51.827 -105.189 3.144 10654.54
51.827 -103.734 3.028 10901.94
51.827 -102.279 3.026 11990.46
51.827 -100.823 3.056 7037.48
51.827 -99.368 3.059 4690.35
51.827 -97.913 3.068 4548.40
51.827 -96.458 3.051 2457.01
51.827 -95.003 3.030 3171.15
51.827 -93.548 3.046 2866.45
51.827 -92.092 3.071 2646.34
51.827 -90.637 3.115 3369.69
51.827 -89.182 3.081 2484.31
51.827 -87.727 3.060 3316.17
51.827 -86.272 3.046 2994.07
51.827 -84.817 3.078 2228.81
51.827 -83.361 3.111 2192.84
51.827 -81.906 3.130 1895.11
51.827 -80.451 3.114 1596.32
51.827 -78.996 3.101 1829.22
51.827 -77.541 3.091 1874.03
51.827 -76.085 3.097 1373.81
51.827 -74.630 3.134 1012.81
51.827 -73.175 3.192 881.42
51.827 -71.720 3.229 477.33
51.827 -70.265 3.211 505.68
51.827 -68.810 3.196 265.94
51.827 -67.354 3.229 199.79
51.827 -65.899 3.300 213.80
51.827 -64.444 3.368 501.36
51.827 -62.989 3.413 563.90
51.827 -61.534 3.430 532.17
51.827 -60.079 3.414 587.26
51.827 -58.623 3.355 267.75
52.726 -140.948 3.223 83.92
52.726 -139.463 3.195 0.00
52.726 -137.978 3.199 0.00
52.726 -136.493 3.425 394.58
52.726 -135.008 3.798 289.72
52.726 -133.523 3.947 575.37
52.726 -132.038 3.733 2863.81
52.726 -130.553 3.479 4650.12
52.726 -129.068 3.391 3506.61
52.726 -127.583 3.134 3389.20
52.726 -126.098 2.937 4729.25
52.726 -124.613 2.937 6065.05
52.726 -123.128 2.909 4206.53
52.726 -121.643 2.885 4447.36
52.726 -120.158 2.910 4921.75
52.726 -118.673 2.918 5577.37
52.726 -117.188 2.918 4332.33
52.726 -115.703 2.906 3903.86
52.726 -114.218 2.890 4086.21
52.726 -112.733 2.915 7108.95
52.726 -111.248 2.970 7100.18
52.726 -109.763 2.971 7312.28
52.726 -108.278 3.003 9055.71
52.726 -106.793 3.147 12212.64
52.726 -105.308 3.120 11312.81
52.726 -103.823 3.034 11214.35
52.726 -102.338 3.062 10876.88
52.726 -100.853 3.099 8567.06
52.726 -99.368 3.129 4466.48
52.726 -97.883 3.116 3653.27
52.726 -96.398 3.045 2268.87
52.726 -94.913 3.011 3121.79
52.726 -93.428 3.049 2252.54
52.726 -91.943 3.112 2497.55
52.726 -90.458 3.127 2956.86
52.726 -88.973 3.090 2045.84
52.726 -87.488 3.067 2780.14
52.726 -86.003 3.076 3405.51
52.726 -84.518 3.110 2377.80
52.726 -83.033 3.120 1877.26
52.726 -81.548 3.109 1292.68
52.726 -80.063 3.102 1698.27
52.726 -78.578 3.146 2156.17
52.726 -77.093 3.188 1454.12
52.726 -75.608 3.231 1285.26
52.726 -74.123 3.305 1410.50
52.726 -72.638 3.388 862.18
52.726 -71.153 3.439 1070.40
52.726 -69.668 3.447 640.46
52.726 -68.183 3.425 620.62
52.726 -66.698 3.415 537.97
52.726 -65.213 3.414 597.91
52.726 -63.728 3.413 448.98
52.726 -62.243 3.383 498.13
52.726 -60.758 3.329 346.76
52.726 -59.273 3.248 0.00
52.726 -57.788 3.156 0.00
53.625 -141.829 3.034 0.00
53.625 -140.313 3.040 0.00
53.625 -138.796 3.235 0.00
53.625 -137.280 3.561 634.35
53.625 -135.763 3.831 195.80
53.625 -134.247 3.926 995.18
53.625 -132.730 3.840 1323.19
53.625 -131.214 3.556 1342.46
53.625 -129.697 3.451 2057.68
53.625 -128.181 3.153 2731.80
53.625 -126.665 2.960 3325.62
53.625 -125.148 3.012 4567.30
53.625 -123.632 3.035 3155.42
53.625 -122.115 2.972 3530.11
53.625 -120.599 2.913 5175.28
53.625 -119.082 2.901 4560.28
53.625 -117.566 2.950 4571.75
53.625 -116.049 2.944 3675.06
53.625 -114.533 2.920 5047.16
53.625 -113.016 2.936 6167.16
53.625 -111.500 2.947 7543.85
53.625 -109.983 2.977 9225.05
53.625 -108.467 3.035 10196.98
53.625 -106.951 3.124 12915.19
53.625 -105.434 3.112 11978.29
53.625 -103.918 3.109 8525.37
53.625 -102.401 3.110 8781.18
53.625 -100.885 3.137 9517.98
53.625 -99.368 3.172 4190.84
53.625 -97.852 3.146 3045.23
53.625 -96.335 3.069 2331.91
53.625 -94.819 3.046 2302.62
53.625 -93.302 3.091 2098.81
53.625 -91.786 3.107 2515.46
53.625 -90.269 3.090 2191.74
53.625 -88.753 3.086 2558.55
53.625 -87.237 3.078 3521.50
53.625 -85.720 3.088 2764.13
53.625 -84.204 3.090 1487.50
53.625 -82.687 3.083 1167.82
53.625 -81.171 3.084 1287.64
53.625 -79.654 3.087 2191.74
53.625 -78.138 3.140 1701.24
53.625 -76.621 3.197 1272.92
53.625 -75.105 3.248 1111.45
53.625 -73.588 3.312 1510.59
53.625 -72.072 3.381 671.35
53.625 -70.555 3.398 1056.93
53.625 -69.039 3.410 702.63
53.625 -67.523 3.394 619.52
53.625 -66.006 3.354 376.11
53.625 -64.490 3.282 339.68
53.625 -62.973 3.211 252.89
53.625 -61.457 3.153 75.09
53.625 -59.940 3.093 0.00
53.625 -58.424 3.033 0.00
53.625 -56.907 3.005 0.00
54.525 -142.759 3.031 0.00
54.525 -141.209 3.070 0.00
54.525 -139.660 3.384 394.58
54.525 -138.110 3.685 317.70
54.525 -136.560 3.790 399.56
54.525 -135.011 3.792 1040.17
54.525 -133.461 3.771 673.43
54.525 -131.911 3.536 860.21
54.525 -130.362 3.422 2245.92
54.525 -128.812 3.152 2776.26
54.525 -127.262 2.945 3343.31
54.525 -125.713 2.986 4230.82
54.525 -124.163 3.068 3366.05
54.525 -122.613 3.016 3023.38
54.525 -121.064 2.909 4710.08
54.525 -119.514 2.892 4120.59
54.525 -117.964 2.964 3994.25
54.525 -116.415 2.983 3770.80
54.525 -114.865 2.969 4408.01
54.525 -113.315 2.995 5691.02
54.525 -111.766 3.019 8421.50
54.525 -110.216 2.983 10024.41
54.525 -108.666 3.075 11464.03
54.525 -107.117 3.116 12930.85
54.525 -105.567 3.157 10304.37
54.525 -104.017 3.187 7230.41
54.525 -102.468 3.129 7660.43
54.525 -100.918 3.118 7350.72
54.525 -99.368 3.129 5782.97
54.525 -97.819 3.138 2825.22
54.525 -96.269 3.124 2287.55
54.525 -94.719 3.106 2546.38
54.525 -93.170 3.116 2647.27
54.525 -91.620 3.104 1914.02
54.525 -90.070 3.065 2916.03
54.525 -88.520 3.066 2839.17
54.525 -86.971 3.071 2838.13
54.525 -85.421 3.067 1844.54
54.525 -83.871 3.056 1306.66
54.525 -82.322 3.061 1069.90
54.525 -80.772 3.071 1467.48
54.525 -79.222 3.070 2078.89
54.525 -77.673 3.090 1328.61
54.525 -76.123 3.115 802.20
54.525 -74.573 3.136 1271.69
54.525 -73.024 3.175 967.32
54.525 -71.474 3.202 525.31
54.525 -69.924 3.187 537.71
54.525 -68.375 3.171 867.70
54.525 -66.825 3.160 799.88
54.525 -65.275 3.134 264.33
54.525 -63.726 3.080 217.16
54.525 -62.176 3.031 75.92
54.525 -60.626 3.003 0.00
54.525 -59.077 2.986 0.00
54.525 -57.527 2.965 0.00
54.525 -55.977 2.999 0.00
55.424 -143.742 3.147 0.00
55.424 -142.157 3.198 39.96
55.424 -140.572 3.483 564.41
55.424 -138.988 3.727 179.83
55.424 -137.403 3.784 473.48
55.424 -135.818 3.747 1191.13
55.424 -134.233 3.638 366.63
55.424 -132.648 3.423 1364.55
55.424 -131.064 3.367 2246.71
55.424 -129.479 3.184 2653.07
55.424 -127.894 2.938 2729.42
55.424 -126.309 2.946 4212.55
55.424 -124.725 3.065 4151.15
55.424 -123.140 3.000 2698.82
55.424 -121.555 2.879 4396.48
55.424 -119.970 2.896 5665.05
55.424 -118.385 2.953 5013.82
55.424 -116.801 2.985 3767.55
55.424 -115.216 3.025 4991.40
55.424 -113.631 3.047 6592.28
55.424 -112.046 3.073 10048.86
55.424 -110.462 3.052 12703.75
55.424 -108.877 3.039 12859.54
55.424 -107.292 3.129 10998.62
55.424 -105.707 3.156 8892.40
55.424 -104.123 3.168 6608.41
55.424 -102.538 3.126 4920.40
55.424 -100.953 3.086 6673.52
55.424 -99.368 3.090 8502.08
55.424 -97.783 3.142 2411.39
55.424 -96.199 3.164 2864.10
55.424 -94.614 3.122 1754.21
55.424 -93.029 3.113 2583.38
55.424 -91.444 3.091 2098.91
55.424 -89.860 3.052 2829.17
55.424 -88.275 3.055 2176.77
55.424 -86.690 3.046 2596.40
55.424 -85.105 3.032 1528.36
55.424 -83.520 3.042 1538.39
55.424 -81.936 3.059 1032.93
55.424 -80.351 3.064 2166.77
55.424 -78.766 3.066 1771.22
55.424 -77.181 3.059 1275.87
55.424 -75.597 3.052 837.16
55.424 -74.012 3.060 1291.59
55.424 -72.427 3.094 529.47
55.424 -70.842 3.099 358.61
55.424 -69.257 3.075 492.75
55.424 -67.673 3.058 846.03
55.424 -66.088 3.043 402.64
55.424 -64.503 3.030 272.49
55.424 -62.918 3.007 100.88
55.424 -61.334 2.990 0.00
55.424 -59.749 2.988 0.00
55.424 -58.164 2.986 0.00
55.424 -56.579 2.978 0.00
55.424 -54.995 3.056 0.00
56.324 -144.782 3.293 0.00
56.324 -143.160 3.348 453.52
56.324 -141.538 3.504 169.82
56.324 -139.916 3.711 423.57
56.324 -138.294 3.806 826.12
56.324 -136.672 3.755 860.54
56.324 -135.050 3.496 189.30
56.324 -133.428 3.269 1654.15
56.324 -131.806 3.290 2579.99
56.324 -130.184 3.173 2438.30
56.324 -128.563 2.958 2931.41
56.324 -126.941 2.963 3183.53
56.324 -125.319 3.073 5070.35
56.324 -123.697 2.975 4084.68
56.324 -122.075 2.852 4309.09
56.324 -120.453 2.884 4619.80
56.324 -118.831 2.957 5065.58
56.324 -117.209 2.983 4120.72
56.324 -115.587 3.024 5261.39
56.324 -113.965 3.051 8524.29
56.324 -112.343 3.079 12267.34
56.324 -110.722 3.107 14710.65
56.324 -109.100 3.038 11263.40
56.324 -107.478 3.106 9522.21
56.324 -105.856 3.113 5906.35
56.324 -104.234 3.087 7088.24
56.324 -102.612 3.112 5462.52
56.324 -100.990 3.078 7117.37
56.324 -99.368 3.093 6273.87
56.324 -97.746 3.122 4248.78
56.324 -96.124 3.150 1710.26
56.324 -94.502 3.120 2027.85
56.324 -92.881 3.114 3652.42
56.324 -91.259 3.100 1912.07
