47.330 -71.503 3.143 11002.13
47.330 -70.176 3.061 12658.54
47.330 -68.849 3.050 2435.12
47.330 -67.522 3.073 640.26
47.330 -66.195 3.044 375.06
47.330 -64.868 3.007 212.84
47.330 -63.541 2.986 200.41
47.330 -62.214 2.983 103.92
48.229 -137.170 2.979 102.92
48.229 -135.820 2.974 102.92
48.229 -134.470 2.973 100.92
48.229 -133.120 2.973 100.92
48.229 -131.770 2.975 98.92
48.229 -130.420 2.977 98.92
48.229 -129.070 2.981 49.05
48.229 -127.720 2.989 0.00
48.229 -126.370 3.002 0.00
48.229 -125.020 3.011 4.99
48.229 -123.670 3.003 468.93
48.229 -122.320 2.940 1210.69
48.229 -120.969 2.912 2430.29
48.229 -119.619 2.985 2534.27
48.229 -118.269 3.119 2762.44
48.229 -116.919 3.159 5331.75
48.229 -115.569 3.116 3438.02
48.229 -114.219 3.003 2682.18
48.229 -112.869 2.955 4181.94
48.229 -111.519 2.971 2906.91
48.229 -110.169 2.926 2530.50
48.229 -108.819 2.845 939.11
48.229 -107.469 2.809 964.48
48.229 -106.119 2.772 1662.44
48.229 -104.769 2.651 3798.84
48.229 -103.418 2.581 2476.15
48.229 -102.068 2.636 7048.25
48.229 -100.718 2.805 11611.43
48.229 -99.368 3.014 15321.45
48.229 -98.018 3.178 16536.85
48.229 -96.668 3.266 19338.86
48.229 -95.318 3.284 22583.90
48.229 -93.968 3.264 18397.49
48.229 -92.618 3.207 5679.86
48.229 -91.268 3.093 4099.78
48.229 -89.918 2.990 3397.78
48.229 -88.568 2.918 2770.32
48.229 -87.217 2.896 1320.66
48.229 -85.867 2.934 962.55
48.229 -84.517 3.043 1039.10
48.229 -83.167 3.191 1526.71
48.229 -81.817 3.185 1029.68
48.229 -80.467 3.131 1780.01
48.229 -79.117 3.284 1913.69
48.229 -77.767 3.435 2062.38
48.229 -76.417 3.440 1837.02
48.229 -75.067 3.342 1335.89
48.229 -73.717 3.270 1136.99
48.229 -72.367 3.246 922.13
48.229 -71.017 3.192 1223.02
48.229 -69.666 3.097 683.01
48.229 -68.316 3.040 413.80
48.229 -66.966 3.018 522.03
48.229 -65.616 2.998 416.36
48.229 -64.266 2.980 344.44
48.229 -62.916 2.981 116.02
48.229 -61.566 2.990 39.08
49.129 -137.851 2.997 10.52
49.129 -136.477 2.994 0.00
49.129 -135.103 2.985 0.00
49.129 -133.728 2.981 0.00
49.129 -132.354 2.983 0.00
49.129 -130.979 2.987 0.00
49.129 -129.605 2.991 0.00
49.129 -128.231 2.999 0.00
49.129 -126.856 3.018 0.00
49.129 -125.482 3.050 235.75
49.129 -124.107 3.064 925.39
49.129 -122.733 3.025 1570.72
49.129 -121.359 2.986 1049.56
49.129 -119.984 3.009 1736.40
49.129 -118.610 3.068 2218.34
49.129 -117.235 3.054 1174.05
49.129 -115.861 3.004 1328.82
49.129 -114.487 2.924 1352.11
49.129 -113.112 2.890 2888.24
49.129 -111.738 2.911 2435.34
49.129 -110.363 2.889 1634.30
49.129 -108.989 2.838 1639.63
49.129 -107.615 2.798 1311.80
49.129 -106.240 2.784 1135.02
49.129 -104.866 2.772 1790.93
49.129 -103.491 2.772 2385.64
49.129 -102.117 2.802 3531.96
49.129 -100.743 2.861 3851.43
49.129 -99.368 2.965 4632.16
49.129 -97.994 3.078 6640.32
49.129 -96.619 3.168 5439.23
49.129 -95.245 3.198 6506.78
49.129 -93.871 3.194 1051.29
49.129 -92.496 3.193 603.40
49.129 -91.122 3.176 1233.43
49.129 -89.747 3.132 1609.48
49.129 -88.373 3.092 1510.52
49.129 -86.999 3.103 1917.01
49.129 -85.624 3.159 1184.79
49.129 -84.250 3.177 1091.90
49.129 -82.875 3.162 1869.01
49.129 -81.501 3.092 1499.55
49.129 -80.127 3.061 2409.77
49.129 -78.752 3.226 1622.82
49.129 -77.378 3.417 1432.17
49.129 -76.003 3.472 1036.00
49.129 -74.629 3.346 906.25
49.129 -73.255 3.214 458.54
49.129 -71.880 3.180 492.53
49.129 -70.506 3.144 280.87
49.129 -69.131 3.080 401.71
49.129 -67.757 3.030 506.76
49.129 -66.383 3.004 141.88
49.129 -65.008 2.988 23.98
49.129 -63.634 2.982 17.63
49.129 -62.259 2.987 221.18
49.129 -60.885 3.001 298.45
50.028 -138.567 3.026 321.36
50.028 -137.167 3.027 442.71
50.028 -135.767 3.004 0.00
50.028 -134.367 2.990 0.00
50.028 -132.967 2.992 0.00
50.028 -131.567 2.993 0.00
50.028 -130.167 2.988 0.00
50.028 -128.767 2.987 0.00
50.028 -127.368 3.002 194.65
50.028 -125.968 3.031 216.59
50.028 -124.568 3.065 871.20
50.028 -123.168 3.032 1215.83
50.028 -121.768 2.979 1060.04
50.028 -120.368 2.962 1565.91
50.028 -118.968 2.945 968.22
50.028 -117.568 2.911 1408.93
50.028 -116.168 2.873 1344.06
50.028 -114.768 2.851 1002.08
50.028 -113.368 2.843 2483.90
50.028 -111.968 2.853 2317.91
50.028 -110.568 2.854 984.10
50.028 -109.168 2.849 944.13
50.028 -107.768 2.834 828.20
50.028 -106.368 2.840 699.39
50.028 -104.968 2.894 778.27
50.028 -103.568 2.948 2746.21
50.028 -102.168 2.968 1197.85
50.028 -100.768 2.971 1932.03
50.028 -99.368 2.992 1764.16
50.028 -97.968 3.020 2646.38
50.028 -96.568 3.076 3278.80
50.028 -95.168 3.122 1241.13
50.028 -93.768 3.135 681.65
50.028 -92.368 3.149 681.40
50.028 -90.968 3.164 1240.82
50.028 -89.568 3.172 1979.06
50.028 -88.168 3.169 1309.58
50.028 -86.769 3.170 1186.34
50.028 -85.369 3.211 843.15
50.028 -83.969 3.189 919.01
50.028 -82.569 3.101 1347.64
50.028 -81.169 3.047 1922.27
50.028 -79.769 3.061 1184.27
50.028 -78.369 3.209 591.46
50.028 -76.969 3.349 1171.40
50.028 -75.569 3.380 1062.87
50.028 -74.169 3.273 490.13
50.028 -72.769 3.154 563.47
50.028 -71.369 3.096 161.85
50.028 -69.969 3.073 402.73
50.028 -68.569 3.046 320.85
50.028 -67.169 3.015 134.88
50.028 -65.769 2.999 0.00
50.028 -64.369 2.997 0.00
50.028 -62.969 3.005 0.00
50.028 -61.569 3.018 0.00
50.028 -60.169 3.034 88.90
50.927 -139.320 3.049 261.71
50.927 -137.893 3.044 89.90
50.927 -136.466 3.010 0.00
50.927 -135.040 2.994 0.00
50.927 -133.613 2.990 0.00
50.927 -132.186 2.974 0.00
50.927 -130.759 2.946 0.00
50.927 -129.332 2.921 105.88
50.927 -127.905 2.904 209.19
50.927 -126.478 2.925 473.12
50.927 -125.052 2.987 741.85
50.927 -123.625 3.004 1332.77
50.927 -122.198 2.948 1736.26
50.927 -120.771 2.907 1505.68
50.927 -119.344 2.867 1864.23
50.927 -117.917 2.841 2482.59
50.927 -116.490 2.825 1762.58
50.927 -115.064 2.839 1300.78
50.927 -113.637 2.843 1820.52
50.927 -112.210 2.857 1741.42
50.927 -110.783 2.886 329.70
50.927 -109.356 2.906 457.52
50.927 -107.929 2.902 311.67
50.927 -106.502 2.908 920.11
50.927 -105.076 2.977 691.35
50.927 -103.649 3.032 1899.03
50.927 -102.222 3.037 2312.71
50.927 -100.795 3.060 1425.46
50.927 -99.368 3.059 1950.99
50.927 -97.941 3.054 2043.96
50.927 -96.514 3.065 1529.40
50.927 -95.088 3.098 926.12
50.927 -93.661 3.104 782.21
50.927 -92.234 3.105 597.35
50.927 -90.807 3.138 1293.76
50.927 -89.380 3.166 1151.85
50.927 -87.953 3.165 1065.83
50.927 -86.526 3.155 1154.79
50.927 -85.100 3.180 927.03
50.927 -83.673 3.151 650.37
50.927 -82.246 3.055 1627.42
50.927 -80.819 3.021 1542.97
50.927 -79.392 3.087 526.51
50.927 -77.965 3.217 945.07
50.927 -76.538 3.280 380.61
50.927 -75.112 3.296 1222.74
50.927 -73.685 3.244 480.52
50.927 -72.258 3.154 288.72
50.927 -70.831 3.088 280.74
50.927 -69.404 3.058 482.69
50.927 -67.977 3.034 305.86
50.927 -66.550 3.012 0.00
50.927 -65.124 3.008 0.00
50.927 -63.697 3.018 0.00
50.927 -62.270 3.037 88.90
50.927 -60.843 3.052 154.83
50.927 -59.416 3.048 190.82
51.827 -140.113 3.026 16.98
51.827 -138.658 3.018 0.00
51.827 -137.203 2.997 0.00
51.827 -135.747 2.987 0.00
51.827 -134.292 2.983 0.00
51.827 -132.837 2.962 0.00
51.827 -131.382 2.917 1117.50
51.827 -129.927 2.871 2036.19
51.827 -128.472 2.853 1901.89
51.827 -127.016 2.892 2074.17
51.827 -125.561 2.962 1862.37
51.827 -124.106 3.005 2550.69
51.827 -122.651 2.941 1787.40
51.827 -121.196 2.878 1565.71
51.827 -119.741 2.836 1334.82
51.827 -118.285 2.840 1033.14
51.827 -116.830 2.874 663.43
51.827 -115.375 2.906 655.48
51.827 -113.920 2.900 1128.99
51.827 -112.465 2.901 1579.63
51.827 -111.010 2.923 735.29
51.827 -109.554 2.944 355.60
51.827 -108.099 2.949 643.37
51.827 -106.644 2.976 587.42
51.827 -105.189 3.016 1201.81
51.827 -103.734 3.028 1409.63
51.827 -102.279 3.035 3599.31
51.827 -100.823 3.083 2343.58
51.827 -99.368 3.101 2022.91
51.827 -97.913 3.104 2277.64
51.827 -96.458 3.106 510.47
51.827 -95.003 3.115 746.29
51.827 -93.548 3.088 260.70
51.827 -92.092 3.085 584.41
51.827 -90.637 3.145 1196.21
51.827 -89.182 3.171 1158.79
51.827 -87.727 3.155 1168.73
51.827 -86.272 3.149 1014.93
51.827 -84.817 3.173 1017.02
51.827 -83.361 3.134 1248.80
51.827 -81.906 3.041 1262.79
51.827 -80.451 3.002 603.35
51.827 -78.996 3.087 821.22
51.827 -77.541 3.190 770.23
51.827 -76.085 3.238 658.33
51.827 -74.630 3.233 525.45
51.827 -73.175 3.204 534.46
51.827 -71.720 3.162 320.68
51.827 -70.265 3.119 446.60
51.827 -68.810 3.080 538.71
51.827 -67.354 3.037 112.98
51.827 -65.899 3.019 18.98
51.827 -64.444 3.028 90.89
51.827 -62.989 3.043 102.88
51.827 -61.534 3.052 129.88
51.827 -60.079 3.046 123.88
51.827 -58.623 3.026 0.00
52.726 -140.948 2.997 0.00
52.726 -139.463 2.991 0.00
52.726 -137.978 2.985 0.00
52.726 -136.493 2.988 0.00
52.726 -135.008 2.991 0.00
52.726 -133.523 2.972 0.00
52.726 -132.038 2.925 69.03
52.726 -130.553 2.869 307.64
52.726 -129.068 2.844 326.66
52.726 -127.583 2.882 406.06
52.726 -126.098 2.965 601.42
52.726 -124.613 3.042 1454.77
52.726 -123.128 3.002 757.29
52.726 -121.643 2.922 1506.55
52.726 -120.158 2.873 1277.80
52.726 -118.673 2.881 1288.85
52.726 -117.188 2.925 728.25
52.726 -115.703 2.944 727.21
52.726 -114.218 2.919 1252.80
52.726 -112.733 2.915 2247.99
52.726 -111.248 2.943 1621.36
52.726 -109.763 2.949 553.40
52.726 -108.278 2.968 901.09
52.726 -106.793 3.036 1105.85
52.726 -105.308 3.049 1662.27
52.726 -103.823 3.029 2635.34
52.726 -102.338 3.046 3058.87
52.726 -100.853 3.084 2602.31
52.726 -99.368 3.110 1582.37
52.726 -97.883 3.129 1134.82
52.726 -96.398 3.135 560.42
52.726 -94.913 3.099 456.56
52.726 -93.428 3.076 511.43
52.726 -91.943 3.114 957.00
52.726 -90.458 3.177 719.11
52.726 -88.973 3.177 1427.49
52.726 -87.488 3.160 957.98
52.726 -86.003 3.174 1522.46
52.726 -84.518 3.185 1023.09
52.726 -83.033 3.127 1014.15
52.726 -81.548 3.027 619.38
52.726 -80.063 2.970 599.38
52.726 -78.578 3.059 1112.92
52.726 -77.093 3.166 544.45
52.726 -75.608 3.210 559.42
52.726 -74.123 3.194 369.61
52.726 -72.638 3.163 270.75
52.726 -71.153 3.171 664.33
52.726 -69.668 3.168 438.60
52.726 -68.183 3.125 531.74
52.726 -66.698 3.057 144.88
52.726 -65.213 3.030 71.92
52.726 -63.728 3.039 63.94
52.726 -62.243 3.045 146.86
52.726 -60.758 3.031 59.94
52.726 -59.273 3.012 0.00
52.726 -57.788 2.998 0.00
53.625 -141.829 2.985 0.00
53.625 -140.313 2.984 0.00
53.625 -138.796 2.985 0.00
53.625 -137.280 2.989 0.00
53.625 -135.763 2.995 0.00
53.625 -134.247 2.993 0.00
53.625 -132.730 2.969 190.67
53.625 -131.214 2.931 291.47
53.625 -129.697 2.922 347.81
53.625 -128.181 2.959 196.81
53.625 -126.665 3.033 604.44
53.625 -125.148 3.122 885.18
53.625 -123.632 3.099 612.48
53.625 -122.115 2.977 952.15
53.625 -120.599 2.898 955.20
53.625 -119.082 2.890 1122.09
53.625 -117.566 2.908 491.57
53.625 -116.049 2.895 418.56
53.625 -114.533 2.876 1266.89
53.625 -113.016 2.907 1128.96
53.625 -111.500 2.943 1268.79
53.625 -109.983 2.954 576.48
53.625 -108.467 3.010 622.41
53.625 -106.951 3.076 1377.57
53.625 -105.434 3.087 2161.84
53.625 -103.918 3.069 1812.14
53.625 -102.401 3.083 2638.34
53.625 -100.885 3.101 3337.55
53.625 -99.368 3.124 1305.65
53.625 -97.852 3.131 925.03
53.625 -96.335 3.111 386.55
53.625 -94.819 3.084 649.35
53.625 -93.302 3.108 437.53
53.625 -91.786 3.165 1021.01
53.625 -90.269 3.204 731.25
53.625 -88.753 3.183 1397.46
53.625 -87.237 3.162 1694.28
53.625 -85.720 3.175 1150.81
53.625 -84.204 3.172 474.54
53.625 -82.687 3.111 828.17
53.625 -81.171 3.004 459.52
53.625 -79.654 2.945 1402.59
53.625 -78.138 3.050 442.56
53.625 -76.621 3.162 369.61
53.625 -75.105 3.176 369.61
53.625 -73.588 3.155 369.64
53.625 -72.072 3.135 207.81
53.625 -70.555 3.172 518.48
53.625 -69.039 3.208 829.16
53.625 -67.523 3.166 637.68
53.625 -66.006 3.080 25.98
53.625 -64.490 3.038 93.91
53.625 -62.973 3.030 125.87
53.625 -61.457 3.019 30.97
53.625 -59.940 3.002 0.00
53.625 -58.424 2.989 0.00
53.625 -56.907 2.985 0.00
54.525 -142.759 2.986 0.00
54.525 -141.209 2.987 0.00
54.525 -139.660 2.988 0.00
54.525 -138.110 2.988 0.00
54.525 -136.560 2.989 0.00
54.525 -135.011 2.993 0.00
54.525 -133.461 2.990 0.00
54.525 -131.911 2.974 206.86
54.525 -130.362 2.966 348.84
54.525 -128.812 2.989 245.17
54.525 -127.262 3.048 805.36
54.525 -125.713 3.132 505.55
54.525 -124.163 3.117 1089.93
54.525 -122.613 2.965 744.37
54.525 -121.064 2.868 1134.08
54.525 -119.514 2.864 1046.13
54.525 -117.964 2.878 701.37
54.525 -116.415 2.881 470.74
54.525 -114.865 2.900 991.00
54.525 -113.315 2.943 947.05
54.525 -111.766 2.973 1607.50
54.525 -110.216 3.004 687.37
54.525 -108.666 3.079 1291.68
54.525 -107.117 3.116 1902.10
54.525 -105.567 3.126 2025.87
54.525 -104.017 3.115 2646.23
54.525 -102.468 3.123 2045.12
54.525 -100.918 3.136 2529.36
54.525 -99.368 3.133 1781.19
54.525 -97.819 3.098 337.63
54.525 -96.269 3.075 536.42
54.525 -94.719 3.111 843.14
54.525 -93.170 3.156 845.17
54.525 -91.620 3.183 691.28
54.525 -90.070 3.194 1181.82
54.525 -88.520 3.170 1519.47
54.525 -86.971 3.147 1383.56
54.525 -85.421 3.172 588.55
54.525 -83.871 3.145 627.35
54.525 -82.322 3.080 796.21
54.525 -80.772 3.000 619.37
54.525 -79.222 2.968 1062.94
54.525 -77.673 3.074 436.55
54.525 -76.123 3.151 143.85
54.525 -74.573 3.154 553.43
54.525 -73.024 3.120 248.73
54.525 -71.474 3.100 150.85
54.525 -69.924 3.141 267.72
54.525 -68.375 3.188 444.57
54.525 -66.825 3.165 1107.04
54.525 -65.275 3.080 99.90
54.525 -63.726 3.027 97.90
54.525 -62.176 3.007 0.00
54.525 -60.626 2.995 0.00
54.525 -59.077 2.987 0.00
54.525 -57.527 2.984 0.00
54.525 -55.977 2.986 0.00
55.424 -143.742 2.988 0.00
55.424 -142.157 2.989 0.00
55.424 -140.572 2.989 0.00
55.424 -138.988 2.988 0.00
55.424 -137.403 2.987 0.00
55.424 -135.818 2.989 0.00
55.424 -134.233 2.991 0.00
55.424 -132.648 2.989 224.33
55.424 -131.064 2.985 391.64
55.424 -129.479 2.999 381.89
55.424 -127.894 3.038 511.34
55.424 -126.309 3.126 401.60
55.424 -124.725 3.115 1209.90
55.424 -123.140 2.957 389.68
55.424 -121.555 2.857 1089.18
55.424 -119.970 2.863 1960.37
55.424 -118.385 2.892 1041.18
55.424 -116.801 2.939 802.21
55.424 -115.216 2.975 892.10
55.424 -113.631 3.005 1006.95
55.424 -112.046 3.029 1928.12
55.424 -110.462 3.100 1357.64
55.424 -108.877 3.144 1836.11
55.424 -107.292 3.152 2433.47
55.424 -105.707 3.140 2618.27
55.424 -104.123 3.138 1805.16
55.424 -102.538 3.151 1155.77
55.424 -100.953 3.169 1458.56
55.424 -99.368 3.116 2543.38
55.424 -97.783 3.077 752.15
55.424 -96.199 3.080 950.04
55.424 -94.614 3.128 338.68
55.424 -93.029 3.159 857.16
55.424 -91.444 3.179 1131.89
55.424 -89.860 3.181 1171.84
55.424 -88.275 3.164 1139.82
55.424 -86.690 3.162 1068.89
55.424 -85.105 3.183 551.44
55.424 -83.520 3.134 943.05
55.424 -81.936 3.056 468.51
55.424 -80.351 2.993 1139.85
55.424 -78.766 3.005 622.40
55.424 -77.181 3.095 344.87
55.424 -75.597 3.137 237.76
55.424 -74.012 3.139 342.64
55.424 -72.427 3.103 168.83
55.424 -70.842 3.075 0.00
55.424 -69.257 3.102 338.64
55.424 -67.673 3.131 395.65
55.424 -66.088 3.097 113.89
55.424 -64.503 3.037 64.93
55.424 -62.918 3.000 0.00
55.424 -61.334 2.989 0.00
55.424 -59.749 2.985 0.00
55.424 -58.164 2.985 0.00
55.424 -56.579 2.987 0.00
55.424 -54.995 2.988 0.00
56.324 -144.782 2.989 0.00
56.324 -143.160 2.989 0.00
56.324 -141.538 2.988 0.00
56.324 -139.916 2.988 0.00
56.324 -138.294 2.988 0.00
56.324 -136.672 2.989 0.00
56.324 -135.050 2.997 0.00
56.324 -133.428 3.005 335.87
56.324 -131.806 3.006 526.46
56.324 -130.184 3.010 638.45
56.324 -128.563 3.037 262.55
56.324 -126.941 3.115 617.78
56.324 -125.319 3.093 918.12
56.324 -123.697 2.989 504.69
56.324 -122.075 2.903 1042.83
56.324 -120.453 2.903 1280.91
56.324 -118.831 2.948 1125.82
56.324 -117.209 2.998 1346.56
56.324 -115.587 3.019 759.19
56.324 -113.965 3.035 932.09
56.324 -112.343 3.066 1134.86
56.324 -110.722 3.142 2648.40
56.324 -109.100 3.176 2502.46
56.324 -107.478 3.162 2623.28
56.324 -105.856 3.138 1938.06
56.324 -104.234 3.143 1124.82
56.324 -102.612 3.170 873.10
56.324 -100.990 3.176 1450.54
56.324 -99.368 3.131 2361.58
56.324 -97.746 3.085 1230.77
56.324 -96.124 3.092 390.62
56.324 -94.502 3.133 592.37
56.324 -92.881 3.181 1785.31
56.324 -91.259 3.199 654.33
56.324 -89.637 3.203 744.28
56.324 -88.015 3.187 1220.72
56.324 -86.393 3.184 1223.72
56.324 -84.771 3.191 534.43
56.324 -83.149 3.146 822.18
56.324 -81.527 3.047 906.07
56.324 -79.905 2.966 1011.17
56.324 -78.283 3.004 305.71
56.324 -76.661 3.090 35.96
56.324 -75.040 3.135 339.67
56.324 -73.418 3.132 282.69
56.324 -71.796 3.098 59.94
56.324 -70.174 3.081 287.72
56.324 -68.552 3.082 462.57
56.324 -66.930 3.067 97.90
56.324 -65.308 3.029 29.97
56.324 -63.686 2.995 0.00
56.324 -62.064 2.983 0.00
56.324 -60.442 2.984 0.00
56.324 -58.820 2.986 0.00
56.324 -57.199 2.988 0.00
56.324 -55.577 2.989 0.00
56.324 -53.955 2.989 0.00
57.223 -145.883 2.988 0.00
57.223 -144.222 2.988 0.00
57.223 -142.561 2.988 0.00
57.223 -140.899 2.988 0.00
57.223 -139.238 2.988 0.00
57.223 -137.577 2.993 0.00
57.223 -135.916 3.011 217.65
57.223 -134.254 3.032 358.87
57.223 -132.593 3.035 730.30
57.223 -130.932 3.011 697.41
57.223 -129.271 3.035 163.88
57.223 -127.609 3.102 1080.24
57.223 -125.948 3.046 751.51
57.223 -124.287 2.989 967.12
57.223 -122.626 2.930 578.49
57.223 -120.964 2.923 334.66
57.223 -119.303 2.945 773.25
57.223 -117.642 2.975 454.56
57.223 -115.981 2.994 86.93
57.223 -114.319 3.016 1313.75
57.223 -112.658 3.080 1730.24
57.223 -110.997 3.129 3844.17
57.223 -109.336 3.138 3219.63
57.223 -107.674 3.125 2158.82
57.223 -106.013 3.111 1471.47
57.223 -104.352 3.147 914.08
57.223 -102.691 3.189 1404.51
57.223 -101.029 3.186 1119.80
57.223 -99.368 3.156 816.20
57.223 -97.707 3.101 2485.49
57.223 -96.046 3.114 1445.53
57.223 -94.384 3.156 1314.68
57.223 -92.723 3.212 949.07
57.223 -91.062 3.251 690.34
57.223 -89.401 3.234 1027.93
57.223 -87.739 3.182 1440.46
57.223 -86.078 3.175 819.13
57.223 -84.417 3.177 660.33
57.223 -82.756 3.139 597.45
57.223 -81.094 3.008 1014.02
57.223 -79.433 2.920 629.37
57.223 -77.772 2.997 169.82
57.223 -76.111 3.102 141.87
57.223 -74.449 3.144 321.68
57.223 -72.788 3.141 365.59
57.223 -71.127 3.099 265.76
57.223 -69.466 3.070 280.74
57.223 -67.805 3.056 206.78
57.223 -66.143 3.022 0.00
57.223 -64.482 2.991 0.00
57.223 -62.821 2.980 0.00
57.223 -61.160 2.984 0.00
57.223 -59.498 2.987 0.00
57.223 -57.837 2.988 0.00
57.223 -56.176 2.989 0.00
57.223 -54.515 2.989 0.00
57.223 -52.853 2.988 0.00
58.122 -147.051 2.988 0.00
58.122 -145.348 2.988 0.00
58.122 -143.645 2.989 0.00
58.122 -141.942 2.988 0.00
58.122 -140.239 2.987 0.00
58.122 -138.537 2.991 0.00
58.122 -136.834 3.017 74.93
58.122 -135.131 3.058 634.52
58.122 -133.428 3.057 869.31
58.122 -131.725 3.016 600.58
58.122 -130.022 3.034 1239.74
58.122 -128.319 3.081 858.26
58.122 -126.616 3.033 324.20
58.122 -124.913 2.998 760.16
58.122 -123.210 2.938 531.52
58.122 -121.507 2.911 276.72
58.122 -119.804 2.913 547.42
58.122 -118.101 2.941 655.38
58.122 -116.398 2.975 328.74
58.122 -114.695 3.033 1488.52
58.122 -112.992 3.095 2710.30
58.122 -111.289 3.109 4499.46
58.122 -109.586 3.076 2689.30
58.122 -107.883 3.062 1921.00
58.122 -106.180 3.103 867.15
58.122 -104.477 3.154 1024.90
58.122 -102.774 3.174 1501.49
58.122 -101.071 3.146 732.26
58.122 -99.368 3.113 680.28
58.122 -97.665 3.096 2919.05
58.122 -95.962 3.090 1711.32
58.122 -94.259 3.139 1035.02
58.122 -92.556 3.212 716.38
58.122 -90.853 3.242 914.06
58.122 -89.150 3.179 615.35
58.122 -87.447 3.125 1106.81
58.122 -85.744 3.150 704.27
58.122 -84.041 3.166 969.09
58.122 -82.339 3.124 896.14
58.122 -80.636 2.979 453.58
58.122 -78.933 2.906 492.46
58.122 -77.230 3.011 99.91
58.122 -75.527 3.123 385.63
58.122 -73.824 3.160 416.54
58.122 -72.121 3.133 288.74
58.122 -70.418 3.073 167.85
58.122 -68.715 3.035 152.84
58.122 -67.012 3.017 115.88
58.122 -65.309 2.995 0.00
58.122 -63.606 2.983 0.00
58.122 -61.903 2.984 0.00
58.122 -60.200 2.988 0.00
58.122 -58.497 2.989 0.00
58.122 -56.794 2.989 0.00
58.122 -55.091 2.988 0.00
58.122 -53.388 2.988 0.00
58.122 -51.685 2.988 0.00
59.022 -148.292 2.989 0.00
59.022 -146.545 2.989 0.00
59.022 -144.798 2.989 0.00
59.022 -143.050 2.988 0.00
59.022 -141.303 2.986 0.00
59.022 -139.556 2.989 0.00
59.022 -137.808 3.015 160.86
59.022 -136.061 3.063 1081.84
59.022 -134.314 3.065 1776.14
59.022 -132.567 3.029 548.83
59.022 -130.819 3.047 843.49
59.022 -129.072 3.082 1046.23
59.022 -127.325 3.045 343.82
59.022 -125.577 3.009 1054.70
59.022 -123.830 2.944 575.11
59.022 -122.083 2.906 586.38
59.022 -120.336 2.911 502.51
59.022 -118.588 2.933 519.49
59.022 -116.841 2.980 1313.73
59.022 -115.094 3.056 3366.67
59.022 -113.346 3.107 4248.63
59.022 -111.599 3.104 3179.81
59.022 -109.852 3.078 1640.38
59.022 -108.105 3.091 431.57
59.022 -106.357 3.142 891.00
59.022 -104.610 3.166 1286.69
59.022 -102.863 3.153 963.07
59.022 -101.115 3.132 1446.56
59.022 -99.368 3.090 1597.37
59.022 -97.621 3.054 670.30
59.022 -95.874 3.049 2510.46
59.022 -94.126 3.106 1267.67
59.022 -92.379 3.160 605.39
59.022 -90.632 3.163 555.45
59.022 -88.884 3.113 434.56
59.022 -87.137 3.087 1377.57
59.022 -85.390 3.152 875.13
59.022 -83.643 3.190 912.14
59.022 -81.895 3.124 576.46
59.022 -80.148 2.973 218.78
59.022 -78.401 2.927 728.22
59.022 -76.654 3.041 354.65
59.022 -74.906 3.118 162.86
59.022 -73.159 3.139 444.57
59.022 -71.412 3.098 222.76
59.022 -69.664 3.031 90.90
59.022 -67.917 2.999 19.98
59.022 -66.170 2.991 14.84
59.022 -64.423 2.987 0.00
59.022 -62.675 2.986 0.00
59.022 -60.928 2.988 0.00
59.022 -59.181 2.989 0.00
59.022 -57.433 2.989 0.00
59.022 -55.686 2.988 0.00
59.022 -53.939 2.988 0.00
59.022 -52.192 2.988 0.00
59.022 -50.444 2.989 0.00
59.921 -149.612 2.989 6.15
59.921 -147.818 2.989 4.47
59.921 -146.023 2.987 0.00
59.921 -144.229 2.984 0.00
59.921 -142.434 2.983 0.00
59.921 -140.640 2.984 33.94
59.921 -138.845 3.005 637.77
59.921 -137.051 3.057 1368.93
59.921 -135.257 3.081 2000.07
59.921 -133.462 3.053 1155.10
59.921 -131.668 3.060 647.51
59.921 -129.873 3.085 1317.83
59.921 -128.079 3.052 871.19
59.921 -126.284 3.001 942.07
59.921 -124.490 2.933 1345.06
59.921 -122.696 2.918 584.15
59.921 -120.901 2.939 345.67
59.921 -119.107 2.959 517.56
59.921 -117.312 3.029 2835.17
59.921 -115.518 3.073 4268.59
59.921 -113.724 3.111 3099.88
59.921 -111.929 3.112 1842.11
59.921 -110.135 3.125 1051.00
59.921 -108.340 3.130 1001.94
59.921 -106.546 3.147 749.24
59.921 -104.751 3.172 1753.23
59.921 -102.957 3.168 2094.88
59.921 -101.163 3.118 831.18
59.921 -99.368 3.082 477.53
59.921 -97.574 3.074 943.04
59.921 -95.779 3.073 2019.91
59.921 -93.985 3.089 969.62
59.921 -92.191 3.113 603.05
59.921 -90.396 3.106 546.47
59.921 -88.602 3.098 527.48
59.921 -86.807 3.105 1098.82
59.921 -85.013 3.194 1149.88
59.921 -83.218 3.225 942.11
59.921 -81.424 3.114 384.63
59.921 -79.630 2.959 703.24
59.921 -77.835 2.950 324.69
59.921 -76.041 3.049 150.88
59.921 -74.246 3.100 400.63
59.921 -72.452 3.090 215.75
59.921 -70.657 3.052 103.88
59.921 -68.863 3.005 99.90
59.921 -67.069 2.986 0.00
59.921 -65.274 2.985 0.00
59.921 -63.480 2.987 0.00
59.921 -61.685 2.988 0.00
59.921 -59.891 2.989 0.00
59.921 -58.097 2.989 0.00
59.921 -56.302 2.988 0.00
59.921 -54.508 2.988 0.00
59.921 -52.713 2.988 0.00
59.921 -50.919 2.988 0.00
59.921 -49.124 2.988 0.00
60.820 -151.018 2.987 0.00
60.820 -149.173 2.986 86.28
60.820 -147.329 2.978 22.32
60.820 -145.484 2.968 358.37
60.820 -143.639 2.970 67.36
60.820 -141.795 2.976 11.95
60.820 -139.950 2.999 387.32
60.820 -138.106 3.061 1186.29
60.820 -136.261 3.093 1336.97
60.820 -134.416 3.077 1784.23
60.820 -132.572 3.077 1083.31
60.820 -130.727 3.092 615.55
60.820 -128.882 3.060 1200.93
60.820 -127.038 2.988 350.71
60.820 -125.193 2.943 1410.52
60.820 -123.348 2.944 262.43
60.820 -121.504 2.968 412.66
60.820 -119.659 3.030 2644.38
60.820 -117.815 3.072 5164.70
60.820 -115.970 3.095 2709.22
60.820 -114.125 3.110 1440.52
60.820 -112.281 3.132 818.11
60.820 -110.436 3.143 2076.99
60.820 -108.591 3.150 1285.74
60.820 -106.747 3.170 2083.87
60.820 -104.902 3.172 1651.34
60.820 -103.057 3.143 548.43
60.820 -101.213 3.110 1159.82
60.820 -99.368 3.094 978.07
60.820 -97.524 3.100 588.41
60.820 -95.679 3.102 669.30
60.820 -93.834 3.091 2395.06
60.820 -91.990 3.091 505.94
60.820 -90.145 3.091 373.67
60.820 -88.300 3.123 402.58
60.820 -86.456 3.163 1416.51
60.820 -84.611 3.255 1798.26
60.820 -82.766 3.230 456.56
60.820 -80.922 3.060 305.70
60.820 -79.077 2.921 448.51
60.820 -77.233 2.958 413.64
60.820 -75.388 3.040 261.76
60.820 -73.543 3.065 149.83
60.820 -71.699 3.050 101.88
60.820 -69.854 3.027 143.84
60.820 -68.009 2.998 60.94
60.820 -66.165 2.987 0.00
60.820 -64.320 2.987 0.00
60.820 -62.475 2.988 0.00
60.820 -60.631 2.988 0.00
60.820 -58.786 2.988 0.00
60.820 -56.942 2.988 0.00
60.820 -55.097 2.988 0.00
60.820 -53.252 2.988 0.00
60.820 -51.408 2.988 0.00
60.820 -49.563 2.989 0.00
60.820 -47.718 2.988 0.00
61.720 -152.518 2.984 0.00
61.720 -150.620 2.981 57.98
61.720 -148.722 2.967 506.18
61.720 -146.824 2.952 416.83
61.720 -144.926 2.951 957.71
61.720 -143.027 2.960 278.83
61.720 -141.129 2.987 181.50
61.720 -139.231 3.043 915.87
61.720 -137.333 3.083 1345.58
61.720 -135.434 3.066 1919.18
61.720 -133.536 3.068 1429.33
61.720 -131.638 3.072 1504.04
61.720 -129.740 3.046 782.48
61.720 -127.842 2.984 1120.37
61.720 -125.943 2.985 1076.38
61.720 -124.045 3.012 559.14
61.720 -122.147 3.108 2687.88
61.720 -120.249 3.142 6574.82
61.720 -118.350 3.109 2510.45
61.720 -116.452 3.078 1232.68
61.720 -114.554 3.109 1364.59
61.720 -112.656 3.146 1589.37
61.720 -110.758 3.159 2698.34
61.720 -108.859 3.159 1385.58
61.720 -106.961 3.166 1602.40
61.720 -105.063 3.156 1136.50
61.720 -103.165 3.126 743.26
61.720 -101.266 3.109 644.40
61.720 -99.368 3.117 1098.90
61.720 -97.470 3.127 1003.06
61.720 -95.572 3.126 711.36
61.720 -93.674 3.103 1455.52
61.720 -91.775 3.091 1067.30
61.720 -89.877 3.130 652.38
61.720 -87.979 3.169 798.19
61.720 -86.081 3.214 2109.85
61.720 -84.182 3.273 1018.04
61.720 -82.284 3.201 199.83
61.720 -80.386 2.995 307.70
61.720 -78.488 2.875 786.23
61.720 -76.590 2.935 107.90
61.720 -74.691 3.013 99.91
61.720 -72.793 3.044 100.88
61.720 -70.895 3.037 67.04
61.720 -68.997 3.015 171.81
61.720 -67.098 2.994 0.00
61.720 -65.200 2.987 0.00
61.720 -63.302 2.988 0.00
61.720 -61.404 2.988 0.00
61.720 -59.505 2.988 0.00
61.720 -57.607 2.988 0.00
61.720 -55.709 2.988 0.00
61.720 -53.811 2.988 0.00
61.720 -51.913 2.988 0.00
61.720 -50.014 2.989 0.00
61.720 -48.116 2.989 0.00
61.720 -46.218 2.988 0.00
62.619 -154.123 2.983 58.67
62.619 -152.167 2.980 144.99
62.619 -150.212 2.969 190.87
62.619 -148.256 2.957 525.09
62.619 -146.301 2.955 422.66
62.619 -144.345 2.956 1565.98
62.619 -142.390 2.984 923.65
62.619 -140.434 3.032 951.93
62.619 -138.479 3.070 2279.90
62.619 -136.523 3.041 2106.16
62.619 -134.567 3.054 1950.73
62.619 -132.612 3.057 1879.93
62.619 -130.656 3.050 1631.94
62.619 -128.701 3.017 1241.55
62.619 -126.745 3.046 1581.69
62.619 -124.790 3.161 3786.98
62.619 -122.834 3.265 7827.00
62.619 -120.879 3.227 2428.62
62.619 -118.923 3.105 2160.97
62.619 -116.968 3.046 2690.40
62.619 -115.012 3.066 2781.52
62.619 -113.057 3.113 1582.43
62.619 -111.101 3.151 1828.15
62.619 -109.146 3.188 1490.69
62.619 -107.190 3.181 1339.72
62.619 -105.235 3.139 810.66
62.619 -103.279 3.122 820.25
62.619 -101.324 3.135 824.22
62.619 -99.368 3.156 593.46
62.619 -97.413 3.151 703.34
62.619 -95.457 3.128 790.24
62.619 -93.502 3.112 681.33
62.619 -91.546 3.129 2659.93
62.619 -89.591 3.196 489.03
62.619 -87.635 3.214 1325.65
62.619 -85.680 3.258 2178.88
62.619 -83.724 3.280 275.76
62.619 -81.769 3.155 380.66
62.619 -79.813 2.935 441.58
62.619 -77.858 2.828 452.52
62.619 -75.902 2.914 0.00
62.619 -73.946 3.005 100.91
62.619 -71.991 3.046 101.88
62.619 -70.035 3.040 108.87
62.619 -68.080 3.012 95.90
62.619 -66.124 2.992 0.00
62.619 -64.169 2.986 0.00
62.619 -62.213 2.987 0.00
62.619 -60.258 2.988 0.00
62.619 -58.302 2.988 0.00
62.619 -56.347 2.988 0.00
62.619 -54.391 2.988 0.00
62.619 -52.436 2.988 0.00
62.619 -50.480 2.989 0.00
62.619 -48.525 2.988 0.00
62.619 -46.569 2.988 0.00
62.619 -44.614 2.987 0.00
63.518 -155.841 2.983 38.96
63.518 -153.824 2.979 86.18
63.518 -151.807 2.968 603.06
63.518 -149.790 2.958 1083.02
63.518 -147.773 2.952 1452.70
63.518 -145.757 2.957 1477.59
63.518 -143.740 2.984 2158.96
63.518 -141.723 3.043 1679.72
63.518 -139.706 3.098 2175.13
63.518 -137.689 3.075 2500.68
63.518 -135.672 3.063 1894.71
63.518 -133.655 3.045 2327.35
63.518 -131.638 3.060 3486.50
63.518 -129.622 3.020 3308.03
63.518 -127.605 3.008 3629.59
63.518 -125.588 3.140 10173.77
63.518 -123.571 3.230 3923.38
63.518 -121.554 3.204 3015.35
63.518 -119.537 3.138 2639.13
63.518 -117.520 3.071 2000.08
63.518 -115.503 3.080 1340.66
63.518 -113.486 3.130 924.12
63.518 -111.470 3.167 1378.16
63.518 -109.453 3.193 1818.63
63.518 -107.436 3.191 881.25
63.518 -105.419 3.162 765.93
63.518 -103.402 3.135 710.22
63.518 -101.385 3.139 478.53
63.518 -99.368 3.138 604.43
63.518 -97.351 3.118 761.31
63.518 -95.334 3.087 909.21
63.518 -93.318 3.098 1049.05
63.518 -91.301 3.168 2079.06
63.518 -89.284 3.244 1712.08
63.518 -87.267 3.274 2785.23
63.518 -85.250 3.314 971.10
63.518 -83.233 3.278 514.55
63.518 -81.216 3.094 198.79
63.518 -79.199 2.884 204.80
63.518 -77.182 2.822 403.56
63.518 -75.166 2.936 73.93
63.518 -73.149 3.039 81.91
63.518 -71.132 3.069 181.85
63.518 -69.115 3.051 331.71
63.518 -67.098 3.015 0.00
63.518 -65.081 2.991 0.00
63.518 -63.064 2.986 0.00
63.518 -61.047 2.988 0.00
63.518 -59.030 2.989 0.00
63.518 -57.014 2.988 0.00
63.518 -54.997 2.988 0.00
63.518 -52.980 2.988 0.00
63.518 -50.963 2.988 0.00
63.518 -48.946 2.988 0.00
63.518 -46.929 2.988 0.00
63.518 -44.912 2.987 0.00
63.518 -42.895 2.987 0.00
64.418 -157.686 2.986 0.00
64.418 -155.603 2.986 0.00
64.418 -153.520 2.976 13.95
64.418 -151.437 2.958 277.99
64.418 -149.355 2.935 863.13
64.418 -147.272 2.918 1458.24
64.418 -145.189 2.928 1711.01
64.418 -143.106 2.977 2098.81
64.418 -141.023 3.056 1980.13
64.418 -138.941 3.090 3461.46
64.418 -136.858 3.062 2636.48
64.418 -134.775 3.045 2857.27
64.418 -132.692 3.071 1752.06
64.418 -130.610 3.035 1922.98
64.418 -128.527 2.965 3163.23
64.418 -126.444 3.017 2693.31
64.418 -124.361 3.145 2885.19
64.418 -122.279 3.230 2401.35
64.418 -120.196 3.188 1534.14
64.418 -118.113 3.152 1176.65
64.418 -116.030 3.157 989.35
64.418 -113.948 3.156 624.40
64.418 -111.865 3.147 706.30
64.418 -109.782 3.154 1612.68
64.418 -107.699 3.145 763.26
64.418 -105.616 3.116 637.41
64.418 -103.534 3.089 899.09
64.418 -101.451 3.078 805.22
64.418 -99.368 3.068 685.46
64.418 -97.285 3.060 614.51
64.418 -95.203 3.062 571.30
64.418 -93.120 3.085 1049.13
64.418 -91.037 3.155 1322.81
64.418 -88.954 3.214 5028.62
64.418 -86.872 3.265 3509.68
64.418 -84.789 3.306 718.42
64.418 -82.706 3.226 439.66
64.418 -80.623 3.029 313.80
64.418 -78.541 2.841 568.49
64.418 -76.458 2.864 325.78
64.418 -74.375 3.004 369.74
64.418 -72.292 3.096 378.71
64.418 -70.210 3.090 186.88
64.418 -68.127 3.050 91.91
64.418 -66.044 3.013 40.32
64.418 -63.961 2.992 0.00
64.418 -61.878 2.988 0.00
64.418 -59.796 2.989 0.00
64.418 -57.713 2.989 0.00
64.418 -55.630 2.989 0.00
64.418 -53.547 2.989 0.00
64.418 -51.465 2.988 0.00
64.418 -49.382 2.988 0.00
64.418 -47.299 2.988 0.00
64.418 -45.216 2.987 0.00
64.418 -43.134 2.985 85.36
64.418 -41.051 2.984 7.20
65.317 -159.670 2.984 0.00
65.317 -157.516 2.985 0.00
65.317 -155.363 2.983 0.00
65.317 -153.209 2.974 0.00
65.317 -151.055 2.956 21.29
65.317 -148.902 2.928 290.24
65.317 -146.748 2.905 1370.46
65.317 -144.595 2.914 2213.76
65.317 -142.441 2.963 1980.91
65.317 -140.287 2.996 2616.75
65.317 -138.134 2.956 1355.42
65.317 -135.980 2.951 968.14
65.317 -133.826 2.986 1414.73
65.317 -131.673 2.961 1219.94
65.317 -129.519 2.934 1808.00
65.317 -127.365 2.990 815.55
65.317 -125.212 3.106 393.33
65.317 -123.058 3.139 788.41
65.317 -120.905 3.141 1218.48
65.317 -118.751 3.163 1256.17
65.317 -116.597 3.180 1137.97
65.317 -114.444 3.166 1643.63
65.317 -112.290 3.160 1830.23
65.317 -110.136 3.161 647.85
65.317 -107.983 3.143 145.85
65.317 -105.829 3.111 214.80
65.317 -103.675 3.079 149.86
65.317 -101.522 3.055 233.77
65.317 -99.368 3.051 100.91
65.317 -97.215 3.060 99.91
65.317 -95.061 3.077 142.87
65.317 -92.907 3.090 393.62
65.317 -90.754 3.131 444.40
65.317 -88.600 3.178 585.10
65.317 -86.446 3.203 510.55
65.317 -84.293 3.215 546.46
65.317 -82.139 3.138 181.81
65.317 -79.985 2.957 146.86
65.317 -77.832 2.806 557.41
65.317 -75.678 2.898 189.82
65.317 -73.525 3.046 208.81
65.317 -71.371 3.105 192.79
65.317 -69.217 3.071 50.95
65.317 -67.064 3.028 0.00
65.317 -64.910 3.002 21.32
65.317 -62.756 2.990 0.00
65.317 -60.603 2.988 0.00
65.317 -58.449 2.988 0.00
65.317 -56.295 2.988 0.00
65.317 -54.142 2.988 0.00
65.317 -51.988 2.989 0.00
65.317 -49.835 2.989 0.00
65.317 -47.681 2.989 0.00
65.317 -45.527 2.988 0.00
65.317 -43.374 2.987 0.00
65.317 -41.220 2.985 0.00
65.317 -39.066 2.982 78.09
66.216 -161.810 2.980 175.80
66.216 -159.580 2.979 91.48
66.216 -157.350 2.982 93.54
66.216 -155.120 2.984 96.62
66.216 -152.890 2.980 99.71
66.216 -150.660 2.962 115.96
66.216 -148.430 2.927 336.21
66.216 -146.200 2.895 306.88
66.216 -143.970 2.893 1974.45
66.216 -141.740 2.898 4874.11
66.216 -139.510 2.859 2758.54
66.216 -137.279 2.864 2409.26
66.216 -135.049 2.918 2403.95
66.216 -132.819 2.940 1414.88
66.216 -130.589 2.937 1366.49
66.216 -128.359 2.971 1602.60
66.216 -126.129 3.004 1897.77
66.216 -123.899 3.018 1603.71
66.216 -121.669 3.057 1599.22
66.216 -119.439 3.098 1873.61
66.216 -117.209 3.126 1956.37
66.216 -114.979 3.152 1278.07
66.216 -112.749 3.182 920.15
66.216 -110.519 3.199 533.73
66.216 -108.288 3.176 677.36
66.216 -106.058 3.141 551.49
66.216 -103.828 3.113 527.48
66.216 -101.598 3.091 549.51
66.216 -99.368 3.081 595.49
66.216 -97.138 3.089 539.46
66.216 -94.908 3.097 627.40
66.216 -92.678 3.090 517.13
66.216 -90.448 3.085 258.85
66.216 -88.218 3.124 275.16
66.216 -85.988 3.159 412.44
66.216 -83.758 3.170 650.37
66.216 -81.528 3.086 372.65
66.216 -79.298 2.896 278.73
66.216 -77.067 2.781 645.35
66.216 -74.837 2.900 131.88
66.216 -72.607 3.037 12.99
66.216 -70.377 3.068 180.81
66.216 -68.147 3.032 89.92
66.216 -65.917 3.004 88.92
66.216 -63.687 2.987 20.98
66.216 -61.457 2.979 0.00
66.216 -59.227 2.977 0.00
66.216 -56.997 2.977 0.00
66.216 -54.767 2.979 0.00
66.216 -52.537 2.982 0.00
66.216 -50.307 2.987 0.00
66.216 -48.077 2.989 0.00
66.216 -45.846 2.989 0.00
66.216 -43.616 2.989 0.00
66.216 -41.386 2.989 0.00
66.216 -39.156 2.987 0.00
66.216 -36.926 2.985 0.00
67.116 -164.125 2.983 0.00
67.116 -161.812 2.983 0.00
67.116 -159.499 2.985 0.00
67.116 -157.186 2.987 0.00
67.116 -154.874 2.989 0.00
67.116 -152.561 2.982 0.00
67.116 -150.248 2.954 517.98
67.116 -147.935 2.920 1089.87
67.116 -145.623 2.922 547.18
67.116 -143.310 2.937 114.49
67.116 -140.997 2.933 509.62
67.116 -138.685 2.934 860.67
67.116 -136.372 2.956 889.20
67.116 -134.059 2.968 769.12
67.116 -131.746 2.964 614.11
67.116 -129.434 2.979 470.57
67.116 -127.121 2.983 556.55
67.116 -124.808 2.996 607.85
67.116 -122.495 3.019 587.44
67.116 -120.183 3.041 528.60
67.116 -117.870 3.065 293.72
67.116 -115.557 3.105 385.65
67.116 -113.245 3.147 594.42
67.116 -110.932 3.169 684.34
67.116 -108.619 3.159 471.55
67.116 -106.306 3.143 413.60
67.116 -103.994 3.136 371.66
67.116 -101.681 3.121 387.64
67.116 -99.368 3.105 529.22
67.116 -97.055 3.104 401.37
67.116 -94.743 3.100 246.78
67.116 -92.430 3.088 122.78
67.116 -90.117 3.083 183.85
67.116 -87.805 3.116 230.69
67.116 -85.492 3.167 249.77
67.116 -83.179 3.159 460.53
67.116 -80.866 3.051 17.98
67.116 -78.554 2.860 197.80
67.116 -76.241 2.786 498.50
67.116 -73.928 2.907 302.72
67.116 -71.615 3.015 271.73
67.116 -69.303 3.013 152.85
67.116 -66.990 2.980 104.90
67.116 -64.677 2.965 103.90
67.116 -62.365 2.961 100.91
67.116 -60.052 2.959 98.91
67.116 -57.739 2.959 95.91
67.116 -55.426 2.960 94.91
67.116 -53.114 2.964 91.91
67.116 -50.801 2.972 60.95
67.116 -48.488 2.984 0.00
67.116 -46.176 2.988 0.00
67.116 -43.863 2.988 0.00
67.116 -41.550 2.989 0.00
67.116 -39.237 2.989 0.00
67.116 -36.925 2.989 0.00
67.116 -34.612 2.988 0.00
68.015 -166.634 2.988 0.00
68.015 -164.232 2.988 0.00
68.015 -161.829 2.989 0.00
68.015 -159.427 2.989 0.00
68.015 -157.025 2.991 0.00
68.015 -154.622 2.990 0.00
68.015 -152.220 2.980 0.00
68.015 -149.818 2.963 77.07
68.015 -147.415 2.962 204.40
68.015 -145.013 2.980 109.09
68.015 -142.611 2.990 204.95
68.015 -140.208 2.989 94.04
68.015 -137.806 2.992 557.32
68.015 -135.404 2.992 974.50
68.015 -133.001 2.995 1029.89
68.015 -130.599 3.016 524.50
68.015 -128.196 3.031 246.64
68.015 -125.794 3.032 265.37
68.015 -123.392 3.027 281.73
68.015 -120.989 3.026 113.90
68.015 -118.587 3.025 114.87
68.015 -116.185 3.035 121.69
68.015 -113.782 3.063 155.85
68.015 -111.380 3.094 247.78
68.015 -108.978 3.106 465.59
68.015 -106.575 3.102 473.57
68.015 -104.173 3.099 473.57
68.015 -101.771 3.094 335.73
68.015 -99.368 3.087 305.74
68.015 -96.966 3.073 444.47
68.015 -94.563 3.066 204.82
68.015 -92.161 3.069 200.83
68.015 -89.759 3.095 259.78
68.015 -87.356 3.137 258.78
68.015 -84.954 3.171 387.55
68.015 -82.552 3.127 364.64
68.015 -80.149 2.987 77.93
68.015 -77.747 2.805 195.78
68.015 -75.345 2.799 316.68
68.015 -72.942 2.939 92.91
68.015 -70.540 3.024 101.88
68.015 -68.138 3.008 0.00
68.015 -65.735 2.980 0.00
68.015 -63.333 2.974 0.00
68.015 -60.931 2.976 0.00
68.015 -58.528 2.977 0.00
68.015 -56.126 2.977 0.00
68.015 -53.723 2.978 0.00
68.015 -51.321 2.979 0.00
68.015 -48.919 2.982 0.00
68.015 -46.516 2.987 0.00
68.015 -44.114 2.989 0.00
68.015 -41.712 2.989 0.00
68.015 -39.309 2.988 0.00
68.015 -36.907 2.988 0.00
68.015 -34.505 2.989 0.00
68.015 -32.102 2.989 0.00
68.915 -169.364 2.989 0.00
68.915 -166.864 2.989 0.00
68.915 -164.364 2.989 0.00
68.915 -161.865 2.989 0.00
68.915 -159.365 2.989 0.00
68.915 -156.865 2.991 0.00
68.915 -154.365 2.990 0.00
68.915 -151.865 2.985 0.00
68.915 -149.365 2.980 52.05
68.915 -146.865 2.983 185.12
68.915 -144.366 2.992 136.68
68.915 -141.866 2.991 0.00
68.915 -139.366 2.995 36.85
68.915 -136.866 3.002 39.08
68.915 -134.366 3.017 38.11
68.915 -131.866 3.037 264.77
68.915 -129.366 3.040 464.61
68.915 -126.867 3.033 341.71
68.915 -124.367 3.026 196.84
68.915 -121.867 3.022 417.63
68.915 -119.367 3.017 393.67
68.915 -116.867 3.013 321.70
68.915 -114.367 3.014 273.77
68.915 -111.867 3.023 154.88
68.915 -109.368 3.036 33.97
68.915 -106.868 3.049 103.91
68.915 -104.368 3.058 152.88
68.915 -101.868 3.060 199.80
68.915 -99.368 3.058 204.79
68.915 -96.868 3.040 247.08
68.915 -94.368 3.028 403.42
68.915 -91.869 3.057 244.66
68.915 -89.369 3.112 266.79
68.915 -86.869 3.153 201.79
68.915 -84.369 3.142 204.69
68.915 -81.869 3.068 111.05
68.915 -79.369 2.913 0.00
68.915 -76.870 2.753 454.52
68.915 -74.370 2.825 149.86
68.915 -71.870 2.977 0.00
68.915 -69.370 3.037 101.88
68.915 -66.870 3.011 0.00
68.915 -64.370 2.987 0.00
68.915 -61.870 2.985 0.00
68.915 -59.371 2.988 0.00
68.915 -56.871 2.989 0.00
68.915 -54.371 2.989 0.00
68.915 -51.871 2.989 0.00
68.915 -49.371 2.988 0.00
68.915 -46.871 2.988 0.00
68.915 -44.371 2.989 0.00
68.915 -41.872 2.989 0.00
68.915 -39.372 2.988 0.00
68.915 -36.872 2.988 0.00
68.915 -34.372 2.988 0.00
68.915 -31.872 2.988 0.00
68.915 -29.372 2.988 0.00
69.814 -172.344 2.988 0.00
69.814 -169.737 2.988 0.00
69.814 -167.131 2.988 0.00
69.814 -164.525 2.988 0.00
69.814 -161.919 2.988 0.00
69.814 -159.312 2.989 0.00
69.814 -156.706 2.990 0.00
69.814 -154.100 2.990 0.00
69.814 -151.494 2.986 0.00
69.814 -148.887 2.984 35.02
69.814 -146.281 2.986 148.14
69.814 -143.675 2.986 38.82
69.814 -141.069 2.987 0.56
69.814 -138.462 2.990 0.00
69.814 -135.856 2.996 0.00
69.814 -133.250 3.004 0.00
69.814 -130.643 3.005 0.00
69.814 -128.037 3.001 128.89
69.814 -125.431 3.000 280.76
69.814 -122.825 3.006 193.82
69.814 -120.218 3.010 322.70
69.814 -117.612 3.011 283.74
69.814 -115.006 3.006 130.86
69.814 -112.400 2.997 104.90
69.814 -109.793 2.997 50.95
69.814 -107.187 3.007 0.00
69.814 -104.581 3.023 0.00
69.814 -101.974 3.041 102.92
69.814 -99.368 3.046 105.91
69.814 -96.762 3.034 104.92
69.814 -94.156 3.033 118.86
69.814 -91.549 3.086 164.61
69.814 -88.943 3.156 543.56
69.814 -86.337 3.172 609.41
69.814 -83.731 3.123 404.75
69.814 -81.124 3.043 144.30
69.814 -78.518 2.885 0.00
69.814 -75.912 2.746 507.47
69.814 -73.306 2.859 99.91
69.814 -70.699 3.005 0.00
69.814 -68.093 3.037 102.88
69.814 -65.487 3.006 0.00
69.814 -62.880 2.988 0.00
69.814 -60.274 2.988 0.00
69.814 -57.668 2.989 0.00
69.814 -55.062 2.990 0.00
69.814 -52.455 2.989 0.00
69.814 -49.849 2.989 0.00
69.814 -47.243 2.989 0.00
69.814 -44.637 2.989 0.00
69.814 -42.030 2.989 0.00
69.814 -39.424 2.988 0.00
69.814 -36.818 2.988 0.00
69.814 -34.211 2.988 0.00
69.814 -31.605 2.988 0.00
69.814 -28.999 2.988 0.00
69.814 -26.393 2.988 0.00
70.713 -175.608 2.988 0.00
70.713 -172.885 2.988 0.00
70.713 -170.162 2.988 0.00
70.713 -167.439 2.988 0.00
70.713 -164.717 2.988 0.00
70.713 -161.994 2.988 0.00
70.713 -159.271 2.989 0.00
70.713 -156.548 2.989 0.00
70.713 -153.825 2.988 0.00
70.713 -151.102 2.987 0.00
70.713 -148.379 2.987 0.00
70.713 -145.657 2.987 0.00
70.713 -142.934 2.987 0.00
70.713 -140.211 2.986 0.00
70.713 -137.488 2.985 0.00
70.713 -134.765 2.986 0.00
70.713 -132.042 2.986 0.00
70.713 -129.320 2.985 0.00
70.713 -126.597 2.983 0.00
70.713 -123.874 2.980 90.93
70.713 -121.151 2.985 69.95
70.713 -118.428 2.998 231.78
70.713 -115.705 3.005 495.54
70.713 -112.982 3.005 367.65
70.713 -110.260 2.999 326.69
70.713 -107.537 3.000 251.77
70.713 -104.814 3.010 199.81
70.713 -102.091 3.020 199.81
70.713 -99.368 3.020 201.81
70.713 -96.645 3.023 199.81
70.713 -93.923 3.061 287.74
70.713 -91.200 3.124 658.77
70.713 -88.477 3.169 393.62
70.713 -85.754 3.138 149.87
70.713 -83.031 3.089 113.22
70.713 -80.308 3.021 99.91
70.713 -77.585 2.874 97.91
70.713 -74.863 2.767 636.35
70.713 -72.140 2.897 164.85
70.713 -69.417 3.017 109.17
70.713 -66.694 3.022 1.00
70.713 -63.971 2.996 0.00
70.713 -61.248 2.987 0.00
70.713 -58.525 2.988 0.00
70.713 -55.803 2.988 0.00
70.713 -53.080 2.989 0.00
70.713 -50.357 2.988 0.00
70.713 -47.634 2.988 0.00
70.713 -44.911 2.988 0.00
70.713 -42.188 2.988 0.00
70.713 -39.466 2.988 0.00
70.713 -36.743 2.988 0.00
70.713 -34.020 2.988 0.00
70.713 -31.297 2.988 0.00
70.713 -28.574 2.988 0.00
70.713 -25.851 2.988 0.00
70.713 -23.128 2.988 0.00
71.613 -179.198 2.988 0.00
71.613 -176.347 2.988 0.00
71.613 -173.496 2.988 0.00
71.613 -170.645 2.988 0.00
71.613 -167.794 2.988 0.00
71.613 -164.943 2.988 0.00
71.613 -162.092 2.988 0.00
71.613 -159.241 2.989 0.00
71.613 -156.390 2.989 0.00
71.613 -153.539 2.988 0.00
71.613 -150.688 2.988 0.00
71.613 -147.837 2.989 0.00
71.613 -144.985 2.988 0.00
71.613 -142.134 2.988 0.00
71.613 -139.283 2.987 0.00
71.613 -136.432 2.987 0.00
71.613 -133.581 2.987 0.00
71.613 -130.730 2.986 0.00
71.613 -127.879 2.984 0.00
71.613 -125.028 2.979 0.00
71.613 -122.177 2.975 28.98
71.613 -119.326 2.976 98.93
71.613 -116.475 2.983 46.96
71.613 -113.624 2.989 245.77
71.613 -110.773 2.992 294.72
71.613 -107.921 2.988 156.84
71.613 -105.070 2.990 56.95
71.613 -102.219 2.992 0.00
71.613 -99.368 2.989 0.00
71.613 -96.517 3.009 0.00
71.613 -93.666 3.070 31.97
71.613 -90.815 3.123 367.29
71.613 -87.964 3.103 297.14
71.613 -85.113 3.050 0.00
71.613 -82.262 3.017 6.20
71.613 -79.411 2.953 6.24
71.613 -76.560 2.820 94.89
71.613 -73.708 2.782 513.48
71.613 -70.857 2.920 0.00
71.613 -68.006 3.004 0.00
71.613 -65.155 3.002 0.00
71.613 -62.304 2.988 0.00
71.613 -59.453 2.986 0.00
71.613 -56.602 2.988 0.00
71.613 -53.751 2.988 0.00
71.613 -50.900 2.988 0.00
71.613 -48.049 2.988 0.00
71.613 -45.198 2.988 0.00
71.613 -42.347 2.988 0.00
71.613 -39.496 2.988 0.00
71.613 -36.644 2.988 0.00
71.613 -33.793 2.988 0.00
71.613 -30.942 2.988 0.00
71.613 -28.091 2.988 0.00
71.613 -25.240 2.988 0.00
71.613 -22.389 2.988 0.00
71.613 -19.538 2.988 0.00
72.512 -177.180 2.988 0.00
72.512 -174.187 2.988 0.00
72.512 -171.194 2.988 0.00
72.512 -168.202 2.988 0.00
72.512 -165.209 2.988 0.00
72.512 -162.216 2.988 0.00
72.512 -159.223 2.988 0.00
72.512 -156.231 2.988 0.00
72.512 -153.238 2.988 0.00
72.512 -150.245 2.988 0.00
72.512 -147.252 2.989 0.00
72.512 -144.260 2.989 0.00
72.512 -141.267 2.988 0.00
72.512 -138.274 2.988 0.00
72.512 -135.281 2.988 0.00
72.512 -132.289 2.989 0.00
72.512 -129.296 2.989 0.00
72.512 -126.303 2.986 0.00
72.512 -123.310 2.982 0.00
72.512 -120.318 2.977 0.00
72.512 -117.325 2.973 52.96
72.512 -114.332 2.970 100.93
72.512 -111.339 2.974 148.87
72.512 -108.346 2.977 373.65
72.512 -105.354 2.975 260.75
72.512 -102.361 2.972 69.94
72.512 -99.368 2.980 0.00
72.512 -96.375 3.025 0.00
72.512 -93.383 3.100 197.86
72.512 -90.390 3.120 343.67
72.512 -87.397 3.046 51.01
72.512 -84.404 2.991 117.00
72.512 -81.412 2.973 0.00
72.512 -78.419 2.893 12.62
72.512 -75.426 2.762 445.52
72.512 -72.433 2.814 164.85
72.512 -69.441 2.952 0.00
72.512 -66.448 3.003 0.00
72.512 -63.455 2.993 0.00
72.512 -60.462 2.986 0.00
72.512 -57.470 2.988 0.00
72.512 -54.477 2.989 0.00
72.512 -51.484 2.988 0.00
72.512 -48.491 2.988 0.00
72.512 -45.499 2.988 0.00
72.512 -42.506 2.988 0.00
72.512 -39.513 2.988 0.00
72.512 -36.520 2.988 0.00
72.512 -33.527 2.988 0.00
72.512 -30.535 2.988 0.00
72.512 -27.542 2.988 0.00
72.512 -24.549 2.988 0.00
72.512 -21.556 2.988 0.00
72.512 -18.564 2.988 0.00
72.512 -15.571 2.988 0.00
73.411 -178.120 2.988 0.00
73.411 -174.970 2.988 0.00
73.411 -171.820 2.988 0.00
73.411 -168.670 2.988 0.00
73.411 -165.520 2.988 0.00
73.411 -162.370 2.988 0.00
73.411 -159.220 2.988 0.00
73.411 -156.070 2.988 0.00
73.411 -152.919 2.988 0.00
73.411 -149.769 2.988 0.00
73.411 -146.619 2.988 0.00
73.411 -143.469 2.988 0.00
73.411 -140.319 2.988 0.00
73.411 -137.169 2.988 0.00
73.411 -134.019 2.989 0.00
73.411 -130.869 2.989 0.00
73.411 -127.719 2.989 0.00
73.411 -124.569 2.989 0.00
73.411 -121.419 2.986 0.00
73.411 -118.269 2.981 0.00
73.411 -115.119 2.976 0.00
73.411 -111.969 2.971 59.96
73.411 -108.818 2.968 101.93
73.411 -105.668 2.966 344.70
73.411 -102.518 2.965 489.54
73.411 -99.368 2.982 136.87
73.411 -96.218 3.046 0.00
73.411 -93.068 3.124 511.56
73.411 -89.918 3.094 36.97
73.411 -86.768 3.016 0.00
73.411 -83.618 2.977 81.72
73.411 -80.468 2.959 96.57
73.411 -77.318 2.860 12.98
73.411 -74.168 2.734 571.40
73.411 -71.018 2.842 38.96
73.411 -67.867 2.978 0.00
73.411 -64.717 3.005 0.00
73.411 -61.567 2.991 0.00
73.411 -58.417 2.987 0.00
73.411 -55.267 2.988 0.00
73.411 -52.117 2.988 0.00
73.411 -48.967 2.988 0.00
73.411 -45.817 2.988 0.00
73.411 -42.667 2.988 0.00
73.411 -39.517 2.988 0.00
73.411 -36.367 2.988 0.00
73.411 -33.217 2.988 0.00
73.411 -30.067 2.988 0.00
73.411 -26.916 2.988 0.00
73.411 -23.766 2.988 0.00
73.411 -20.616 2.988 0.00
73.411 -17.466 2.988 0.00
73.411 -14.316 2.988 0.00
73.411 -11.166 2.988 0.00
74.311 -179.185 2.988 0.00
74.311 -175.860 2.988 0.00
74.311 -172.534 2.988 0.00
74.311 -169.208 2.988 0.00
74.311 -165.882 2.988 0.00
74.311 -162.557 2.988 0.00
74.311 -159.231 2.988 0.00
74.311 -155.905 2.988 0.00
74.311 -152.580 2.988 0.00
74.311 -149.254 2.988 0.00
74.311 -145.928 2.988 0.00
74.311 -142.602 2.988 0.00
74.311 -139.277 2.988 0.00
74.311 -135.951 2.988 0.00
74.311 -132.625 2.988 0.00
74.311 -129.300 2.989 0.00
74.311 -125.974 2.989 0.00
74.311 -122.648 2.989 0.00
74.311 -119.322 2.988 0.00
74.311 -115.997 2.986 0.00
74.311 -112.671 2.983 0.00
74.311 -109.345 2.979 0.00
74.311 -106.020 2.972 27.98
74.311 -102.694 2.964 132.90
74.311 -99.368 2.977 555.51
74.311 -96.042 3.033 753.33
74.311 -92.717 3.087 312.72
74.311 -89.391 3.048 0.00
74.311 -86.065 2.996 0.00
74.311 -82.740 2.983 0.00
74.311 -79.414 2.964 98.72
74.311 -76.088 2.860 110.13
74.311 -72.763 2.749 610.37
74.311 -69.437 2.870 0.00
74.311 -66.111 2.985 0.00
74.311 -62.785 3.000 0.00
74.311 -59.460 2.990 0.00
74.311 -56.134 2.988 0.00
74.311 -52.808 2.988 0.00
74.311 -49.483 2.988 0.00
74.311 -46.157 2.988 0.00
74.311 -42.831 2.988 0.00
74.311 -39.505 2.988 0.00
74.311 -36.180 2.988 0.00
74.311 -32.854 2.988 0.00
74.311 -29.528 2.988 0.00
74.311 -26.203 2.988 0.00
74.311 -22.877 2.988 0.00
74.311 -19.551 2.988 0.00
74.311 -16.225 2.988 0.00
74.311 -12.900 2.988 0.00
74.311 -9.574 2.988 0.00
74.311 -6.248 2.988 0.00
75.210 -176.874 2.988 0.00
75.210 -173.351 2.988 0.00
75.210 -169.828 2.988 0.00
