36.538 -107.204 3.588 34550.07
36.538 -106.084 3.599 32176.97
36.538 -104.965 3.589 29908.43
36.538 -103.846 3.657 31245.42
36.538 -102.726 3.826 32593.28
36.538 -101.607 3.915 30995.86
36.538 -100.488 3.899 30113.65
36.538 -99.368 3.866 28490.12
36.538 -98.249 3.851 22609.96
36.538 -97.130 3.904 21063.19
36.538 -96.010 4.008 21211.93
36.538 -94.891 4.085 22590.16
36.538 -93.771 4.004 25290.51
36.538 -92.652 3.925 24797.65
36.538 -91.533 3.788 22352.86
36.538 -90.413 3.832 20342.22
36.538 -89.294 4.074 16306.49
36.538 -88.175 4.073 13217.90
36.538 -87.055 3.945 7611.47
36.538 -85.936 3.893 5707.25
36.538 -84.817 3.891 5970.20
36.538 -83.697 3.886 6185.79
36.538 -82.578 3.870 4449.21
36.538 -81.459 3.888 2140.87
36.538 -80.339 3.892 725.38
36.538 -79.220 3.891 301.67
36.538 -78.101 3.885 202.77
36.538 -76.981 3.847 0.00
36.538 -75.862 3.818 99.88
36.538 -74.743 3.831 99.88
36.538 -73.623 3.843 100.92
36.538 -72.504 3.813 0.00
36.538 -71.384 3.787 0.00
36.538 -70.265 3.780 0.00
36.538 -69.146 3.781 0.00
36.538 -68.026 3.784 0.00
37.437 -131.083 3.791 0.00
37.437 -129.950 3.791 0.00
37.437 -128.817 3.803 0.00
37.437 -127.685 3.817 10.99
37.437 -126.552 3.831 97.88
37.437 -125.419 3.831 97.89
37.437 -124.287 3.767 30.97
37.437 -123.154 3.668 133.87
37.437 -122.021 3.613 15548.87
37.437 -120.889 3.604 24270.31
37.437 -119.756 3.596 16450.22
37.437 -118.623 3.590 14671.21
37.437 -117.491 3.609 18367.06
37.437 -116.358 3.603 30557.90
37.437 -115.225 3.553 37584.79
37.437 -114.093 3.546 36091.43
37.437 -112.960 3.616 36302.87
37.437 -111.827 3.726 33339.34
37.437 -110.695 3.676 34827.40
37.437 -109.562 3.655 31566.37
37.437 -108.429 3.596 33599.45
37.437 -107.297 3.554 32969.65
37.437 -106.164 3.556 32011.79
37.437 -105.032 3.598 34527.58
37.437 -103.899 3.654 30902.34
37.437 -102.766 3.835 27556.29
37.437 -101.634 3.976 25647.65
37.437 -100.501 3.952 24433.94
37.437 -99.368 3.895 23633.87
37.437 -98.236 3.864 23847.22
37.437 -97.103 3.885 24421.28
37.437 -95.970 3.947 23045.74
37.437 -94.838 4.072 24214.23
37.437 -93.705 3.981 26773.16
37.437 -92.572 3.856 25904.23
37.437 -91.440 3.788 23471.57
37.437 -90.307 3.906 19497.17
37.437 -89.174 4.081 16214.94
37.437 -88.042 4.070 11579.78
37.437 -86.909 4.017 10228.54
37.437 -85.776 3.951 8542.55
37.437 -84.644 3.926 7071.60
37.437 -83.511 3.901 6496.17
37.437 -82.378 3.874 6591.66
37.437 -81.246 3.858 8658.93
37.437 -80.113 3.846 7601.34
37.437 -78.980 3.863 5870.53
37.437 -77.848 3.845 639.37
37.437 -76.715 3.835 0.00
37.437 -75.582 3.830 99.88
37.437 -74.450 3.832 99.88
37.437 -73.317 3.843 100.92
37.437 -72.184 3.808 0.00
37.437 -71.052 3.784 0.00
37.437 -69.919 3.781 0.00
37.437 -68.786 3.784 0.00
37.437 -67.654 3.783 0.00
38.336 -131.472 3.781 0.00
38.336 -130.326 3.780 0.00
38.336 -129.179 3.788 0.00
38.336 -128.033 3.793 0.00
38.336 -126.886 3.801 0.00
38.336 -125.740 3.797 0.00
38.336 -124.593 3.749 227.77
38.336 -123.446 3.713 226.71
38.336 -122.300 3.679 8146.91
38.336 -121.153 3.536 21182.80
38.336 -120.007 3.547 15347.39
38.336 -118.860 3.571 21286.30
38.336 -117.713 3.528 28429.36
38.336 -116.567 3.524 27697.35
38.336 -115.420 3.555 24943.01
38.336 -114.274 3.490 30498.08
38.336 -113.127 3.572 34055.54
38.336 -111.981 3.765 32368.55
38.336 -110.834 3.763 33371.97
38.336 -109.687 3.730 33328.60
38.336 -108.541 3.702 32760.95
38.336 -107.394 3.700 33015.56
38.336 -106.248 3.706 29910.76
38.336 -105.101 3.679 23369.27
38.336 -103.955 3.730 21197.72
38.336 -102.808 3.857 20733.53
38.336 -101.661 3.898 22817.43
38.336 -100.515 3.940 23677.17
38.336 -99.368 3.936 23670.08
38.336 -98.222 3.914 25375.65
38.336 -97.075 3.916 24613.08
38.336 -95.928 3.974 24566.58
38.336 -94.782 4.039 24414.23
38.336 -93.635 3.981 26225.94
38.336 -92.489 3.902 27032.82
38.336 -91.342 3.869 29480.19
38.336 -90.196 3.914 29809.50
38.336 -89.049 4.065 33926.08
38.336 -87.902 4.070 29496.32
38.336 -86.756 4.040 12274.26
38.336 -85.609 3.959 10600.25
38.336 -84.463 3.939 10163.82
38.336 -83.316 3.922 9190.17
38.336 -82.170 3.888 9611.38
38.336 -81.023 3.881 11631.55
38.336 -79.876 3.894 16047.62
38.336 -78.730 3.898 23130.91
38.336 -77.583 3.902 10002.54
38.336 -76.437 3.862 50.94
38.336 -75.290 3.821 138.84
38.336 -74.143 3.818 19.98
38.336 -72.997 3.836 100.91
38.336 -71.850 3.806 0.00
38.336 -70.704 3.784 0.00
38.336 -69.557 3.782 0.00
38.336 -68.411 3.784 0.00
38.336 -67.264 3.784 0.00
39.236 -131.880 3.784 0.00
39.236 -130.719 3.785 0.00
39.236 -129.558 3.785 0.00
39.236 -128.397 3.774 0.00
39.236 -127.235 3.759 0.00
39.236 -126.074 3.740 129.88
39.236 -124.913 3.716 20.98
39.236 -123.752 3.688 902.13
39.236 -122.591 3.673 9018.23
39.236 -121.430 3.465 16683.42
39.236 -120.269 3.449 25767.18
39.236 -119.107 3.493 34111.48
39.236 -117.946 3.563 25546.47
39.236 -116.785 3.570 28200.45
39.236 -115.624 3.589 30141.75
39.236 -114.463 3.476 30384.57
39.236 -113.302 3.487 36696.28
39.236 -112.141 3.588 35775.39
39.236 -110.980 3.605 33788.30
39.236 -109.818 3.619 28973.59
39.236 -108.657 3.620 30152.10
39.236 -107.496 3.620 30012.04
39.236 -106.335 3.683 29272.47
39.236 -105.174 3.793 23124.97
39.236 -104.013 3.930 20528.68
39.236 -102.852 4.034 20923.88
39.236 -101.690 3.964 19601.03
39.236 -100.529 3.905 19200.11
39.236 -99.368 3.923 18146.74
39.236 -98.207 3.947 19895.51
39.236 -97.046 3.934 21303.47
39.236 -95.885 4.029 21360.23
39.236 -94.724 4.063 22166.02
39.236 -93.563 4.063 22371.48
39.236 -92.401 3.969 22932.31
39.236 -91.240 3.934 23409.46
39.236 -90.079 3.927 24870.47
39.236 -88.918 4.059 21283.03
39.236 -87.757 4.057 12240.33
39.236 -86.596 3.983 9669.66
39.236 -85.435 3.902 7510.53
39.236 -84.273 3.842 7666.44
39.236 -83.112 3.819 8939.06
39.236 -81.951 3.874 9876.98
39.236 -80.790 3.938 10867.42
39.236 -79.629 3.981 8144.29
39.236 -78.468 4.012 1971.94
39.236 -77.307 4.005 1568.84
39.236 -76.145 3.941 321.65
39.236 -74.984 3.866 99.88
39.236 -73.823 3.826 0.00
39.236 -72.662 3.828 100.91
39.236 -71.501 3.801 0.00
39.236 -70.340 3.784 0.00
39.236 -69.179 3.783 0.00
39.236 -68.018 3.784 0.00
39.236 -66.856 3.785 0.00
40.135 -132.306 3.789 0.00
40.135 -131.130 3.789 0.00
40.135 -129.954 3.776 0.00
40.135 -128.777 3.748 0.00
40.135 -127.601 3.734 101.90
40.135 -126.424 3.749 50.95
40.135 -125.248 3.722 0.00
40.135 -124.072 3.635 9567.58
40.135 -122.895 3.633 25892.55
40.135 -121.719 3.494 27810.85
40.135 -120.543 3.321 51475.41
40.135 -119.366 3.398 44054.58
40.135 -118.190 3.552 31576.11
40.135 -117.014 3.546 30018.80
40.135 -115.837 3.495 29395.67
40.135 -114.661 3.487 33892.87
40.135 -113.484 3.509 37998.31
40.135 -112.308 3.517 39769.19
40.135 -111.132 3.613 34826.64
40.135 -109.955 3.705 28700.00
40.135 -108.779 3.735 29452.77
40.135 -107.603 3.660 31090.95
40.135 -106.426 3.684 25344.09
40.135 -105.250 3.823 21550.29
40.135 -104.074 3.967 16974.81
40.135 -102.897 4.057 15908.90
40.135 -101.721 3.962 15365.76
40.135 -100.545 3.854 14245.28
40.135 -99.368 3.890 13980.88
40.135 -98.192 3.980 14004.22
40.135 -97.015 4.017 15426.65
40.135 -95.839 4.086 15700.25
40.135 -94.663 4.158 17494.89
40.135 -93.486 4.223 18820.08
40.135 -92.310 4.092 19899.04
40.135 -91.134 4.003 20135.99
40.135 -89.957 4.055 13954.32
40.135 -88.781 4.167 9095.83
40.135 -87.605 4.183 10587.81
40.135 -86.428 4.107 8849.06
40.135 -85.252 3.958 10075.39
40.135 -84.076 3.914 10399.55
40.135 -82.899 3.952 9798.22
40.135 -81.723 3.979 8381.33
40.135 -80.546 3.989 6945.57
40.135 -79.370 4.011 3961.13
40.135 -78.194 4.029 2802.27
40.135 -77.017 4.026 1483.98
40.135 -75.841 3.949 638.92
40.135 -74.665 3.870 329.99
40.135 -73.488 3.841 0.00
40.135 -72.312 3.838 100.91
40.135 -71.136 3.799 0.00
40.135 -69.959 3.783 0.00
40.135 -68.783 3.783 0.00
40.135 -67.607 3.785 0.00
40.135 -66.430 3.786 0.00
41.034 -132.752 3.789 0.00
41.034 -131.560 3.784 0.00
41.034 -130.368 3.751 0.00
41.034 -129.175 3.737 75.93
41.034 -127.983 3.785 79.93
41.034 -126.791 3.799 0.00
41.034 -125.598 3.769 252.37
41.034 -124.406 3.727 38016.23
41.034 -123.214 3.707 33822.94
41.034 -122.022 3.660 32005.79
41.034 -120.829 3.538 24858.44
41.034 -119.637 3.548 36061.66
41.034 -118.445 3.506 34826.14
41.034 -117.252 3.457 30678.31
41.034 -116.060 3.449 26848.21
41.034 -114.868 3.527 35348.37
41.034 -113.676 3.511 34512.93
41.034 -112.483 3.530 35940.18
41.034 -111.291 3.681 32135.28
41.034 -110.099 3.795 31496.99
41.034 -108.906 3.847 26596.05
41.034 -107.714 3.707 24480.70
41.034 -106.522 3.680 20556.20
41.034 -105.330 3.778 18249.37
41.034 -104.137 3.884 16860.08
41.034 -102.945 3.909 14346.14
41.034 -101.753 3.872 12832.83
41.034 -100.560 3.785 10749.90
41.034 -99.368 3.769 10769.68
41.034 -98.176 3.899 10348.13
41.034 -96.984 4.007 12086.00
41.034 -95.791 4.136 13793.31
41.034 -94.599 4.109 17155.83
41.034 -93.407 4.050 18874.45
41.034 -92.215 3.974 15334.31
41.034 -91.022 3.911 11273.63
41.034 -89.830 3.968 11045.16
41.034 -88.638 4.116 9670.03
41.034 -87.445 4.224 8793.22
41.034 -86.253 4.196 8484.32
41.034 -85.061 4.056 8195.93
41.034 -83.869 4.006 7854.65
41.034 -82.676 4.023 8594.18
41.034 -81.484 4.047 6088.07
41.034 -80.292 4.021 4502.02
41.034 -79.099 3.986 3371.01
41.034 -77.907 3.948 2906.03
41.034 -76.715 3.883 2288.76
41.034 -75.523 3.855 2446.69
41.034 -74.330 3.855 2266.26
41.034 -73.138 3.847 334.72
41.034 -71.946 3.833 187.80
41.034 -70.753 3.797 9.99
41.034 -69.561 3.781 0.00
41.034 -68.369 3.782 0.00
41.034 -67.177 3.786 0.00
41.034 -65.984 3.786 0.00
41.934 -133.219 3.776 0.00
41.934 -132.010 3.766 0.00
41.934 -130.801 3.735 53.95
41.934 -129.592 3.770 104.90
41.934 -128.383 3.816 0.00
41.934 -127.174 3.762 76.92
41.934 -125.965 3.660 1852.43
41.934 -124.756 3.605 11248.48
41.934 -123.547 3.632 13124.36
41.934 -122.338 3.739 18632.78
41.934 -121.129 3.547 19301.03
41.934 -119.920 3.387 24144.50
41.934 -118.711 3.295 23669.75
41.934 -117.502 3.344 24267.16
41.934 -116.293 3.424 31503.97
41.934 -115.085 3.500 40541.16
41.934 -113.876 3.500 33561.46
41.934 -112.667 3.532 35402.12
41.934 -111.458 3.629 39816.18
41.934 -110.249 3.787 32957.72
41.934 -109.040 3.881 26913.70
41.934 -107.831 3.773 23693.29
41.934 -106.622 3.677 20564.37
41.934 -105.413 3.682 19102.09
41.934 -104.204 3.814 16341.60
41.934 -102.995 3.966 14498.21
41.934 -101.786 4.023 11781.45
41.934 -100.577 3.905 13412.42
41.934 -99.368 3.850 13515.48
41.934 -98.159 3.886 15058.58
41.934 -96.950 3.894 15928.43
41.934 -95.741 3.967 17908.17
41.934 -94.532 3.971 18333.74
41.934 -93.323 4.021 15778.92
41.934 -92.115 3.964 12896.86
41.934 -90.906 3.959 11283.79
41.934 -89.697 3.944 10381.94
41.934 -88.488 3.969 9299.75
41.934 -87.279 4.049 8056.43
41.934 -86.070 4.055 7197.77
41.934 -84.861 3.997 7942.10
41.934 -83.652 3.998 8582.38
41.934 -82.443 4.016 5325.28
41.934 -81.234 4.029 5097.71
41.934 -80.025 4.000 4801.47
41.934 -78.816 3.958 3927.99
41.934 -77.607 3.893 3302.11
41.934 -76.398 3.836 2930.51
41.934 -75.189 3.833 965.97
41.934 -73.980 3.825 1061.86
41.934 -72.771 3.819 1010.02
41.934 -71.562 3.802 259.19
41.934 -70.353 3.788 33.89
41.934 -69.145 3.781 0.00
41.934 -67.936 3.782 0.00
41.934 -66.727 3.786 0.00
41.934 -65.518 3.781 0.00
42.833 -133.707 3.750 0.00
42.833 -132.481 3.740 35.97
42.833 -131.254 3.742 126.88
42.833 -130.028 3.795 0.00
42.833 -128.802 3.776 7.99
42.833 -127.575 3.594 305.70
42.833 -126.349 3.348 10741.91
42.833 -125.122 3.279 15379.51
42.833 -123.896 3.409 10250.71
42.833 -122.670 3.538 13158.87
42.833 -121.443 3.485 13391.49
42.833 -120.217 3.376 16309.06
42.833 -118.990 3.304 19201.00
42.833 -117.764 3.364 22070.19
42.833 -116.538 3.500 28603.56
42.833 -115.311 3.494 26237.47
42.833 -114.085 3.474 29509.74
42.833 -112.858 3.538 29676.38
42.833 -111.632 3.598 33436.49
42.833 -110.406 3.754 30883.10
42.833 -109.179 3.802 26168.95
42.833 -107.953 3.758 22887.66
42.833 -106.727 3.652 22126.64
42.833 -105.500 3.680 20780.21
42.833 -104.274 3.820 19760.06
42.833 -103.047 4.032 17241.44
42.833 -101.821 4.145 16646.90
42.833 -100.595 4.063 15495.24
42.833 -99.368 3.960 14913.52
42.833 -98.142 3.942 15805.16
42.833 -96.915 3.930 14738.44
42.833 -95.689 3.984 12994.14
42.833 -94.463 3.973 12703.61
42.833 -93.236 3.969 11187.06
42.833 -92.010 3.997 11469.26
42.833 -90.783 3.990 11195.25
42.833 -89.557 3.982 8456.10
42.833 -88.331 3.995 9236.41
42.833 -87.104 4.042 7499.89
42.833 -85.878 4.002 7082.96
42.833 -84.652 3.942 6451.90
42.833 -83.425 3.968 3849.79
42.833 -82.199 4.045 3823.01
42.833 -80.972 4.097 4092.42
42.833 -79.746 4.063 3442.73
42.833 -78.520 3.961 3303.85
42.833 -77.293 3.895 3918.73
42.833 -76.067 3.885 3878.50
42.833 -74.840 3.882 2948.10
42.833 -73.614 3.851 1836.99
42.833 -72.388 3.827 1720.05
42.833 -71.161 3.807 787.23
42.833 -69.935 3.790 45.95
42.833 -68.708 3.783 0.00
42.833 -67.482 3.785 0.00
42.833 -66.256 3.786 0.00
42.833 -65.029 3.770 0.00
43.732 -134.219 3.719 22.98
43.732 -132.974 3.714 143.87
43.732 -131.729 3.763 0.00
43.732 -130.485 3.837 0.00
43.732 -129.240 3.793 283.72
43.732 -127.995 3.455 199.81
43.732 -126.751 3.068 41931.16
43.732 -125.506 2.957 22249.94
43.732 -124.261 3.048 14553.66
43.732 -123.017 3.258 13717.80
43.732 -121.772 3.405 13001.85
43.732 -120.527 3.400 13852.48
43.732 -119.283 3.397 15797.85
43.732 -118.038 3.522 18177.76
43.732 -116.793 3.585 24004.15
43.732 -115.549 3.468 20781.39
43.732 -114.304 3.390 21982.87
43.732 -113.059 3.395 18379.45
43.732 -111.815 3.457 20348.97
43.732 -110.570 3.569 23447.14
43.732 -109.325 3.698 22165.99
43.732 -108.081 3.820 23167.67
43.732 -106.836 3.755 23486.10
43.732 -105.591 3.653 20716.32
43.732 -104.347 3.687 20932.23
43.732 -103.102 3.845 19440.11
43.732 -101.858 3.976 18407.01
43.732 -100.613 4.106 18136.76
43.732 -99.368 4.151 18746.31
43.732 -98.124 4.120 16355.32
43.732 -96.879 4.024 15859.74
43.732 -95.634 4.026 13680.57
43.732 -94.390 3.957 12863.05
43.732 -93.145 3.903 11987.37
43.732 -91.900 3.953 11130.86
43.732 -90.656 4.009 9163.00
43.732 -89.411 4.015 8519.14
43.732 -88.166 3.996 8874.45
43.732 -86.922 3.961 8107.19
43.732 -85.677 3.900 6410.87
43.732 -84.432 3.851 5110.29
43.732 -83.188 3.896 4918.15
43.732 -81.943 3.998 4469.56
43.732 -80.698 4.043 4476.16
43.732 -79.454 4.008 3859.64
43.732 -78.209 3.984 3221.29
43.732 -76.964 3.944 3573.80
43.732 -75.720 3.934 2941.20
43.732 -74.475 3.962 3710.07
43.732 -73.230 3.947 2467.08
43.732 -71.986 3.912 1127.21
43.732 -70.741 3.868 120.86
43.732 -69.496 3.830 133.85
43.732 -68.252 3.801 26.97
43.732 -67.007 3.794 0.00
43.732 -65.763 3.784 0.00
43.732 -64.518 3.757 0.00
44.632 -134.754 3.703 171.84
44.632 -133.490 3.722 0.00
44.632 -132.227 3.809 0.00
44.632 -130.963 3.893 215.79
44.632 -129.699 3.823 194.81
44.632 -128.435 3.532 310.72
44.632 -127.172 3.180 2484.23
44.632 -125.908 3.044 8817.76
44.632 -124.644 2.990 10570.20
44.632 -123.380 3.134 12527.60
44.632 -122.116 3.345 12092.23
44.632 -120.853 3.416 12081.97
44.632 -119.589 3.528 14025.57
44.632 -118.325 3.686 20272.52
44.632 -117.061 3.729 19777.87
44.632 -115.797 3.611 17974.00
44.632 -114.534 3.527 17430.75
44.632 -113.270 3.456 16143.69
44.632 -112.006 3.456 16882.56
44.632 -110.742 3.499 18357.43
44.632 -109.479 3.650 18854.06
44.632 -108.215 3.857 16327.12
44.632 -106.951 3.881 17878.10
44.632 -105.687 3.754 17861.18
44.632 -104.423 3.802 17472.98
44.632 -103.160 3.816 17561.94
44.632 -101.896 3.859 17184.19
44.632 -100.632 4.015 15316.13
44.632 -99.368 4.136 14713.94
44.632 -98.104 4.182 13256.25
44.632 -96.841 4.117 12680.80
44.632 -95.577 4.045 12050.92
44.632 -94.313 3.913 11582.77
44.632 -93.049 3.934 10692.79
44.632 -91.785 4.033 10115.04
44.632 -90.522 4.106 8565.54
44.632 -89.258 4.046 9117.30
44.632 -87.994 4.000 8638.24
44.632 -86.730 3.945 7200.57
44.632 -85.467 3.849 6210.13
44.632 -84.203 3.858 4531.69
44.632 -82.939 3.939 4102.34
44.632 -81.675 4.032 3795.67
44.632 -80.411 4.060 3946.13
44.632 -79.148 4.063 4265.41
44.632 -77.884 4.057 4896.07
44.632 -76.620 3.971 4451.92
44.632 -75.356 3.955 5582.23
44.632 -74.092 3.972 3798.55
44.632 -72.829 4.024 2000.58
44.632 -71.565 4.024 1349.67
44.632 -70.301 3.962 741.73
44.632 -69.037 3.890 551.70
44.632 -67.773 3.847 515.71
44.632 -66.510 3.816 12.98
44.632 -65.246 3.782 0.00
44.632 -63.982 3.747 64.04
45.531 -135.316 3.723 161.85
45.531 -134.032 3.746 0.00
45.531 -132.748 3.829 148.86
45.531 -131.464 3.935 211.79
45.531 -130.180 3.946 166.85
45.531 -128.897 3.736 338.68
45.531 -127.613 3.498 1264.04
45.531 -126.329 3.389 1763.00
45.531 -125.045 3.264 3207.51
45.531 -123.761 3.320 7402.12
45.531 -122.477 3.422 9954.59
45.531 -121.193 3.482 11758.91
45.531 -119.910 3.550 16345.97
45.531 -118.626 3.654 20862.86
45.531 -117.342 3.711 17357.83
45.531 -116.058 3.658 13822.14
45.531 -114.774 3.579 16378.22
45.531 -113.490 3.545 14061.66
45.531 -112.207 3.522 15920.39
45.531 -110.923 3.557 15780.01
45.531 -109.639 3.665 14945.18
45.531 -108.355 3.804 13815.48
45.531 -107.071 3.882 15093.64
45.531 -105.787 3.882 14775.55
45.531 -104.504 3.889 12758.95
45.531 -103.220 3.865 12978.63
45.531 -101.936 3.933 13097.11
45.531 -100.652 4.087 13780.74
45.531 -99.368 4.150 12633.94
45.531 -98.084 4.187 12495.59
45.531 -96.801 4.100 12846.83
45.531 -95.517 3.983 11129.78
45.531 -94.233 3.934 9453.72
45.531 -92.949 3.934 9375.78
45.531 -91.665 4.015 8495.40
45.531 -90.381 4.065 8152.35
45.531 -89.097 4.025 8211.65
45.531 -87.814 4.010 7361.41
45.531 -86.530 3.976 6082.52
45.531 -85.246 3.939 4845.77
45.531 -83.962 3.948 4154.53
45.531 -82.678 3.989 4055.53
45.531 -81.394 4.046 3673.60
45.531 -80.111 4.048 3758.22
45.531 -78.827 4.019 3666.51
45.531 -77.543 4.041 3003.52
45.531 -76.259 4.013 3026.58
45.531 -74.975 4.044 2130.28
45.531 -73.691 4.144 1895.33
45.531 -72.408 4.189 1364.57
45.531 -71.124 4.152 1396.52
45.531 -69.840 4.052 1492.48
45.531 -68.556 3.951 238.21
45.531 -67.272 3.897 456.48
45.531 -65.988 3.843 379.10
45.531 -64.705 3.780 122.90
45.531 -63.421 3.747 260.76
46.431 -135.904 3.783 55.93
46.431 -134.600 3.805 98.96
46.431 -133.295 3.853 234.78
46.431 -131.990 3.894 152.86
46.431 -130.685 3.931 196.81
46.431 -129.380 3.855 328.67
46.431 -128.075 3.788 1246.96
46.431 -126.770 3.747 1504.69
46.431 -125.466 3.619 2450.82
46.431 -124.161 3.574 4373.80
46.431 -122.856 3.596 7886.32
46.431 -121.551 3.601 12262.01
46.431 -120.246 3.601 17352.27
46.431 -118.941 3.579 17822.79
46.431 -117.636 3.602 13643.74
46.431 -116.331 3.611 12400.71
46.431 -115.027 3.624 12727.80
46.431 -113.722 3.663 15340.23
46.431 -112.417 3.716 13038.21
46.431 -111.112 3.766 10633.36
46.431 -109.807 3.794 12120.77
46.431 -108.502 3.816 12533.72
46.431 -107.197 3.872 12296.84
46.431 -105.893 4.004 14805.14
46.431 -104.588 3.999 11154.05
46.431 -103.283 3.927 10966.76
46.431 -101.978 3.886 9028.44
46.431 -100.673 3.907 7326.07
46.431 -99.368 3.961 8080.74
46.431 -98.063 4.027 8713.22
46.431 -96.758 4.097 8946.48
46.431 -95.454 4.073 9511.65
46.431 -94.149 4.016 8719.26
46.431 -92.844 3.982 8217.18
46.431 -91.539 4.001 6978.81
46.431 -90.234 3.983 5856.91
46.431 -88.929 3.973 5671.61
46.431 -87.624 4.014 4198.19
46.431 -86.320 4.040 3651.12
46.431 -85.015 4.041 3355.17
46.431 -83.710 4.036 2705.26
46.431 -82.405 4.034 2650.94
46.431 -81.100 4.057 2596.18
46.431 -79.795 4.032 2656.16
46.431 -78.490 4.010 1914.16
46.431 -77.185 4.032 1976.29
46.431 -75.881 4.031 1821.17
46.431 -74.576 4.080 1167.80
46.431 -73.271 4.120 800.13
46.431 -71.966 4.071 547.34
46.431 -70.661 4.006 430.56
46.431 -69.356 3.941 456.52
46.431 -68.051 3.895 238.69
46.431 -66.747 3.860 214.77
46.431 -65.442 3.821 245.75
46.431 -64.137 3.779 487.42
46.431 -62.832 3.788 35.74
47.330 -136.522 3.848 174.10
47.330 -135.195 3.863 317.99
47.330 -133.868 3.883 144.86
47.330 -132.541 3.883 140.87
47.330 -131.214 3.853 159.85
47.330 -129.887 3.802 419.58
47.330 -128.561 3.787 1453.54
47.330 -127.234 3.812 2129.34
47.330 -125.907 3.787 1990.16
47.330 -124.580 3.721 3844.65
47.330 -123.253 3.648 9614.32
47.330 -121.926 3.622 14141.03
47.330 -120.599 3.651 15772.70
47.330 -119.272 3.582 13408.78
47.330 -117.945 3.630 10066.49
47.330 -116.618 3.705 11406.11
47.330 -115.291 3.717 12105.67
47.330 -113.964 3.749 11294.58
47.330 -112.637 3.849 10776.39
47.330 -111.311 3.924 10006.02
47.330 -109.984 3.921 10231.53
47.330 -108.657 3.932 9883.00
47.330 -107.330 3.977 9749.87
47.330 -106.003 4.080 10546.70
47.330 -104.676 4.108 10841.04
47.330 -103.349 4.044 7868.39
47.330 -102.022 3.975 8492.75
47.330 -100.695 3.897 7581.82
47.330 -99.368 3.890 7567.92
47.330 -98.041 3.970 7339.99
47.330 -96.714 4.015 6318.45
47.330 -95.387 4.041 5206.88
47.330 -94.061 3.998 4617.75
47.330 -92.734 4.009 4301.03
47.330 -91.407 4.026 2895.72
47.330 -90.080 3.988 3175.06
47.330 -88.753 3.981 4256.83
47.330 -87.426 4.039 3282.71
47.330 -86.099 4.108 2929.97
47.330 -84.772 4.136 2490.35
47.330 -83.445 4.104 2355.11
47.330 -82.118 4.082 2423.98
47.330 -80.791 4.081 2271.99
47.330 -79.464 4.037 2333.89
47.330 -78.137 4.035 1732.92
47.330 -76.811 4.008 1541.73
47.330 -75.484 4.021 1234.76
47.330 -74.157 4.044 1169.80
47.330 -72.830 4.020 929.38
47.330 -71.503 3.953 1075.06
47.330 -70.176 3.898 458.99
47.330 -68.849 3.851 0.00
47.330 -67.522 3.821 194.79
47.330 -66.195 3.795 313.68
47.330 -64.868 3.776 304.72
47.330 -63.541 3.788 94.91
47.330 -62.214 3.828 254.70
48.229 -137.170 3.901 374.65
48.229 -135.820 3.900 100.91
48.229 -134.470 3.894 146.90
48.229 -133.120 3.875 265.29
48.229 -131.770 3.821 216.08
48.229 -130.420 3.759 832.20
48.229 -129.070 3.724 1687.72
48.229 -127.720 3.792 1988.54
48.229 -126.370 3.796 2011.22
48.229 -125.020 3.754 5823.34
48.229 -123.670 3.648 13699.67
48.229 -122.320 3.639 13972.69
48.229 -120.969 3.679 13245.81
48.229 -119.619 3.654 9151.22
48.229 -118.269 3.715 9536.68
48.229 -116.919 3.720 11171.87
48.229 -115.569 3.722 9711.75
48.229 -114.219 3.766 9276.04
48.229 -112.869 3.886 8044.14
48.229 -111.519 3.919 7092.97
48.229 -110.169 3.939 7261.52
48.229 -108.819 4.009 8146.34
48.229 -107.469 4.075 8761.68
48.229 -106.119 4.136 7344.43
48.229 -104.769 4.092 10687.65
48.229 -103.418 4.037 7818.92
48.229 -102.068 4.009 7613.55
48.229 -100.718 3.958 7166.33
48.229 -99.368 3.902 7567.04
48.229 -98.018 3.895 5255.41
48.229 -96.668 3.929 4630.17
48.229 -95.318 3.923 3579.93
48.229 -93.968 3.975 2558.56
48.229 -92.618 4.093 2410.89
48.229 -91.268 4.108 2371.18
48.229 -89.918 4.041 1916.32
48.229 -88.568 4.040 1949.66
48.229 -87.217 4.070 1471.46
48.229 -85.867 4.088 940.76
48.229 -84.517 4.046 971.99
48.229 -83.167 4.016 1162.80
48.229 -81.817 4.064 1490.47
48.229 -80.467 4.102 1387.08
48.229 -79.117 4.052 1132.40
48.229 -77.767 4.017 1135.84
48.229 -76.417 3.961 1094.10
48.229 -75.067 3.971 727.75
48.229 -73.717 3.981 671.32
48.229 -72.367 3.947 741.16
48.229 -71.017 3.903 321.41
48.229 -69.666 3.851 0.00
48.229 -68.316 3.808 82.90
48.229 -66.966 3.765 268.71
48.229 -65.616 3.755 161.85
48.229 -64.266 3.776 193.82
48.229 -62.916 3.805 134.87
48.229 -61.566 3.856 228.76
49.129 -137.851 3.938 576.42
49.129 -136.477 3.930 167.83
49.129 -135.103 3.887 302.70
49.129 -133.728 3.834 405.59
49.129 -132.354 3.785 672.32
49.129 -130.979 3.773 1021.89
49.129 -129.605 3.737 1038.04
49.129 -128.231 3.775 2386.04
49.129 -126.856 3.780 3486.98
49.129 -125.482 3.759 13640.52
49.129 -124.107 3.720 15961.84
49.129 -122.733 3.743 11855.25
49.129 -121.359 3.769 10270.70
49.129 -119.984 3.726 10438.67
49.129 -118.610 3.712 8227.53
49.129 -117.235 3.762 7865.46
49.129 -115.861 3.788 5953.59
49.129 -114.487 3.828 5994.17
49.129 -113.112 3.859 6266.96
49.129 -111.738 3.814 5254.49
49.129 -110.363 3.825 5332.34
49.129 -108.989 3.903 5774.15
49.129 -107.615 3.977 5820.48
49.129 -106.240 3.983 6573.90
49.129 -104.866 3.960 8121.69
49.129 -103.491 4.002 8659.60
49.129 -102.117 4.027 6684.10
49.129 -100.743 4.019 6912.22
49.129 -99.368 3.984 5796.94
49.129 -97.994 3.988 4621.07
49.129 -96.619 3.972 3059.89
49.129 -95.245 3.937 2400.98
49.129 -93.871 3.968 1379.98
49.129 -92.496 4.057 1265.78
49.129 -91.122 4.078 1418.19
49.129 -89.747 4.064 1575.40
49.129 -88.373 4.086 2153.75
49.129 -86.999 4.082 1551.38
49.129 -85.624 4.032 1432.51
49.129 -84.250 3.991 1622.34
49.129 -82.875 3.982 1454.33
49.129 -81.501 4.031 822.10
49.129 -80.127 4.067 1479.46
49.129 -78.752 4.023 1229.74
49.129 -77.378 3.987 484.52
49.129 -76.003 3.918 540.46
49.129 -74.629 3.890 296.70
49.129 -73.255 3.884 355.62
49.129 -71.880 3.864 384.64
49.129 -70.506 3.848 13.98
49.129 -69.131 3.812 122.86
49.129 -67.757 3.764 252.46
49.129 -66.383 3.755 92.90
49.129 -65.008 3.776 120.89
49.129 -63.634 3.805 79.93
49.129 -62.259 3.838 117.87
49.129 -60.885 3.885 352.67
50.028 -138.567 3.942 512.52
50.028 -137.167 3.936 609.90
50.028 -135.767 3.852 574.42
50.028 -134.367 3.791 526.44
50.028 -132.967 3.781 294.72
50.028 -131.567 3.803 821.09
50.028 -130.167 3.765 1095.01
50.028 -128.767 3.790 3390.14
50.028 -127.368 3.778 14425.42
50.028 -125.968 3.775 17655.42
50.028 -124.568 3.805 14773.85
50.028 -123.168 3.797 12005.76
50.028 -121.768 3.754 10673.54
50.028 -120.368 3.701 8450.42
50.028 -118.968 3.693 7249.19
50.028 -117.568 3.735 7179.92
50.028 -116.168 3.798 5810.64
50.028 -114.768 3.856 5856.48
50.028 -113.368 3.847 5553.51
50.028 -111.968 3.798 4091.51
50.028 -110.568 3.762 3917.41
50.028 -109.168 3.788 4779.51
50.028 -107.768 3.857 4747.11
50.028 -106.368 3.871 5444.41
50.028 -104.968 3.859 6175.59
50.028 -103.568 3.892 8409.33
50.028 -102.168 3.926 6930.39
50.028 -100.768 3.997 6395.04
50.028 -99.368 3.983 4280.31
50.028 -97.968 4.024 3316.28
50.028 -96.568 4.050 3408.62
50.028 -95.168 4.002 1751.27
50.028 -93.768 3.968 1164.81
50.028 -92.368 3.976 1184.73
50.028 -90.968 3.967 1305.63
50.028 -89.568 4.000 1629.32
50.028 -88.168 4.058 1678.28
50.028 -86.769 4.022 1203.73
50.028 -85.369 3.978 1031.89
50.028 -83.969 3.954 1082.83
50.028 -82.569 3.951 765.18
50.028 -81.169 3.994 1086.89
50.028 -79.769 4.010 1036.89
50.028 -78.369 3.990 609.37
50.028 -76.969 3.956 410.17
50.028 -75.569 3.868 466.56
50.028 -74.169 3.824 375.60
50.028 -72.769 3.817 104.89
50.028 -71.369 3.817 335.69
50.028 -69.969 3.802 201.79
50.028 -68.569 3.777 218.80
50.028 -67.169 3.785 258.74
50.028 -65.769 3.795 72.93
50.028 -64.369 3.817 127.88
50.028 -62.969 3.844 163.84
50.028 -61.569 3.867 525.50
50.028 -60.169 3.883 151.86
50.927 -139.320 3.908 903.14
50.927 -137.893 3.893 714.31
50.927 -136.466 3.824 350.64
50.927 -135.040 3.805 2.00
50.927 -133.613 3.831 598.37
50.927 -132.186 3.818 587.37
50.927 -130.759 3.776 1830.44
50.927 -129.332 3.773 18751.91
50.927 -127.905 3.744 24494.52
50.927 -126.478 3.754 17012.46
50.927 -125.052 3.669 15064.66
50.927 -123.625 3.577 11386.23
50.927 -122.198 3.577 8905.28
50.927 -120.771 3.591 7828.70
50.927 -119.344 3.614 7344.19
50.927 -117.917 3.658 6738.53
50.927 -116.490 3.753 5129.05
50.927 -115.064 3.770 4177.04
50.927 -113.637 3.761 4186.01
50.927 -112.210 3.777 2929.84
50.927 -110.783 3.810 2715.19
50.927 -109.356 3.842 2744.21
50.927 -107.929 3.860 5140.36
50.927 -106.502 3.875 5266.15
50.927 -105.076 3.882 6916.37
50.927 -103.649 3.910 8224.37
50.927 -102.222 3.952 8404.78
50.927 -100.795 3.964 5699.33
50.927 -99.368 4.020 3976.16
50.927 -97.941 4.032 2501.12
50.927 -96.514 4.030 1875.09
50.927 -95.088 3.966 1442.49
50.927 -93.661 3.924 1446.47
50.927 -92.234 3.937 1268.64
50.927 -90.807 3.957 1569.39
50.927 -89.380 4.012 1013.20
50.927 -87.953 4.003 973.06
50.927 -86.526 3.961 1401.50
50.927 -85.100 3.958 1203.68
50.927 -83.673 3.985 784.20
50.927 -82.246 4.009 1108.85
50.927 -80.819 4.017 831.11
50.927 -79.392 3.991 550.43
50.927 -77.965 3.937 210.79
50.927 -76.538 3.874 542.49
50.927 -75.112 3.825 385.61
50.927 -73.685 3.811 266.72
50.927 -72.258 3.797 349.65
50.927 -70.831 3.788 353.67
50.927 -69.404 3.791 154.86
50.927 -67.977 3.805 249.76
50.927 -66.550 3.823 198.80
50.927 -65.124 3.837 259.76
50.927 -63.697 3.854 306.71
50.927 -62.270 3.866 479.53
50.927 -60.843 3.858 311.71
50.927 -59.416 3.860 651.39
51.827 -140.113 3.873 957.11
51.827 -138.658 3.864 218.79
51.827 -137.203 3.817 21.97
51.827 -135.747 3.832 155.82
51.827 -134.292 3.856 820.15
51.827 -132.837 3.776 489.50
51.827 -131.382 3.665 28348.54
51.827 -129.927 3.618 39423.99
51.827 -128.472 3.545 18896.39
51.827 -127.016 3.460 13574.41
51.827 -125.561 3.382 10575.85
51.827 -124.106 3.380 8845.36
51.827 -122.651 3.499 6394.21
51.827 -121.196 3.580 4599.74
51.827 -119.741 3.622 3783.62
51.827 -118.285 3.644 3772.58
51.827 -116.830 3.735 2761.24
51.827 -115.375 3.796 2417.63
51.827 -113.920 3.804 2616.30
51.827 -112.465 3.884 2522.00
51.827 -111.010 3.917 2882.63
51.827 -109.554 3.942 3503.04
51.827 -108.099 3.920 5297.72
51.827 -106.644 3.941 7167.71
51.827 -105.189 3.999 7007.15
51.827 -103.734 4.029 8402.18
51.827 -102.279 4.033 8599.14
51.827 -100.823 3.999 5447.38
51.827 -99.368 3.972 3240.41
51.827 -97.913 3.957 2139.83
51.827 -96.458 3.927 1221.77
51.827 -95.003 3.914 1606.38
51.827 -93.548 3.922 1222.74
51.827 -92.092 3.988 1167.80
51.827 -90.637 4.043 1224.16
51.827 -89.182 4.055 1106.79
51.827 -87.727 3.982 1575.32
51.827 -86.272 3.936 1275.61
51.827 -84.817 3.980 766.20
51.827 -83.361 4.046 1179.79
51.827 -81.906 4.054 1009.25
51.827 -80.451 4.027 626.32
51.827 -78.996 3.952 622.39
51.827 -77.541 3.877 281.72
51.827 -76.085 3.810 573.45
51.827 -74.630 3.806 563.47
51.827 -73.175 3.815 581.41
51.827 -71.720 3.788 437.59
51.827 -70.265 3.788 188.82
51.827 -68.810 3.805 223.80
51.827 -67.354 3.834 200.79
51.827 -65.899 3.849 194.82
51.827 -64.444 3.856 637.41
51.827 -62.989 3.851 673.35
51.827 -61.534 3.843 509.52
51.827 -60.079 3.833 615.43
51.827 -58.623 3.838 290.73
52.726 -140.948 3.858 402.63
52.726 -139.463 3.838 91.89
52.726 -137.978 3.815 135.84
52.726 -136.493 3.845 560.43
52.726 -135.008 3.808 733.29
52.726 -133.523 3.666 466.53
52.726 -132.038 3.491 3017.29
52.726 -130.553 3.423 6508.52
52.726 -129.068 3.476 5696.11
52.726 -127.583 3.505 5534.44
52.726 -126.098 3.464 5240.26
52.726 -124.613 3.535 5118.19
52.726 -123.128 3.672 4040.28
52.726 -121.643 3.720 3796.85
52.726 -120.158 3.751 3276.06
52.726 -118.673 3.766 3708.28
52.726 -117.188 3.847 2986.19
52.726 -115.703 3.943 2862.07
52.726 -114.218 3.964 2241.29
52.726 -112.733 4.038 3567.41
52.726 -111.248 4.038 3934.97
52.726 -109.763 3.983 4144.58
52.726 -108.278 3.920 5158.59
52.726 -106.793 3.903 6924.76
52.726 -105.308 3.987 7364.28
52.726 -103.823 4.035 8835.86
52.726 -102.338 4.046 7845.83
52.726 -100.853 4.017 5943.45
52.726 -99.368 3.998 2720.12
52.726 -97.883 3.961 1266.74
52.726 -96.398 3.912 1197.80
52.726 -94.913 3.906 1047.93
52.726 -93.428 3.948 1014.94
52.726 -91.943 4.047 908.03
52.726 -90.458 4.116 1388.46
52.726 -88.973 4.094 1210.66
52.726 -87.488 3.977 1337.64
52.726 -86.003 3.955 1022.95
52.726 -84.518 4.000 1082.02
52.726 -83.033 4.029 424.58
52.726 -81.548 4.024 461.47
52.726 -80.063 4.005 595.36
52.726 -78.578 3.894 789.04
52.726 -77.093 3.834 678.33
52.726 -75.608 3.808 747.28
52.726 -74.123 3.837 523.47
52.726 -72.638 3.827 653.39
52.726 -71.153 3.812 535.50
52.726 -69.668 3.817 334.69
52.726 -68.183 3.832 563.48
52.726 -66.698 3.841 534.49
52.726 -65.213 3.846 826.23
52.726 -63.728 3.844 533.50
52.726 -62.243 3.838 463.55
52.726 -60.758 3.828 396.63
52.726 -59.273 3.831 5.00
52.726 -57.788 3.840 263.76
53.625 -141.829 3.819 586.42
53.625 -140.313 3.807 174.83
53.625 -138.796 3.825 382.65
53.625 -137.280 3.874 636.34
53.625 -135.763 3.821 184.80
53.625 -134.247 3.705 357.63
53.625 -132.730 3.587 585.03
53.625 -131.214 3.599 2105.91
53.625 -129.697 3.641 2675.38
53.625 -128.181 3.637 2731.17
53.625 -126.665 3.585 2565.30
53.625 -125.148 3.651 3231.69
53.625 -123.632 3.747 1819.15
53.625 -122.115 3.793 2122.71
53.625 -120.599 3.814 2123.94
53.625 -119.082 3.873 2393.64
53.625 -117.566 3.980 2457.46
53.625 -116.049 4.061 2486.35
53.625 -114.533 4.047 2423.61
53.625 -113.016 3.995 3119.19
53.625 -111.500 4.001 3844.05
53.625 -109.983 3.939 4934.91
53.625 -108.467 3.904 5386.32
53.625 -106.951 3.939 6580.14
53.625 -105.434 3.995 8415.29
53.625 -103.918 4.011 6826.93
53.625 -102.401 4.030 6304.50
53.625 -100.885 4.086 5695.25
53.625 -99.368 4.070 2666.21
53.625 -97.852 4.017 1791.12
53.625 -96.335 3.961 652.30
53.625 -94.819 3.959 1082.87
53.625 -93.302 4.007 865.06
53.625 -91.786 4.032 1223.72
53.625 -90.269 4.059 926.01
53.625 -88.753 4.050 986.95
53.625 -87.237 3.975 1199.86
53.625 -85.720 3.974 1302.65
53.625 -84.204 3.997 539.46
53.625 -82.687 4.024 357.65
53.625 -81.171 4.012 539.40
53.625 -79.654 3.984 457.49
53.625 -78.138 3.902 279.72
53.625 -76.621 3.865 668.55
53.625 -75.105 3.849 980.04
53.625 -73.588 3.862 950.55
53.625 -72.072 3.864 632.38
53.625 -70.555 3.894 439.59
53.625 -69.039 3.919 431.58
53.625 -67.523 3.915 942.10
53.625 -66.006 3.876 681.37
53.625 -64.490 3.844 441.59
53.625 -62.973 3.827 326.67
53.625 -61.457 3.819 236.78
53.625 -59.940 3.821 110.90
53.625 -58.424 3.840 333.68
53.625 -56.907 3.842 265.72
54.525 -142.759 3.823 258.74
54.525 -141.209 3.828 317.70
54.525 -139.660 3.868 304.67
54.525 -138.110 3.853 316.70
54.525 -136.560 3.810 217.74
54.525 -135.011 3.743 382.66
54.525 -133.461 3.686 677.90
54.525 -131.911 3.771 1978.21
54.525 -130.362 3.839 2023.42
54.525 -128.812 3.801 2464.47
54.525 -127.262 3.708 2436.47
54.525 -125.713 3.718 2738.23
54.525 -124.163 3.777 1540.89
54.525 -122.613 3.873 1519.94
54.525 -121.064 3.942 1575.51
54.525 -119.514 4.015 1445.60
54.525 -117.964 4.097 1665.33
54.525 -116.415 4.125 2340.47
54.525 -114.865 4.094 2405.49
54.525 -113.315 4.003 2758.18
54.525 -111.766 3.974 3986.86
54.525 -110.216 3.949 5789.97
54.525 -108.666 3.942 5863.83
54.525 -107.117 4.004 7915.81
54.525 -105.567 4.000 7282.43
54.525 -104.017 4.007 4559.68
54.525 -102.468 4.023 5273.31
54.525 -100.918 4.100 4412.42
54.525 -99.368 4.090 3506.45
54.525 -97.819 4.031 1442.43
54.525 -96.269 4.002 1246.68
54.525 -94.719 3.982 1118.83
54.525 -93.170 3.969 910.03
54.525 -91.620 3.962 867.08
54.525 -90.070 4.023 1389.52
54.525 -88.520 4.058 1206.81
54.525 -86.971 3.986 1275.73
54.525 -85.421 3.959 520.25
54.525 -83.871 3.992 390.59
54.525 -82.322 4.011 420.54
54.525 -80.772 4.007 304.66
54.525 -79.222 4.009 579.39
54.525 -77.673 3.953 304.70
54.525 -76.123 3.896 651.38
54.525 -74.573 3.882 468.54
54.525 -73.024 3.894 467.52
54.525 -71.474 3.918 555.44
54.525 -69.924 3.982 388.18
54.525 -68.375 4.026 917.98
54.525 -66.825 3.978 543.84
54.525 -65.275 3.903 250.77
54.525 -63.726 3.850 229.77
54.525 -62.176 3.827 121.87
54.525 -60.626 3.833 124.86
54.525 -59.077 3.857 319.67
54.525 -57.527 3.858 182.80
54.525 -55.977 3.850 112.89
55.424 -143.742 3.833 495.54
55.424 -142.157 3.850 19.98
55.424 -140.572 3.885 432.53
55.424 -138.988 3.815 226.78
55.424 -137.403 3.770 147.83
55.424 -135.818 3.729 641.42
55.424 -134.233 3.682 600.42
55.424 -132.648 3.772 2044.50
55.424 -131.064 3.841 1812.16
55.424 -129.479 3.766 2192.61
55.424 -127.894 3.666 1751.20
55.424 -126.309 3.686 2591.43
55.424 -124.725 3.717 1774.60
55.424 -123.140 3.847 1336.60
55.424 -121.555 3.997 1623.50
55.424 -119.970 4.094 2158.93
55.424 -118.385 4.160 1923.00
55.424 -116.801 4.115 2239.60
55.424 -115.216 4.070 2880.93
55.424 -113.631 4.013 2838.10
55.424 -112.046 3.953 4385.49
55.424 -110.462 3.951 6273.51
55.424 -108.877 3.983 8132.57
55.424 -107.292 3.985 6631.09
55.424 -105.707 3.983 5622.07
55.424 -104.123 3.968 3527.58
55.424 -102.538 3.987 3270.63
55.424 -100.953 4.000 3732.10
55.424 -99.368 4.073 5210.63
55.424 -97.783 4.066 1940.87
55.424 -96.199 4.041 1256.73
55.424 -94.614 3.943 780.21
55.424 -93.029 3.866 912.01
55.424 -91.444 3.905 690.32
55.424 -89.860 4.033 1830.11
55.424 -88.275 4.074 749.21
55.424 -86.690 4.010 924.10
55.424 -85.105 3.986 902.03
55.424 -83.520 4.004 497.46
55.424 -81.936 4.008 447.50
55.424 -80.351 4.012 404.52
55.424 -78.766 3.975 569.41
55.424 -77.181 3.922 309.69
55.424 -75.597 3.860 515.50
55.424 -74.012 3.852 419.55
55.424 -72.427 3.861 357.62
55.424 -70.842 3.886 320.63
55.424 -69.257 3.911 412.57
55.424 -67.673 3.914 642.36
55.424 -66.088 3.870 391.61
55.424 -64.503 3.831 336.45
55.424 -62.918 3.805 224.74
55.424 -61.334 3.809 142.44
55.424 -59.749 3.845 187.82
55.424 -58.164 3.864 77.93
55.424 -56.579 3.851 348.67
55.424 -54.995 3.829 293.73
56.324 -144.782 3.858 49.95
56.324 -143.160 3.878 295.67
56.324 -141.538 3.854 169.82
56.324 -139.916 3.781 255.75
56.324 -138.294 3.749 287.70
56.324 -136.672 3.717 775.26
56.324 -135.050 3.665 857.14
56.324 -133.428 3.717 1307.05
56.324 -131.806 3.782 2187.90
56.324 -130.184 3.704 1841.04
56.324 -128.563 3.617 1348.57
56.324 -126.941 3.678 1578.38
56.324 -125.319 3.711 1986.66
56.324 -123.697 3.842 1694.41
56.324 -122.075 3.999 2029.40
56.324 -120.453 4.114 2068.91
56.324 -118.831 4.189 2158.69
56.324 -117.209 4.072 1694.23
56.324 -115.587 3.989 3207.65
56.324 -113.965 4.009 4684.09
56.324 -112.343 3.969 5991.81
56.324 -110.722 3.975 7227.46
56.324 -109.100 4.004 7982.82
56.324 -107.478 3.978 5814.23
56.324 -105.856 3.970 2862.90
56.324 -104.234 3.981 3762.08
56.324 -102.612 3.969 2925.90
56.324 -100.990 3.942 4280.50
56.324 -99.368 4.041 4364.41
56.324 -97.746 4.101 3367.57
56.324 -96.124 4.041 1109.87
56.324 -94.502 3.913 659.28
56.324 -92.881 3.842 1390.57
56.324 -91.259 3.932 1268.72
56.324 -89.637 4.042 879.02
56.324 -88.015 4.080 478.54
56.324 -86.393 4.005 888.11
56.324 -84.771 3.959 547.39
56.324 -83.149 3.977 237.75
56.324 -81.527 3.990 591.37
56.324 -79.905 3.963 352.92
56.324 -78.283 3.890 411.60
56.324 -76.661 3.854 220.78
56.324 -75.040 3.820 496.62
56.324 -73.418 3.825 461.50
56.324 -71.796 3.832 416.57
56.324 -70.174 3.840 279.71
56.324 -68.552 3.832 355.62
56.324 -66.930 3.798 545.44
56.324 -65.308 3.772 328.70
56.324 -63.686 3.758 250.75
56.324 -62.064 3.764 34.97
56.324 -60.442 3.780 0.00
56.324 -58.820 3.810 0.00
56.324 -57.199 3.830 371.88
56.324 -55.577 3.817 61.94
56.324 -53.955 3.819 0.00
57.223 -145.883 3.890 72.91
57.223 -144.222 3.895 410.56
57.223 -142.561 3.812 0.00
57.223 -140.899 3.754 363.65
57.223 -139.238 3.740 562.42
57.223 -137.577 3.709 736.29
57.223 -135.916 3.662 999.55
57.223 -134.254 3.702 1239.03
57.223 -132.593 3.762 1632.27
57.223 -130.932 3.693 1658.27
57.223 -129.271 3.624 1304.58
57.223 -127.609 3.702 1165.70
57.223 -125.948 3.753 2387.78
57.223 -124.287 3.874 2408.62
57.223 -122.626 3.999 2154.93
57.223 -120.964 4.139 1265.69
57.223 -119.303 4.178 1795.08
57.223 -117.642 4.053 2276.66
57.223 -115.981 3.988 3618.29
57.223 -114.319 3.999 6623.08
57.223 -112.658 4.000 7824.84
57.223 -110.997 4.008 8427.33
57.223 -109.336 4.001 6309.81
57.223 -107.674 3.991 3669.35
57.223 -106.013 3.990 2820.97
57.223 -104.352 4.015 3723.09
57.223 -102.691 3.986 3033.78
57.223 -101.029 3.970 3682.12
57.223 -99.368 3.996 3511.36
57.223 -97.707 4.043 4160.70
57.223 -96.046 4.003 1871.06
57.223 -94.384 3.958 1273.70
57.223 -92.723 3.917 1484.48
57.223 -91.062 3.993 662.30
57.223 -89.401 4.101 869.05
57.223 -87.739 4.078 541.44
57.223 -86.078 3.973 689.31
57.223 -84.417 3.926 589.33
57.223 -82.756 3.927 422.55
57.223 -81.094 3.947 468.50
57.223 -79.433 3.925 382.58
57.223 -77.772 3.847 309.67
57.223 -76.111 3.817 357.64
57.223 -74.449 3.818 314.68
57.223 -72.788 3.835 321.69
57.223 -71.127 3.837 205.81
57.223 -69.466 3.824 0.00
57.223 -67.805 3.800 383.63
57.223 -66.143 3.776 300.71
57.223 -64.482 3.761 183.80
57.223 -62.821 3.749 153.84
57.223 -61.160 3.744 145.87
57.223 -59.498 3.750 137.88
57.223 -57.837 3.772 6.99
57.223 -56.176 3.787 0.00
57.223 -54.515 3.787 89.25
57.223 -52.853 3.814 9.99
58.122 -147.051 3.919 419.54
58.122 -145.348 3.884 84.91
58.122 -143.645 3.778 107.90
58.122 -141.942 3.738 645.35
58.122 -140.239 3.738 526.50
58.122 -138.537 3.716 875.09
58.122 -136.834 3.699 805.19
58.122 -135.131 3.750 1358.37
58.122 -133.428 3.817 1910.96
58.122 -131.725 3.766 1600.47
58.122 -130.022 3.713 1892.60
58.122 -128.319 3.777 1497.70
58.122 -126.616 3.824 2560.42
58.122 -124.913 3.924 1639.31
58.122 -123.210 4.021 1965.19
58.122 -121.507 4.133 1723.27
58.122 -119.804 4.123 1463.44
58.122 -118.101 4.033 2517.42
58.122 -116.398 4.001 4875.97
58.122 -114.695 4.008 8580.13
58.122 -112.992 4.048 10468.10
58.122 -111.289 4.018 7185.56
58.122 -109.586 3.994 3636.30
58.122 -107.883 4.004 2913.01
58.122 -106.180 4.013 2748.10
58.122 -104.477 4.031 2528.30
58.122 -102.774 4.052 3871.92
58.122 -101.071 3.986 3118.74
58.122 -99.368 3.907 3788.98
58.122 -97.665 3.962 4534.30
58.122 -95.962 3.990 2762.07
58.122 -94.259 4.012 1747.24
58.122 -92.556 4.021 1187.80
58.122 -90.853 4.070 802.12
58.122 -89.150 4.146 830.06
58.122 -87.447 4.056 660.29
58.122 -85.744 3.929 852.13
58.122 -84.041 3.873 531.43
58.122 -82.339 3.884 202.77
58.122 -80.636 3.925 305.68
58.122 -78.933 3.920 368.61
58.122 -77.230 3.849 155.84
58.122 -75.527 3.817 565.44
58.122 -73.824 3.820 393.61
58.122 -72.121 3.824 200.81
58.122 -70.418 3.823 0.00
58.122 -68.715 3.811 138.85
58.122 -67.012 3.789 329.69
58.122 -65.309 3.785 144.86
58.122 -63.606 3.777 176.82
58.122 -61.903 3.768 87.90
58.122 -60.200 3.757 107.89
58.122 -58.497 3.751 72.93
58.122 -56.794 3.749 149.87
58.122 -55.091 3.755 89.93
58.122 -53.388 3.766 21.98
58.122 -51.685 3.809 76.91
59.022 -148.292 3.911 568.37
59.022 -146.545 3.860 86.37
59.022 -144.798 3.756 615.39
59.022 -143.050 3.738 321.66
59.022 -141.303 3.753 878.11
59.022 -139.556 3.727 674.31
59.022 -137.808 3.745 1134.97
59.022 -136.061 3.786 1862.62
59.022 -134.314 3.876 3862.80
59.022 -132.567 3.853 2022.95
59.022 -130.819 3.809 1296.01
59.022 -129.072 3.866 941.04
59.022 -127.325 3.896 2101.89
59.022 -125.577 3.920 1849.15
59.022 -123.830 4.011 1146.98
59.022 -122.083 4.132 1012.02
59.022 -120.336 4.073 1599.28
59.022 -118.588 4.033 3836.03
59.022 -116.841 3.976 8880.79
59.022 -115.094 3.983 11409.20
59.022 -113.346 4.029 9236.95
59.022 -111.599 4.042 4137.15
59.022 -109.852 4.017 2652.33
59.022 -108.105 4.017 2012.90
59.022 -106.357 4.048 2414.49
59.022 -104.610 4.058 2367.51
59.022 -102.863 4.034 3253.63
59.022 -101.115 3.961 2941.88
59.022 -99.368 3.883 4541.22
59.022 -97.621 3.932 3798.03
59.022 -95.874 4.029 3807.89
59.022 -94.126 4.048 1054.74
59.022 -92.379 4.081 667.31
59.022 -90.632 4.090 1265.64
59.022 -88.884 4.108 542.41
59.022 -87.137 4.017 513.50
59.022 -85.390 3.887 817.16
59.022 -83.643 3.849 500.44
59.022 -81.895 3.885 115.88
59.022 -80.148 3.930 306.68
59.022 -78.401 3.923 525.46
59.022 -76.654 3.867 260.74
59.022 -74.906 3.808 454.55
59.022 -73.159 3.805 263.74
59.022 -71.412 3.809 189.82
59.022 -69.664 3.806 0.00
59.022 -67.917 3.797 369.64
59.022 -66.170 3.793 214.79
59.022 -64.423 3.793 104.89
59.022 -62.675 3.787 11.99
59.022 -60.928 3.779 51.95
59.022 -59.181 3.771 88.91
59.022 -57.433 3.764 103.89
59.022 -55.686 3.756 85.92
59.022 -53.939 3.755 76.93
59.022 -52.192 3.764 100.91
59.022 -50.444 3.799 77.94
59.921 -149.612 3.848 561.34
59.921 -147.818 3.807 222.77
59.921 -146.023 3.738 508.47
59.921 -144.229 3.752 590.35
59.921 -142.434 3.757 838.21
59.921 -140.640 3.722 380.82
59.921 -138.845 3.737 1004.76
59.921 -137.051 3.779 922.34
59.921 -135.257 3.841 2214.06
59.921 -133.462 3.809 1622.33
59.921 -131.668 3.775 1207.78
59.921 -129.873 3.837 1031.93
59.921 -128.079 3.858 1541.45
59.921 -126.284 3.855 2603.34
59.921 -124.490 3.967 1369.66
59.921 -122.696 4.098 1030.96
59.921 -120.901 4.059 2006.97
59.921 -119.107 4.020 7211.51
59.921 -117.312 4.003 12409.17
59.921 -115.518 3.954 10054.56
59.921 -113.724 3.986 4200.83
59.921 -111.929 4.051 3293.47
59.921 -110.135 4.053 2051.87
59.921 -108.340 4.051 2187.74
59.921 -106.546 4.037 2333.63
59.921 -104.751 4.018 2632.23
59.921 -102.957 4.009 3045.83
59.921 -101.163 4.008 4074.73
59.921 -99.368 3.976 3785.35
59.921 -97.574 3.971 3765.41
59.921 -95.779 4.062 3546.60
59.921 -93.985 4.057 1546.42
59.921 -92.191 4.048 544.43
59.921 -90.396 4.010 791.13
59.921 -88.602 4.047 648.34
59.921 -86.807 3.994 767.21
59.921 -85.013 3.890 750.23
59.921 -83.218 3.887 472.47
59.921 -81.424 3.928 322.66
59.921 -79.630 3.944 497.48
59.921 -77.835 3.893 439.55
59.921 -76.041 3.839 298.70
59.921 -74.246 3.800 398.60
59.921 -72.452 3.798 277.74
59.921 -70.657 3.806 25.98
59.921 -68.863 3.805 172.82
59.921 -67.069 3.792 344.67
59.921 -65.274 3.794 120.88
59.921 -63.480 3.792 64.93
59.921 -61.685 3.787 0.00
59.921 -59.891 3.783 0.00
59.921 -58.097 3.780 14.99
59.921 -56.302 3.775 75.93
59.921 -54.508 3.769 92.90
59.921 -52.713 3.764 112.88
59.921 -50.919 3.776 80.92
59.921 -49.124 3.804 259.84
60.820 -151.018 3.775 331.66
60.820 -149.173 3.751 450.58
60.820 -147.329 3.731 445.89
60.820 -145.484 3.762 870.84
60.820 -143.639 3.759 630.01
60.820 -141.795 3.726 759.15
60.820 -139.950 3.758 606.38
60.820 -138.106 3.771 662.46
60.820 -136.261 3.777 1138.22
60.820 -134.416 3.735 989.02
60.820 -132.572 3.724 751.23
60.820 -130.727 3.814 510.56
60.820 -128.882 3.838 741.24
60.820 -127.038 3.831 2737.29
60.820 -125.193 3.939 1039.99
60.820 -123.348 4.065 1204.72
60.820 -121.504 4.046 4774.06
60.820 -119.659 3.979 14336.16
60.820 -117.815 3.969 11747.92
60.820 -115.970 3.957 4090.65
60.820 -114.125 3.940 2762.17
60.820 -112.281 4.017 2999.82
60.820 -110.436 4.109 2855.92
60.820 -108.591 4.079 2259.73
60.820 -106.747 4.028 2386.54
60.820 -104.902 4.030 2577.36
60.820 -103.057 4.068 2412.45
60.820 -101.213 4.101 3807.48
60.820 -99.368 4.109 2918.80
60.820 -97.524 4.043 4168.64
60.820 -95.679 4.024 3352.50
60.820 -93.834 3.997 3320.49
60.820 -91.990 3.973 556.39
60.820 -90.145 3.953 820.11
60.820 -88.300 3.983 408.57
60.820 -86.456 3.969 698.29
60.820 -84.611 3.913 1466.48
60.820 -82.766 3.942 699.24
60.820 -80.922 3.968 296.68
60.820 -79.077 3.948 599.27
60.820 -77.233 3.866 331.66
60.820 -75.388 3.805 494.50
60.820 -73.543 3.785 304.69
60.820 -71.699 3.798 199.81
60.820 -69.854 3.805 0.00
60.820 -68.009 3.799 426.59
60.820 -66.165 3.796 175.83
60.820 -64.320 3.794 100.89
60.820 -62.475 3.788 0.00
60.820 -60.631 3.785 0.00
60.820 -58.786 3.785 0.00
60.820 -56.942 3.784 0.00
60.820 -55.097 3.781 0.00
60.820 -53.252 3.774 54.95
60.820 -51.408 3.766 94.90
60.820 -49.563 3.768 111.88
60.820 -47.718 3.776 199.78
61.720 -152.518 3.753 380.58
61.720 -150.620 3.746 39.96
61.720 -148.722 3.737 762.73
61.720 -146.824 3.757 715.07
61.720 -144.926 3.744 707.23
61.720 -143.027 3.713 928.59
61.720 -141.129 3.755 310.73
61.720 -139.231 3.751 449.59
61.720 -137.333 3.715 1083.65
61.720 -135.434 3.693 911.91
61.720 -133.536 3.724 346.88
61.720 -131.638 3.827 768.31
61.720 -129.740 3.831 651.35
61.720 -127.842 3.833 2351.71
61.720 -125.943 3.942 1575.46
61.720 -124.045 4.056 2160.77
61.720 -122.147 4.024 16587.84
61.720 -120.249 3.949 14218.60
61.720 -118.350 3.956 3369.23
61.720 -116.452 3.963 2087.78
61.720 -114.554 3.989 2408.49
61.720 -112.656 4.100 3216.71
61.720 -110.758 4.140 2812.08
61.720 -108.859 4.107 2512.37
61.720 -106.961 4.064 2032.92
61.720 -105.063 4.068 2101.76
61.720 -103.165 4.119 2327.68
61.720 -101.266 4.182 2572.38
61.720 -99.368 4.156 3575.31
61.720 -97.470 4.041 4133.73
61.720 -95.572 3.960 3459.39
61.720 -93.674 3.974 2540.40
61.720 -91.775 3.990 1549.41
61.720 -89.877 3.974 933.99
61.720 -87.979 3.955 441.52
61.720 -86.081 3.929 507.49
61.720 -84.182 3.877 818.15
61.720 -82.284 3.937 691.27
61.720 -80.386 3.974 747.21
61.720 -78.488 3.943 520.46
61.720 -76.590 3.853 241.75
61.720 -74.691 3.786 490.51
61.720 -72.793 3.790 346.66
61.720 -70.895 3.811 87.92
61.720 -68.997 3.808 246.75
61.720 -67.098 3.793 313.70
61.720 -65.200 3.794 130.87
61.720 -63.302 3.790 13.99
61.720 -61.404 3.785 0.00
61.720 -59.505 3.784 0.00
61.720 -57.607 3.783 0.00
61.720 -55.709 3.780 0.00
61.720 -53.811 3.778 0.00
61.720 -51.913 3.774 0.00
61.720 -50.014 3.768 123.86
61.720 -48.116 3.764 224.75
61.720 -46.218 3.762 178.80
62.619 -154.123 3.743 288.70
62.619 -152.167 3.747 185.73
62.619 -150.212 3.761 303.68
62.619 -148.256 3.776 690.31
62.619 -146.301 3.744 842.10
62.619 -144.345 3.706 784.20
62.619 -142.390 3.748 673.04
62.619 -140.434 3.741 430.25
62.619 -138.479 3.706 1391.64
62.619 -136.523 3.710 621.62
62.619 -134.567 3.750 430.59
62.619 -132.612 3.820 533.75
62.619 -130.656 3.813 892.40
62.619 -128.701 3.909 2583.49
