21.248 -73.314 3.583 0.00
21.248 -72.349 3.583 0.00
22.148 -126.556 3.583 0.00
22.148 -125.585 3.583 0.00
22.148 -124.614 3.583 0.00
22.148 -123.643 3.583 0.00
22.148 -122.672 3.583 0.00
22.148 -121.701 3.583 0.00
22.148 -120.730 3.583 0.00
22.148 -119.759 3.583 0.00
22.148 -118.788 3.583 0.00
22.148 -117.817 3.583 0.00
22.148 -116.846 3.583 0.00
22.148 -115.875 3.583 0.00
22.148 -114.904 3.583 0.00
22.148 -113.933 3.583 0.00
22.148 -112.962 3.583 0.00
22.148 -111.991 3.583 0.00
22.148 -111.020 3.583 0.00
22.148 -110.049 3.583 0.00
22.148 -109.078 3.583 0.00
22.148 -108.107 3.583 0.00
22.148 -107.136 3.583 0.00
22.148 -106.165 3.583 0.00
22.148 -105.194 3.583 0.00
22.148 -104.223 3.582 0.00
22.148 -103.252 3.582 0.00
22.148 -102.281 3.583 0.00
22.148 -101.310 3.590 0.00
22.148 -100.339 3.592 0.00
22.148 -99.368 3.570 0.00
22.148 -98.397 3.542 0.00
22.148 -97.426 3.554 7.99
22.148 -96.455 3.595 2501.11
22.148 -95.484 3.672 164.24
22.148 -94.513 3.675 101.59
22.148 -93.542 3.623 12.14
22.148 -92.571 3.598 0.00
22.148 -91.600 3.598 0.00
22.148 -90.629 3.599 247.77
22.148 -89.658 3.598 291.73
22.148 -88.687 3.594 0.00
22.148 -87.716 3.587 0.00
22.148 -86.745 3.582 0.00
22.148 -85.774 3.582 0.00
22.148 -84.803 3.583 0.00
22.148 -83.832 3.583 0.00
22.148 -82.861 3.583 0.00
22.148 -81.890 3.583 0.00
22.148 -80.919 3.583 0.00
22.148 -79.948 3.583 0.00
22.148 -78.977 3.583 0.00
22.148 -78.006 3.583 0.00
22.148 -77.035 3.583 0.00
22.148 -76.064 3.583 0.00
22.148 -75.093 3.583 0.00
22.148 -74.122 3.583 0.00
22.148 -73.151 3.583 0.00
22.148 -72.180 3.583 0.00
23.047 -126.735 3.583 0.00
23.047 -125.757 3.583 0.00
23.047 -124.780 3.583 0.00
23.047 -123.802 3.583 0.00
23.047 -122.825 3.583 0.00
23.047 -121.848 3.583 0.00
23.047 -120.870 3.583 0.00
23.047 -119.893 3.583 0.00
23.047 -118.916 3.583 0.00
23.047 -117.938 3.583 0.00
23.047 -116.961 3.583 0.00
23.047 -115.984 3.583 0.00
23.047 -115.006 3.583 0.00
23.047 -114.029 3.583 0.00
23.047 -113.051 3.583 0.00
23.047 -112.074 3.583 0.00
23.047 -111.097 3.583 0.00
23.047 -110.119 3.583 0.00
23.047 -109.142 3.583 0.00
23.047 -108.165 3.583 0.00
23.047 -107.187 3.583 0.00
23.047 -106.210 3.582 0.00
23.047 -105.232 3.582 0.00
23.047 -104.255 3.583 0.00
23.047 -103.278 3.584 0.00
23.047 -102.300 3.589 0.00
23.047 -101.323 3.592 0.00
23.047 -100.346 3.572 0.00
23.047 -99.368 3.534 0.00
23.047 -98.391 3.509 192.80
23.047 -97.413 3.523 2154.40
23.047 -96.436 3.562 1709.36
23.047 -95.459 3.671 1139.92
23.047 -94.481 3.722 118.15
23.047 -93.504 3.694 158.83
23.047 -92.527 3.652 72.91
23.047 -91.549 3.632 227.79
23.047 -90.572 3.618 311.71
23.047 -89.594 3.600 0.00
23.047 -88.617 3.584 0.00
23.047 -87.640 3.577 0.00
23.047 -86.662 3.578 0.00
23.047 -85.685 3.582 0.00
23.047 -84.708 3.583 0.00
23.047 -83.730 3.583 0.00
23.047 -82.753 3.583 0.00
23.047 -81.776 3.583 0.00
23.047 -80.798 3.583 0.00
23.047 -79.821 3.583 0.00
23.047 -78.843 3.583 0.00
23.047 -77.866 3.583 0.00
23.047 -76.889 3.583 0.00
23.047 -75.911 3.583 0.00
23.047 -74.934 3.583 0.00
23.047 -73.957 3.583 0.00
23.047 -72.979 3.583 0.00
23.047 -72.002 3.583 0.00
23.946 -126.922 3.583 0.00
23.946 -125.938 3.583 0.00
23.946 -124.954 3.583 0.00
23.946 -123.970 3.583 0.00
23.946 -122.986 3.583 0.00
23.946 -122.002 3.583 0.00
23.946 -121.018 3.583 0.00
23.946 -120.034 3.583 0.00
23.946 -119.049 3.583 0.00
23.946 -118.065 3.583 0.00
23.946 -117.081 3.583 0.00
23.946 -116.097 3.583 0.00
23.946 -115.113 3.583 0.00
23.946 -114.129 3.583 0.00
23.946 -113.145 3.583 0.00
23.946 -112.161 3.583 0.00
23.946 -111.177 3.583 0.00
23.946 -110.193 3.583 0.00
23.946 -109.209 3.583 0.00
23.946 -108.225 3.582 0.00
23.946 -107.241 3.582 0.00
23.946 -106.257 3.583 0.00
23.946 -105.273 3.583 0.00
23.946 -104.289 3.584 0.00
23.946 -103.304 3.587 0.00
23.946 -102.320 3.587 0.00
23.946 -101.336 3.572 0.00
23.946 -100.352 3.542 24.97
23.946 -99.368 3.513 434.56
23.946 -98.384 3.494 1516.54
23.946 -97.400 3.480 1568.19
23.946 -96.416 3.551 515.48
23.946 -95.432 3.667 487.50
23.946 -94.448 3.721 632.88
23.946 -93.464 3.716 47.05
23.946 -92.480 3.691 352.66
23.946 -91.496 3.671 509.50
23.946 -90.512 3.651 34.96
23.946 -89.528 3.625 0.00
23.946 -88.543 3.596 0.00
23.946 -87.559 3.580 0.00
23.946 -86.575 3.577 0.00
23.946 -85.591 3.578 0.00
23.946 -84.607 3.580 0.00
23.946 -83.623 3.582 0.00
23.946 -82.639 3.583 0.00
23.946 -81.655 3.583 0.00
23.946 -80.671 3.583 0.00
23.946 -79.687 3.583 0.00
23.946 -78.703 3.583 0.00
23.946 -77.719 3.583 0.00
23.946 -76.735 3.583 0.00
23.946 -75.751 3.583 0.00
23.946 -74.767 3.583 0.00
23.946 -73.783 3.583 0.00
23.946 -72.798 3.583 0.00
23.946 -71.814 3.583 0.00
24.846 -127.119 3.583 0.00
24.846 -126.128 3.583 0.00
24.846 -125.137 3.583 0.00
24.846 -124.146 3.583 0.00
24.846 -123.154 3.583 0.00
24.846 -122.163 3.583 0.00
24.846 -121.172 3.583 0.00
24.846 -120.181 3.583 0.00
24.846 -119.190 3.583 0.00
24.846 -118.199 3.583 0.00
24.846 -117.208 3.583 0.00
24.846 -116.217 3.583 0.00
24.846 -115.226 3.583 0.00
24.846 -114.235 3.583 0.00
24.846 -113.244 3.583 0.00
24.846 -112.252 3.583 0.00
24.846 -111.261 3.583 0.00
24.846 -110.270 3.582 0.00
24.846 -109.279 3.582 0.00
24.846 -108.288 3.583 0.00
24.846 -107.297 3.583 0.00
24.846 -106.306 3.584 0.00
24.846 -105.315 3.584 0.00
24.846 -104.324 3.584 0.00
24.846 -103.333 3.580 0.00
24.846 -102.341 3.568 0.00
24.846 -101.350 3.544 111.89
24.846 -100.359 3.524 614.39
24.846 -99.368 3.510 1136.91
24.846 -98.377 3.481 1239.41
24.846 -97.386 3.478 723.21
24.846 -96.395 3.574 204.80
24.846 -95.404 3.670 48.95
24.846 -94.413 3.693 834.18
24.846 -93.422 3.697 493.18
24.846 -92.431 3.683 355.59
24.846 -91.439 3.662 33.97
24.846 -90.448 3.661 176.81
24.846 -89.457 3.658 192.79
24.846 -88.466 3.636 1.00
24.846 -87.475 3.616 0.00
24.846 -86.484 3.595 0.00
24.846 -85.493 3.583 0.00
24.846 -84.502 3.578 0.00
24.846 -83.511 3.578 0.00
24.846 -82.520 3.580 0.00
24.846 -81.528 3.581 0.00
24.846 -80.537 3.582 0.00
24.846 -79.546 3.583 0.00
24.846 -78.555 3.583 0.00
24.846 -77.564 3.583 0.00
24.846 -76.573 3.583 0.00
24.846 -75.582 3.583 0.00
24.846 -74.591 3.583 0.00
24.846 -73.600 3.583 0.00
24.846 -72.609 3.583 0.00
24.846 -71.618 3.583 0.00
25.745 -127.325 3.583 0.00
25.745 -126.327 3.583 0.00
25.745 -125.329 3.583 0.00
25.745 -124.330 3.583 0.00
25.745 -123.332 3.583 0.00
25.745 -122.333 3.583 0.00
25.745 -121.335 3.583 0.00
25.745 -120.336 3.583 0.00
25.745 -119.338 3.583 0.00
25.745 -118.339 3.583 0.00
25.745 -117.341 3.583 0.00
25.745 -116.342 3.583 0.00
25.745 -115.344 3.583 0.00
25.745 -114.345 3.583 0.00
25.745 -113.347 3.583 0.00
25.745 -112.348 3.583 0.00
25.745 -111.350 3.582 0.00
25.745 -110.351 3.583 0.00
25.745 -109.353 3.583 0.00
25.745 -108.354 3.584 0.00
25.745 -107.356 3.585 0.00
25.745 -106.358 3.583 0.00
25.745 -105.359 3.579 0.00
25.745 -104.361 3.574 0.00
25.745 -103.362 3.562 55.94
25.745 -102.364 3.545 229.77
25.745 -101.365 3.534 663.34
25.745 -100.367 3.514 852.19
25.745 -99.368 3.498 909.12
25.745 -98.370 3.494 783.96
25.745 -97.371 3.522 415.57
25.745 -96.373 3.602 100.91
25.745 -95.374 3.650 100.91
25.745 -94.376 3.668 362.62
25.745 -93.377 3.678 1191.88
25.745 -92.379 3.673 123.79
25.745 -91.380 3.640 9.91
25.745 -90.382 3.619 0.00
25.745 -89.383 3.632 19.98
25.745 -88.385 3.662 209.77
25.745 -87.387 3.664 181.81
25.745 -86.388 3.639 4.00
25.745 -85.390 3.616 0.00
25.745 -84.391 3.596 0.00
25.745 -83.393 3.584 0.00
25.745 -82.394 3.579 0.00
25.745 -81.396 3.577 0.00
25.745 -80.397 3.579 0.00
25.745 -79.399 3.581 0.00
25.745 -78.400 3.582 0.00
25.745 -77.402 3.582 0.00
25.745 -76.403 3.583 0.00
25.745 -75.405 3.583 0.00
25.745 -74.406 3.583 0.00
25.745 -73.408 3.583 0.00
25.745 -72.409 3.583 0.00
25.745 -71.411 3.583 0.00
26.645 -127.542 3.583 0.00
26.645 -126.536 3.583 0.00
26.645 -125.530 3.583 0.00
26.645 -124.524 3.583 0.00
26.645 -123.517 3.583 0.00
26.645 -122.511 3.583 0.00
26.645 -121.505 3.583 0.00
26.645 -120.499 3.583 0.00
26.645 -119.492 3.583 0.00
26.645 -118.486 3.583 0.00
26.645 -117.480 3.583 0.00
26.645 -116.474 3.583 0.00
26.645 -115.468 3.583 0.00
26.645 -114.461 3.583 0.00
26.645 -113.455 3.583 0.00
26.645 -112.449 3.583 0.00
26.645 -111.443 3.583 0.00
26.645 -110.437 3.584 0.00
26.645 -109.430 3.585 0.00
26.645 -108.424 3.584 0.00
26.645 -107.418 3.579 0.00
26.645 -106.412 3.573 0.00
26.645 -105.405 3.568 17.98
26.645 -104.399 3.562 118.88
26.645 -103.393 3.553 315.69
26.645 -102.387 3.546 650.35
26.645 -101.381 3.514 680.36
26.645 -100.374 3.499 712.31
26.645 -99.368 3.502 768.33
26.645 -98.362 3.529 361.28
26.645 -97.356 3.577 310.67
26.645 -96.350 3.614 99.91
26.645 -95.343 3.621 292.73
26.645 -94.337 3.648 359.66
26.645 -93.331 3.668 381.60
26.645 -92.325 3.664 685.34
26.645 -91.318 3.640 66.76
26.645 -90.312 3.604 11.82
26.645 -89.306 3.594 0.26
26.645 -88.300 3.616 0.00
26.645 -87.294 3.643 29.96
26.645 -86.287 3.665 206.78
26.645 -85.281 3.660 153.85
26.645 -84.275 3.639 38.96
26.645 -83.269 3.618 0.00
26.645 -82.263 3.602 0.00
26.645 -81.256 3.587 0.00
26.645 -80.250 3.580 0.00
26.645 -79.244 3.579 0.00
26.645 -78.238 3.579 0.00
26.645 -77.231 3.580 0.00
26.645 -76.225 3.581 0.00
26.645 -75.219 3.582 0.00
26.645 -74.213 3.582 0.00
26.645 -73.207 3.583 0.00
26.645 -72.200 3.583 0.00
26.645 -71.194 3.583 0.00
27.544 -127.769 3.583 0.00
27.544 -126.755 3.583 0.00
27.544 -125.741 3.583 0.00
27.544 -124.726 3.583 0.00
27.544 -123.712 3.583 0.00
27.544 -122.698 3.583 0.00
27.544 -121.683 3.583 0.00
27.544 -120.669 3.583 0.00
27.544 -119.655 3.583 0.00
27.544 -118.640 3.583 0.00
27.544 -117.626 3.583 0.00
27.544 -116.612 3.583 0.00
27.544 -115.597 3.583 0.00
27.544 -114.583 3.583 0.00
27.544 -113.569 3.583 0.00
27.544 -112.554 3.583 0.00
27.544 -111.540 3.584 0.00
27.544 -110.526 3.584 0.00
27.544 -109.511 3.582 0.00
27.544 -108.497 3.574 0.00
27.544 -107.483 3.565 0.00
27.544 -106.468 3.560 104.89
27.544 -105.454 3.564 178.82
27.544 -104.440 3.566 377.62
27.544 -103.426 3.557 579.43
27.544 -102.411 3.515 535.50
27.544 -101.397 3.501 617.41
27.544 -100.383 3.508 654.36
27.544 -99.368 3.531 509.22
27.544 -98.354 3.571 321.30
27.544 -97.340 3.612 157.84
27.544 -96.325 3.619 295.73
27.544 -95.311 3.606 464.57
27.544 -94.297 3.618 0.00
27.544 -93.282 3.640 123.85
27.544 -92.268 3.659 516.52
27.544 -91.254 3.652 448.55
27.544 -90.239 3.628 42.96
27.544 -89.225 3.593 11.56
27.544 -88.211 3.580 2.61
27.544 -87.196 3.594 0.00
27.544 -86.182 3.619 0.00
27.544 -85.168 3.643 57.93
27.544 -84.153 3.664 170.82
27.544 -83.139 3.668 128.88
27.544 -82.125 3.654 87.92
27.544 -81.110 3.627 0.00
27.544 -80.096 3.605 0.00
27.544 -79.082 3.591 0.00
27.544 -78.067 3.584 0.00
27.544 -77.053 3.582 0.00
27.544 -76.039 3.579 0.00
27.544 -75.024 3.579 0.00
27.544 -74.010 3.581 0.00
27.544 -72.996 3.581 0.00
27.544 -71.981 3.582 0.00
27.544 -70.967 3.582 0.00
28.443 -128.007 3.583 0.00
28.443 -126.985 3.583 0.00
28.443 -125.962 3.583 0.00
28.443 -124.939 3.583 0.00
28.443 -123.916 3.583 0.00
28.443 -122.893 3.583 0.00
28.443 -121.870 3.583 0.00
28.443 -120.848 3.583 0.00
28.443 -119.825 3.583 0.00
28.443 -118.802 3.583 0.00
28.443 -117.779 3.582 0.00
28.443 -116.756 3.583 0.00
28.443 -115.733 3.583 0.00
28.443 -114.711 3.583 0.00
28.443 -113.688 3.584 0.00
28.443 -112.665 3.584 0.00
28.443 -111.642 3.583 0.00
28.443 -110.619 3.579 0.00
28.443 -109.596 3.568 0.00
28.443 -108.574 3.558 77.92
28.443 -107.551 3.559 117.88
28.443 -106.528 3.569 211.80
28.443 -105.505 3.580 411.58
28.443 -104.482 3.561 513.51
28.443 -103.460 3.512 448.57
28.443 -102.437 3.500 582.45
28.443 -101.414 3.512 465.53
28.443 -100.391 3.540 555.18
28.443 -99.368 3.576 292.89
28.443 -98.345 3.596 385.59
28.443 -97.323 3.620 290.72
28.443 -96.300 3.621 463.57
28.443 -95.277 3.602 100.91
28.443 -94.254 3.593 0.00
28.443 -93.231 3.607 0.00
28.443 -92.208 3.638 233.72
28.443 -91.186 3.659 600.46
28.443 -90.163 3.652 280.71
28.443 -89.140 3.620 24.98
28.443 -88.117 3.584 9.22
28.443 -87.094 3.571 5.04
28.443 -86.071 3.582 0.00
28.443 -85.049 3.606 0.00
28.443 -84.026 3.635 0.00
28.443 -83.003 3.663 144.84
28.443 -81.980 3.673 338.64
28.443 -80.957 3.666 132.03
28.443 -79.934 3.649 113.89
28.443 -78.912 3.627 39.96
28.443 -77.889 3.612 0.00
28.443 -76.866 3.601 0.00
28.443 -75.843 3.590 0.00
28.443 -74.820 3.584 0.00
28.443 -73.798 3.582 0.00
28.443 -72.775 3.580 0.00
28.443 -71.752 3.579 0.00
28.443 -70.729 3.581 0.00
29.343 -128.257 3.582 0.00
29.343 -127.225 3.582 0.00
29.343 -126.193 3.582 0.00
29.343 -125.161 3.582 0.00
29.343 -124.130 3.583 0.00
29.343 -123.098 3.583 0.00
29.343 -122.066 3.583 0.00
29.343 -121.034 3.583 0.00
29.343 -120.003 3.583 0.00
29.343 -118.971 3.583 0.00
29.343 -117.939 3.583 0.00
29.343 -116.908 3.583 0.00
29.343 -115.876 3.583 0.00
29.343 -114.844 3.583 0.00
29.343 -113.812 3.582 0.00
29.343 -112.781 3.581 0.00
29.343 -111.749 3.578 0.00
29.343 -110.717 3.565 56.94
29.343 -109.685 3.555 118.87
29.343 -108.654 3.567 113.89
29.343 -107.622 3.584 290.72
29.343 -106.590 3.596 392.59
29.343 -105.559 3.560 448.59
29.343 -104.527 3.503 408.43
29.343 -103.495 3.493 599.40
29.343 -102.463 3.511 363.77
29.343 -101.432 3.542 562.46
29.343 -100.400 3.572 594.37
29.343 -99.368 3.598 246.87
29.343 -98.336 3.601 523.48
29.343 -97.305 3.623 355.67
29.343 -96.273 3.624 99.91
29.343 -95.241 3.601 100.91
29.343 -94.210 3.580 0.00
29.343 -93.178 3.582 0.00
29.343 -92.146 3.614 81.90
29.343 -91.114 3.651 253.74
29.343 -90.083 3.655 599.44
29.343 -89.051 3.644 206.79
29.343 -88.019 3.614 6.99
29.343 -86.987 3.588 6.78
29.343 -85.956 3.584 7.82
29.343 -84.924 3.594 0.00
29.343 -83.892 3.608 199.79
29.343 -82.861 3.622 157.83
29.343 -81.829 3.633 4.99
29.343 -80.797 3.645 96.89
29.343 -79.765 3.647 73.91
29.343 -78.734 3.648 71.93
29.343 -77.702 3.647 112.90
29.343 -76.670 3.636 112.89
29.343 -75.639 3.619 14.99
29.343 -74.607 3.609 0.00
29.343 -73.575 3.601 0.00
29.343 -72.543 3.591 0.00
29.343 -71.512 3.585 0.00
29.343 -70.480 3.584 0.00
30.242 -128.517 3.582 0.00
30.242 -127.476 3.580 0.00
30.242 -126.435 3.579 0.00
30.242 -125.394 3.581 0.00
30.242 -124.353 3.582 0.00
30.242 -123.312 3.582 0.00
30.242 -122.271 3.583 0.00
30.242 -121.230 3.583 0.00
30.242 -120.189 3.583 0.00
30.242 -119.148 3.583 0.00
30.242 -118.107 3.584 0.00
30.242 -117.066 3.583 0.00
30.242 -116.025 3.581 0.00
30.242 -114.984 3.580 0.00
30.242 -113.943 3.576 0.00
30.242 -112.902 3.573 44.95
30.242 -111.861 3.564 117.88
30.242 -110.820 3.551 60.94
30.242 -109.779 3.560 207.80
30.242 -108.738 3.602 282.72
30.242 -107.697 3.616 418.58
30.242 -106.655 3.563 364.67
30.242 -105.614 3.495 322.67
30.242 -104.573 3.479 747.11
30.242 -103.532 3.498 536.45
30.242 -102.491 3.531 606.25
30.242 -101.450 3.560 684.77
30.242 -100.409 3.590 615.08
30.242 -99.368 3.597 460.71
30.242 -98.327 3.611 575.44
30.242 -97.286 3.638 90.92
30.242 -96.245 3.636 304.20
30.242 -95.204 3.604 100.91
30.242 -94.163 3.583 0.00
30.242 -93.122 3.574 0.00
30.242 -92.081 3.591 0.00
30.242 -91.040 3.624 214.75
30.242 -89.999 3.654 315.73
30.242 -88.958 3.654 444.56
30.242 -87.917 3.650 179.82
30.242 -86.876 3.625 0.00
30.242 -85.835 3.606 124.88
30.242 -84.794 3.602 231.55
30.242 -83.753 3.599 21.97
30.242 -82.712 3.593 0.00
30.242 -81.671 3.591 0.00
30.242 -80.629 3.598 0.00
30.242 -79.588 3.612 23.97
30.242 -78.547 3.630 96.89
30.242 -77.506 3.637 59.93
30.242 -76.465 3.637 0.00
30.242 -75.424 3.641 96.91
30.242 -74.383 3.640 112.89
30.242 -73.342 3.632 111.90
30.242 -72.301 3.619 19.98
30.242 -71.260 3.611 0.00
30.242 -70.219 3.604 0.00
31.141 -128.790 3.592 0.00
31.141 -127.739 3.588 0.00
31.141 -126.689 3.585 0.00
31.141 -125.638 3.583 0.00
31.141 -124.587 3.581 0.00
31.141 -123.536 3.581 0.00
31.141 -122.485 3.582 0.00
31.141 -121.435 3.583 0.00
31.141 -120.384 3.583 0.00
31.141 -119.333 3.584 0.00
31.141 -118.282 3.583 0.00
31.141 -117.232 3.577 0.00
31.141 -116.181 3.575 0.00
31.141 -115.130 3.572 40.96
31.141 -114.079 3.564 117.88
31.141 -113.028 3.554 73.92
31.141 -111.978 3.536 102.90
31.141 -110.927 3.509 266.75
31.141 -109.876 3.536 359.77
31.141 -108.825 3.584 459.65
31.141 -107.774 3.559 260.77
31.141 -106.724 3.495 303.68
31.141 -105.673 3.471 697.87
31.141 -104.622 3.482 781.08
31.141 -103.571 3.508 818.42
31.141 -102.521 3.546 959.18
31.141 -101.470 3.568 1093.66
31.141 -100.419 3.583 972.03
31.141 -99.368 3.598 705.37
31.141 -98.317 3.631 218.78
31.141 -97.267 3.643 119.86
31.141 -96.216 3.626 129.87
31.141 -95.165 3.604 100.91
31.141 -94.114 3.589 0.00
31.141 -93.063 3.574 0.00
31.141 -92.013 3.577 0.00
31.141 -90.962 3.604 57.93
31.141 -89.911 3.649 178.79
31.141 -88.860 3.673 468.60
31.141 -87.810 3.667 426.56
31.141 -86.759 3.658 384.88
31.141 -85.708 3.635 99.89
31.141 -84.657 3.617 1.04
31.141 -83.606 3.598 35.29
31.141 -82.556 3.581 2.09
31.141 -81.505 3.577 0.00
31.141 -80.454 3.580 0.00
31.141 -79.403 3.586 0.00
31.141 -78.353 3.598 0.00
31.141 -77.302 3.611 36.96
31.141 -76.251 3.622 96.89
31.141 -75.200 3.628 49.94
31.141 -74.149 3.628 0.00
31.141 -73.099 3.627 0.00
31.141 -72.048 3.632 91.91
31.141 -70.997 3.634 110.90
31.141 -69.946 3.629 111.90
32.041 -129.076 3.618 66.94
32.041 -128.015 3.616 0.00
32.041 -126.954 3.611 0.00
32.041 -125.893 3.603 0.00
32.041 -124.832 3.589 0.00
32.041 -123.771 3.582 0.00
32.041 -122.710 3.582 0.00
32.041 -121.649 3.582 0.00
32.041 -120.588 3.583 0.00
32.041 -119.527 3.583 0.00
32.041 -118.466 3.571 0.00
32.041 -117.405 3.567 48.95
32.041 -116.344 3.576 117.89
32.041 -115.283 3.579 76.93
32.041 -114.222 3.558 24.97
32.041 -113.161 3.520 497.31
32.041 -112.100 3.472 328.69
32.041 -111.039 3.401 1033.69
32.041 -109.978 3.389 1099.33
32.041 -108.917 3.460 469.97
32.041 -107.856 3.476 360.14
32.041 -106.795 3.479 612.53
32.041 -105.734 3.483 1084.11
32.041 -104.673 3.502 996.23
32.041 -103.612 3.540 1256.45
32.041 -102.551 3.563 1300.65
32.041 -101.490 3.580 1488.42
32.041 -100.429 3.582 906.14
32.041 -99.368 3.600 245.84
32.041 -98.307 3.636 210.76
32.041 -97.246 3.635 114.15
32.041 -96.185 3.621 205.81
32.041 -95.124 3.609 200.79
32.041 -94.063 3.593 0.00
32.041 -93.002 3.581 0.00
32.041 -91.941 3.582 0.00
32.041 -90.880 3.599 0.00
32.041 -89.819 3.634 229.74
32.041 -88.758 3.675 432.57
32.041 -87.697 3.678 727.32
32.041 -86.636 3.665 229.75
32.041 -85.575 3.665 116.89
32.041 -84.515 3.646 107.87
32.041 -83.454 3.608 33.96
32.041 -82.393 3.587 9.74
32.041 -81.332 3.586 5.65
32.041 -80.271 3.586 0.00
32.041 -79.210 3.582 0.00
32.041 -78.149 3.582 0.00
32.041 -77.088 3.588 0.00
32.041 -76.027 3.598 0.00
32.041 -74.966 3.610 46.95
32.041 -73.905 3.617 96.88
32.041 -72.844 3.617 45.95
32.041 -71.783 3.617 0.00
32.041 -70.722 3.617 0.00
32.041 -69.661 3.616 0.00
32.940 -129.374 3.627 43.96
32.940 -128.302 3.636 110.90
32.940 -127.231 3.637 109.90
32.940 -126.159 3.626 110.90
32.940 -125.087 3.600 5.78
32.940 -124.016 3.585 0.00
32.940 -122.944 3.582 0.00
32.940 -121.873 3.582 0.00
32.940 -120.801 3.585 0.00
32.940 -119.729 3.575 28.00
32.940 -118.658 3.551 117.89
32.940 -117.586 3.569 156.63
32.940 -116.514 3.603 272.74
32.940 -115.443 3.611 305.88
32.940 -114.371 3.560 386.90
32.940 -113.299 3.484 852.18
32.940 -112.228 3.364 1570.54
32.940 -111.156 3.232 1833.17
32.940 -110.085 3.239 1041.52
32.940 -109.013 3.356 893.41
32.940 -107.941 3.466 780.78
32.940 -106.870 3.506 1280.60
32.940 -105.798 3.527 1223.61
32.940 -104.726 3.562 1587.46
32.940 -103.655 3.588 1573.61
32.940 -102.583 3.596 2016.88
32.940 -101.511 3.592 1003.11
32.940 -100.440 3.588 476.42
32.940 -99.368 3.612 460.47
32.940 -98.297 3.631 320.65
32.940 -97.225 3.615 87.92
32.940 -96.153 3.600 99.91
32.940 -95.082 3.598 101.90
32.940 -94.010 3.595 0.00
32.940 -92.938 3.586 0.00
32.940 -91.867 3.582 3.00
32.940 -90.795 3.588 260.75
32.940 -89.723 3.610 331.65
32.940 -88.652 3.653 277.69
32.940 -87.580 3.684 452.34
32.940 -86.509 3.692 449.58
32.940 -85.437 3.708 295.67
32.940 -84.365 3.701 118.88
32.940 -83.294 3.652 0.00
32.940 -82.222 3.618 0.00
32.940 -81.150 3.606 108.16
32.940 -80.079 3.598 79.58
32.940 -79.007 3.586 0.00
32.940 -77.935 3.580 0.00
32.940 -76.864 3.580 0.00
32.940 -75.792 3.584 0.00
32.940 -74.721 3.591 0.00
32.940 -73.649 3.599 0.00
32.940 -72.577 3.608 50.94
32.940 -71.506 3.615 96.89
32.940 -70.434 3.612 45.95
32.940 -69.362 3.608 0.00
33.839 -129.686 3.608 0.00
33.839 -128.603 3.606 0.00
33.839 -127.521 3.604 0.00
33.839 -126.438 3.600 0.00
33.839 -125.355 3.588 0.00
33.839 -124.272 3.581 0.00
33.839 -123.189 3.580 0.00
33.839 -122.107 3.587 0.00
33.839 -121.024 3.594 0.00
33.839 -119.941 3.570 0.00
33.839 -118.858 3.537 89.54
33.839 -117.775 3.555 708.22
33.839 -116.693 3.596 1369.02
33.839 -115.610 3.606 631.73
33.839 -114.527 3.534 1163.29
33.839 -113.444 3.393 2025.57
33.839 -112.362 3.234 1558.70
33.839 -111.279 3.111 1981.72
33.839 -110.196 3.196 913.24
33.839 -109.113 3.379 1354.87
33.839 -108.030 3.514 1298.87
33.839 -106.948 3.562 1677.63
33.839 -105.865 3.594 1890.83
33.839 -104.782 3.620 1867.51
33.839 -103.699 3.621 2169.25
33.839 -102.617 3.623 1617.71
33.839 -101.534 3.603 960.63
33.839 -100.451 3.592 635.83
33.839 -99.368 3.595 479.33
33.839 -98.285 3.593 0.00
33.839 -97.203 3.582 0.00
33.839 -96.120 3.588 99.91
33.839 -95.037 3.606 42.96
33.839 -93.954 3.604 57.95
33.839 -92.872 3.586 289.73
33.839 -91.789 3.576 430.57
33.839 -90.706 3.580 172.82
33.839 -89.623 3.606 154.86
33.839 -88.540 3.661 384.60
33.839 -87.458 3.730 219.77
33.839 -86.375 3.766 484.56
33.839 -85.292 3.773 556.44
33.839 -84.209 3.772 568.37
33.839 -83.126 3.714 288.34
33.839 -82.044 3.658 204.78
33.839 -80.961 3.624 101.89
33.839 -79.878 3.601 0.00
33.839 -78.795 3.587 0.00
33.839 -77.713 3.580 0.00
33.839 -76.630 3.579 0.00
33.839 -75.547 3.580 0.00
33.839 -74.464 3.582 0.00
33.839 -73.381 3.585 0.00
33.839 -72.299 3.592 0.00
33.839 -71.216 3.600 0.00
33.839 -70.133 3.608 50.94
33.839 -69.050 3.613 97.88
34.739 -130.012 3.612 51.94
34.739 -128.918 3.604 0.00
34.739 -127.823 3.590 0.00
34.739 -126.729 3.583 0.00
34.739 -125.635 3.578 0.00
34.739 -124.540 3.577 0.00
34.739 -123.446 3.584 0.00
34.739 -122.351 3.603 0.00
34.739 -121.257 3.601 0.00
34.739 -120.162 3.544 0.00
34.739 -119.068 3.503 410.64
34.739 -117.974 3.515 2080.03
34.739 -116.879 3.550 975.11
34.739 -115.785 3.514 1786.32
34.739 -114.690 3.439 1903.43
34.739 -113.596 3.296 2366.39
34.739 -112.501 3.167 2045.84
34.739 -111.407 3.123 1634.69
34.739 -110.313 3.268 1716.21
34.739 -109.218 3.471 1190.97
34.739 -108.124 3.569 2105.60
34.739 -107.029 3.601 2116.06
34.739 -105.935 3.640 2268.79
34.739 -104.840 3.641 2479.66
34.739 -103.746 3.630 2285.24
34.739 -102.651 3.611 1276.28
34.739 -101.557 3.577 928.75
34.739 -100.463 3.563 784.44
34.739 -99.368 3.574 440.57
34.739 -98.274 3.584 113.65
34.739 -97.179 3.590 100.91
34.739 -96.085 3.608 300.70
34.739 -94.990 3.629 481.51
34.739 -93.896 3.625 894.31
34.739 -92.802 3.622 209.20
34.739 -91.707 3.623 42.96
34.739 -90.613 3.638 330.69
34.739 -89.518 3.680 399.64
34.739 -88.424 3.731 287.50
34.739 -87.329 3.775 525.41
34.739 -86.235 3.808 383.59
34.739 -85.141 3.805 671.35
34.739 -84.046 3.755 371.60
34.739 -82.952 3.707 219.76
34.739 -81.857 3.663 87.01
34.739 -80.763 3.626 0.00
34.739 -79.668 3.607 0.00
34.739 -78.574 3.596 0.00
34.739 -77.480 3.586 0.00
34.739 -76.385 3.582 0.00
34.739 -75.291 3.581 0.00
34.739 -74.196 3.581 0.00
34.739 -73.102 3.581 0.00
34.739 -72.007 3.582 0.00
34.739 -70.913 3.585 0.00
34.739 -69.818 3.592 0.00
34.739 -68.724 3.603 0.00
35.638 -130.353 3.626 141.83
35.638 -129.247 3.623 64.92
35.638 -128.140 3.606 0.00
35.638 -127.034 3.594 0.00
35.638 -125.927 3.585 0.00
35.638 -124.820 3.585 0.00
35.638 -123.714 3.597 0.00
35.638 -122.607 3.598 0.00
35.638 -121.500 3.543 0.00
35.638 -120.394 3.454 574.08
35.638 -119.287 3.441 1912.92
35.638 -118.181 3.483 2812.95
35.638 -117.074 3.497 2250.70
35.638 -115.967 3.479 2154.73
35.638 -114.861 3.401 2937.81
35.638 -113.754 3.276 3103.51
35.638 -112.648 3.206 1898.02
35.638 -111.541 3.243 1814.05
35.638 -110.434 3.405 1958.39
35.638 -109.328 3.558 2244.70
35.638 -108.221 3.611 2595.43
35.638 -107.115 3.634 2927.28
35.638 -106.008 3.632 3043.64
35.638 -104.901 3.625 2716.67
35.638 -103.795 3.616 1987.30
35.638 -102.688 3.588 1526.90
35.638 -101.581 3.571 1191.27
35.638 -100.475 3.578 1064.91
35.638 -99.368 3.620 397.27
35.638 -98.262 3.644 201.77
35.638 -97.155 3.647 464.53
35.638 -96.048 3.644 781.09
35.638 -94.942 3.657 570.43
35.638 -93.835 3.663 438.57
35.638 -92.729 3.673 449.57
35.638 -91.622 3.703 447.57
35.638 -90.515 3.760 433.57
35.638 -89.409 3.789 336.64
35.638 -88.302 3.781 311.64
35.638 -87.195 3.762 291.66
35.638 -86.089 3.769 323.62
35.638 -84.982 3.748 254.76
35.638 -83.876 3.710 418.62
35.638 -82.769 3.690 251.72
35.638 -81.662 3.683 210.77
35.638 -80.556 3.655 70.93
35.638 -79.449 3.635 100.89
35.638 -78.343 3.618 101.86
35.638 -77.236 3.594 0.00
35.638 -76.129 3.584 0.00
35.638 -75.023 3.582 0.00
35.638 -73.916 3.582 0.00
35.638 -72.809 3.582 0.00
35.638 -71.703 3.581 0.00
35.638 -70.596 3.580 0.00
35.638 -69.490 3.582 0.00
35.638 -68.383 3.590 0.00
36.538 -130.710 3.610 0.00
36.538 -129.591 3.613 32.96
36.538 -128.471 3.617 97.88
36.538 -127.352 3.614 85.90
36.538 -126.233 3.606 0.00
36.538 -125.113 3.604 0.00
36.538 -123.994 3.599 0.00
36.538 -122.875 3.555 0.00
36.538 -121.755 3.464 20.49
36.538 -120.636 3.386 1335.37
36.538 -119.516 3.389 4829.21
36.538 -118.397 3.513 3463.03
36.538 -117.278 3.542 3454.62
36.538 -116.158 3.501 4058.47
36.538 -115.039 3.432 3680.15
36.538 -113.920 3.359 2497.88
36.538 -112.800 3.343 2323.30
36.538 -111.681 3.447 2379.81
36.538 -110.562 3.612 2318.69
36.538 -109.442 3.677 2862.67
36.538 -108.323 3.670 3067.85
36.538 -107.204 3.659 3565.49
36.538 -106.084 3.646 2925.44
36.538 -104.965 3.653 2593.91
36.538 -103.846 3.654 1862.26
36.538 -102.726 3.635 1759.92
36.538 -101.607 3.629 1148.25
36.538 -100.488 3.653 704.75
36.538 -99.368 3.677 528.10
36.538 -98.249 3.678 642.35
36.538 -97.130 3.671 520.48
36.538 -96.010 3.660 547.49
36.538 -94.891 3.659 449.56
36.538 -93.771 3.681 502.52
36.538 -92.652 3.735 410.60
36.538 -91.533 3.779 679.31
36.538 -90.413 3.785 881.10
36.538 -89.294 3.775 556.97
36.538 -88.175 3.741 555.38
36.538 -87.055 3.700 168.80
36.538 -85.936 3.676 199.76
36.538 -84.817 3.703 29.96
36.538 -83.697 3.734 333.05
36.538 -82.578 3.737 414.59
36.538 -81.459 3.725 273.71
36.538 -80.339 3.694 201.81
36.538 -79.220 3.647 64.94
36.538 -78.101 3.614 0.00
36.538 -76.981 3.589 0.00
36.538 -75.862 3.580 0.00
36.538 -74.743 3.581 0.00
36.538 -73.623 3.583 0.00
36.538 -72.504 3.583 0.00
36.538 -71.384 3.582 0.00
36.538 -70.265 3.582 0.00
36.538 -69.146 3.581 0.00
36.538 -68.026 3.582 0.00
37.437 -131.083 3.588 0.00
37.437 -129.950 3.588 0.00
37.437 -128.817 3.597 0.00
37.437 -127.685 3.607 10.99
37.437 -126.552 3.617 97.88
37.437 -125.419 3.626 97.89
37.437 -124.287 3.616 18.98
37.437 -123.154 3.534 0.00
37.437 -122.021 3.415 4852.35
37.437 -120.889 3.335 9316.33
37.437 -119.756 3.384 6151.29
37.437 -118.623 3.475 3756.79
37.437 -117.491 3.494 3829.85
37.437 -116.358 3.472 4196.64
37.437 -115.225 3.475 2779.28
37.437 -114.093 3.440 2284.13
37.437 -112.960 3.462 3292.27
37.437 -111.827 3.612 3095.60
37.437 -110.695 3.774 3445.34
37.437 -109.562 3.786 3452.43
37.437 -108.429 3.730 4091.31
37.437 -107.297 3.683 3531.43
37.437 -106.164 3.675 3137.54
37.437 -105.032 3.701 2462.15
37.437 -103.899 3.717 1950.27
37.437 -102.766 3.708 1416.81
37.437 -101.634 3.707 1483.88
37.437 -100.501 3.725 1107.71
37.437 -99.368 3.719 554.24
37.437 -98.236 3.694 392.62
37.437 -97.103 3.685 627.41
37.437 -95.970 3.711 609.40
37.437 -94.838 3.755 284.73
37.437 -93.705 3.786 885.09
37.437 -92.572 3.817 865.11
37.437 -91.440 3.817 958.01
37.437 -90.307 3.824 455.50
37.437 -89.174 3.823 337.37
37.437 -88.042 3.768 36.96
37.437 -86.909 3.704 0.00
37.437 -85.776 3.678 142.84
37.437 -84.644 3.730 328.66
37.437 -83.511 3.775 229.76
37.437 -82.378 3.781 464.54
37.437 -81.246 3.745 589.37
37.437 -80.113 3.691 123.49
37.437 -78.980 3.647 95.91
37.437 -77.848 3.612 59.94
37.437 -76.715 3.587 0.00
37.437 -75.582 3.578 0.00
37.437 -74.450 3.581 0.00
37.437 -73.317 3.583 0.00
37.437 -72.184 3.583 0.00
37.437 -71.052 3.583 0.00
37.437 -69.919 3.583 0.00
37.437 -68.786 3.582 0.00
37.437 -67.654 3.581 0.00
38.336 -131.472 3.580 0.00
38.336 -130.326 3.579 0.00
38.336 -129.179 3.583 0.00
38.336 -128.033 3.588 0.00
38.336 -126.886 3.598 0.00
38.336 -125.740 3.621 0.00
38.336 -124.593 3.619 79.91
38.336 -123.446 3.534 105.51
38.336 -122.300 3.423 1170.55
38.336 -121.153 3.377 8111.56
38.336 -120.007 3.400 2164.07
38.336 -118.860 3.409 3574.12
38.336 -117.713 3.446 4758.90
38.336 -116.567 3.514 2880.22
38.336 -115.420 3.527 2465.38
38.336 -114.274 3.437 2715.90
38.336 -113.127 3.425 3889.32
38.336 -111.981 3.585 3827.53
38.336 -110.834 3.749 3906.43
38.336 -109.687 3.806 4714.53
38.336 -108.541 3.778 3991.99
38.336 -107.394 3.731 3690.57
38.336 -106.248 3.733 3180.37
38.336 -105.101 3.770 2527.39
38.336 -103.955 3.783 2176.83
38.336 -102.808 3.797 2025.18
38.336 -101.661 3.817 1312.26
38.336 -100.515 3.830 942.36
38.336 -99.368 3.797 838.67
38.336 -98.222 3.764 861.17
38.336 -97.075 3.778 902.07
38.336 -95.928 3.817 947.03
38.336 -94.782 3.865 1181.78
38.336 -93.635 3.890 937.04
38.336 -92.489 3.885 836.11
38.336 -91.342 3.862 635.52
38.336 -90.196 3.868 607.36
38.336 -89.049 3.872 375.61
38.336 -87.902 3.848 515.52
38.336 -86.756 3.782 447.12
38.336 -85.609 3.731 293.70
38.336 -84.463 3.726 386.56
38.336 -83.316 3.749 200.77
38.336 -82.170 3.740 327.67
38.336 -81.023 3.697 390.64
38.336 -79.876 3.657 319.69
38.336 -78.730 3.638 182.81
38.336 -77.583 3.616 195.25
38.336 -76.437 3.591 0.00
38.336 -75.290 3.579 0.00
38.336 -74.143 3.578 0.00
38.336 -72.997 3.581 0.00
38.336 -71.850 3.583 0.00
38.336 -70.704 3.583 0.00
38.336 -69.557 3.583 0.00
38.336 -68.411 3.583 0.00
38.336 -67.264 3.582 0.00
39.236 -131.880 3.582 0.00
39.236 -130.719 3.581 0.00
39.236 -129.558 3.581 0.00
39.236 -128.397 3.578 0.00
39.236 -127.235 3.584 0.00
39.236 -126.074 3.610 0.00
39.236 -124.913 3.604 0.00
39.236 -123.752 3.511 0.00
39.236 -122.591 3.401 1896.49
39.236 -121.430 3.418 4729.13
39.236 -120.269 3.437 4574.89
39.236 -119.107 3.462 3570.37
39.236 -117.946 3.533 2001.91
39.236 -116.785 3.600 1818.09
39.236 -115.624 3.570 1809.58
39.236 -114.463 3.448 3020.47
39.236 -113.302 3.384 4104.90
39.236 -112.141 3.520 4508.77
39.236 -110.980 3.691 5436.90
39.236 -109.818 3.817 4704.95
39.236 -108.657 3.843 4351.95
39.236 -107.496 3.815 3378.22
39.236 -106.335 3.822 3062.47
39.236 -105.174 3.843 2287.60
39.236 -104.013 3.842 2084.83
39.236 -102.852 3.812 1717.49
39.236 -101.690 3.773 2015.22
39.236 -100.529 3.772 1658.35
39.236 -99.368 3.786 1182.52
39.236 -98.207 3.797 1041.92
39.236 -97.046 3.830 1055.55
39.236 -95.885 3.865 772.20
39.236 -94.724 3.878 686.27
39.236 -93.563 3.859 694.28
39.236 -92.401 3.837 529.44
39.236 -91.240 3.812 360.64
39.236 -90.079 3.829 386.61
39.236 -88.918 3.882 543.44
39.236 -87.757 3.877 580.41
39.236 -86.596 3.783 256.74
39.236 -85.435 3.716 199.79
39.236 -84.273 3.696 291.70
39.236 -83.112 3.718 321.66
39.236 -81.951 3.741 40.95
39.236 -80.790 3.746 219.77
39.236 -79.629 3.731 470.26
39.236 -78.468 3.698 258.72
39.236 -77.307 3.660 159.37
39.236 -76.145 3.610 0.00
39.236 -74.984 3.586 0.00
39.236 -73.823 3.579 0.00
39.236 -72.662 3.578 0.00
39.236 -71.501 3.582 0.00
39.236 -70.340 3.583 0.00
39.236 -69.179 3.583 0.00
39.236 -68.018 3.583 0.00
39.236 -66.856 3.583 0.00
40.135 -132.306 3.583 0.00
40.135 -131.130 3.583 0.00
40.135 -129.954 3.581 0.00
40.135 -128.777 3.579 0.00
40.135 -127.601 3.592 0.00
40.135 -126.424 3.601 0.00
40.135 -125.248 3.560 0.00
40.135 -124.072 3.495 269.77
40.135 -122.895 3.435 2819.64
40.135 -121.719 3.431 3057.48
40.135 -120.543 3.451 5888.05
40.135 -119.366 3.524 3736.26
40.135 -118.190 3.571 1837.05
40.135 -117.014 3.582 1684.88
40.135 -115.837 3.539 2071.86
40.135 -114.661 3.412 3692.49
40.135 -113.484 3.417 4942.55
40.135 -112.308 3.597 5781.40
40.135 -111.132 3.794 5329.83
40.135 -109.955 3.882 4552.36
40.135 -108.779 3.832 4161.54
40.135 -107.603 3.775 3886.93
40.135 -106.426 3.741 2961.36
40.135 -105.250 3.735 2292.32
40.135 -104.074 3.737 1708.33
40.135 -102.897 3.751 1521.47
40.135 -101.721 3.767 1385.70
40.135 -100.545 3.791 1208.11
40.135 -99.368 3.808 598.38
40.135 -98.192 3.841 497.47
40.135 -97.015 3.863 463.51
40.135 -95.839 3.870 455.49
40.135 -94.663 3.871 340.62
40.135 -93.486 3.862 659.31
40.135 -92.310 3.837 444.54
40.135 -91.134 3.834 509.45
40.135 -89.957 3.884 418.16
40.135 -88.781 3.940 427.53
40.135 -87.605 3.881 287.94
40.135 -86.428 3.800 123.86
40.135 -85.252 3.769 227.76
40.135 -84.076 3.767 300.67
40.135 -82.899 3.783 397.47
40.135 -81.723 3.815 360.58
40.135 -80.546 3.825 257.70
40.135 -79.370 3.806 318.68
40.135 -78.194 3.755 412.58
40.135 -77.017 3.689 88.92
40.135 -75.841 3.635 0.00
40.135 -74.665 3.604 0.00
40.135 -73.488 3.591 0.00
40.135 -72.312 3.580 0.00
40.135 -71.136 3.579 0.00
40.135 -69.959 3.582 0.00
40.135 -68.783 3.583 0.00
40.135 -67.607 3.583 0.00
40.135 -66.430 3.583 0.00
41.034 -132.752 3.583 0.00
41.034 -131.560 3.582 0.00
41.034 -130.368 3.579 0.00
41.034 -129.175 3.589 0.00
41.034 -127.983 3.615 0.00
41.034 -126.791 3.574 0.00
41.034 -125.598 3.509 0.00
41.034 -124.406 3.493 2253.93
41.034 -123.214 3.505 2223.34
41.034 -122.022 3.446 4429.22
41.034 -120.829 3.436 3450.62
41.034 -119.637 3.479 3970.22
41.034 -118.445 3.493 2999.08
41.034 -117.252 3.484 2628.72
41.034 -116.060 3.439 2854.61
41.034 -114.868 3.352 7601.57
41.034 -113.676 3.403 7911.96
41.034 -112.483 3.595 7156.59
41.034 -111.291 3.747 5596.25
41.034 -110.099 3.783 4569.13
41.034 -108.906 3.769 3673.38
41.034 -107.714 3.747 2828.02
41.034 -106.522 3.762 2310.41
41.034 -105.330 3.778 1986.02
41.034 -104.137 3.787 2137.66
41.034 -102.945 3.794 2207.73
41.034 -101.753 3.841 1319.04
41.034 -100.560 3.889 568.84
41.034 -99.368 3.920 323.67
41.034 -98.176 3.946 308.00
41.034 -96.984 3.943 638.34
41.034 -95.791 3.946 443.54
41.034 -94.599 3.942 534.45
41.034 -93.407 3.895 397.58
41.034 -92.215 3.870 406.55
41.034 -91.022 3.891 319.68
41.034 -89.830 3.941 251.75
41.034 -88.638 3.930 205.76
41.034 -87.445 3.867 356.62
41.034 -86.253 3.800 344.64
41.034 -85.061 3.771 285.69
41.034 -83.869 3.774 308.67
41.034 -82.676 3.789 629.38
41.034 -81.484 3.803 711.29
41.034 -80.292 3.810 741.30
41.034 -79.099 3.805 720.33
41.034 -77.907 3.774 560.36
41.034 -76.715 3.718 393.60
41.034 -75.523 3.672 399.59
41.034 -74.330 3.638 344.48
41.034 -73.138 3.606 0.00
41.034 -71.946 3.586 0.00
41.034 -70.753 3.579 0.00
41.034 -69.561 3.581 0.00
41.034 -68.369 3.583 0.00
41.034 -67.177 3.583 0.00
41.034 -65.984 3.583 0.00
41.934 -133.219 3.582 0.00
41.934 -132.010 3.581 0.00
41.934 -130.801 3.584 0.00
41.934 -129.592 3.606 0.00
41.934 -128.383 3.597 0.00
41.934 -127.174 3.508 0.00
41.934 -125.965 3.462 181.84
41.934 -124.756 3.455 4153.52
41.934 -123.547 3.473 4454.60
41.934 -122.338 3.401 2445.47
41.934 -121.129 3.313 3583.78
41.934 -119.920 3.295 3954.94
41.934 -118.711 3.348 4688.19
41.934 -117.502 3.363 4233.38
41.934 -116.293 3.336 5938.49
41.934 -115.085 3.333 8192.26
41.934 -113.876 3.418 6485.39
41.934 -112.667 3.533 6355.99
41.934 -111.458 3.561 6320.94
41.934 -110.249 3.571 5807.76
41.934 -109.040 3.615 5202.30
41.934 -107.831 3.657 3982.00
41.934 -106.622 3.692 2898.23
41.934 -105.413 3.727 2578.51
41.934 -104.204 3.796 1926.91
41.934 -102.995 3.879 1470.51
41.934 -101.786 3.960 1548.45
41.934 -100.577 4.004 1619.38
41.934 -99.368 4.020 1740.35
41.934 -98.159 4.019 1714.23
41.934 -96.950 4.008 1644.33
41.934 -95.741 3.992 1355.63
41.934 -94.532 3.947 1367.61
41.934 -93.323 3.906 1315.52
41.934 -92.115 3.918 818.16
41.934 -90.906 3.943 811.14
41.934 -89.697 3.967 1031.94
41.934 -88.488 3.920 997.00
41.934 -87.279 3.831 818.35
41.934 -86.070 3.760 914.96
41.934 -84.861 3.728 998.90
41.934 -83.652 3.714 1060.64
41.934 -82.443 3.719 606.29
41.934 -81.234 3.741 638.09
41.934 -80.025 3.764 429.92
41.934 -78.816 3.778 338.68
41.934 -77.607 3.781 449.58
41.934 -76.398 3.772 383.50
41.934 -75.189 3.717 274.71
41.934 -73.980 3.671 28.97
41.934 -72.771 3.629 0.00
41.934 -71.562 3.597 0.00
41.934 -70.353 3.583 0.00
41.934 -69.145 3.581 0.00
41.934 -67.936 3.582 0.00
41.934 -66.727 3.583 0.00
41.934 -65.518 3.583 0.00
42.833 -133.707 3.582 0.00
42.833 -132.481 3.582 0.00
42.833 -131.254 3.589 0.00
42.833 -130.028 3.598 0.00
42.833 -128.802 3.551 0.00
42.833 -127.575 3.460 0.00
42.833 -126.349 3.361 4157.43
42.833 -125.122 3.366 6375.02
42.833 -123.896 3.330 3987.43
42.833 -122.670 3.242 4660.06
42.833 -121.443 3.172 5537.97
42.833 -120.217 3.169 5510.74
42.833 -118.990 3.241 5326.63
42.833 -117.764 3.282 6310.85
42.833 -116.538 3.259 9277.58
42.833 -115.311 3.258 7727.64
42.833 -114.085 3.371 6415.99
42.833 -112.858 3.473 5087.03
42.833 -111.632 3.518 4365.67
42.833 -110.406 3.587 3553.02
42.833 -109.179 3.673 2300.24
42.833 -107.953 3.703 1986.86
42.833 -106.727 3.684 2101.33
42.833 -105.500 3.696 2056.95
42.833 -104.274 3.750 2042.72
42.833 -103.047 3.822 1969.10
42.833 -101.821 3.903 1681.37
42.833 -100.595 3.931 1467.52
42.833 -99.368 3.937 1117.87
42.833 -98.142 3.947 1080.93
42.833 -96.915 3.942 1099.05
42.833 -95.689 3.922 1266.72
42.833 -94.463 3.899 1273.73
42.833 -93.236 3.885 1168.84
42.833 -92.010 3.904 1166.83
42.833 -90.783 3.934 1433.17
42.833 -89.557 3.898 898.13
42.833 -88.331 3.846 1121.75
42.833 -87.104 3.802 851.88
42.833 -85.878 3.776 631.39
42.833 -84.652 3.753 584.41
42.833 -83.425 3.734 267.72
42.833 -82.199 3.732 379.62
42.833 -80.972 3.727 354.66
42.833 -79.746 3.720 518.49
42.833 -78.520 3.705 541.47
42.833 -77.293 3.720 498.51
42.833 -76.067 3.750 559.04
42.833 -74.840 3.728 436.42
42.833 -73.614 3.678 351.65
42.833 -72.388 3.634 203.76
42.833 -71.161 3.605 56.35
42.833 -69.935 3.589 0.00
42.833 -68.708 3.582 0.00
42.833 -67.482 3.582 0.00
42.833 -66.256 3.583 0.00
42.833 -65.029 3.583 0.00
43.732 -134.219 3.582 0.00
43.732 -132.974 3.582 0.00
43.732 -131.729 3.586 0.00
43.732 -130.485 3.592 0.00
43.732 -129.240 3.551 0.00
43.732 -127.995 3.426 0.00
43.732 -126.751 3.239 19583.30
43.732 -125.506 3.161 11829.38
43.732 -124.261 3.137 7784.44
43.732 -123.017 3.158 5873.68
43.732 -121.772 3.218 5287.14
43.732 -120.527 3.281 4634.58
43.732 -119.283 3.348 5173.97
43.732 -118.038 3.337 6988.79
43.732 -116.793 3.301 9562.73
43.732 -115.549 3.276 6776.20
43.732 -114.304 3.323 5504.08
43.732 -113.059 3.375 4603.39
43.732 -111.815 3.430 3690.25
43.732 -110.570 3.560 2613.06
43.732 -109.325 3.667 2047.18
43.732 -108.081 3.667 2028.02
43.732 -106.836 3.646 1510.83
43.732 -105.591 3.687 1054.37
43.732 -104.347 3.756 1254.46
43.732 -103.102 3.832 1118.81
43.732 -101.858 3.852 1274.64
43.732 -100.613 3.836 1186.76
43.732 -99.368 3.800 1228.77
43.732 -98.124 3.788 1409.56
43.732 -96.879 3.804 1474.68
43.732 -95.634 3.834 841.14
43.732 -94.390 3.860 766.21
43.732 -93.145 3.930 1102.87
43.732 -91.900 3.996 996.99
43.732 -90.656 3.970 681.31
43.732 -89.411 3.908 699.29
43.732 -88.166 3.862 610.36
43.732 -86.922 3.820 662.34
43.732 -85.677 3.788 680.33
43.732 -84.432 3.759 612.41
43.732 -83.188 3.726 744.28
43.732 -81.943 3.698 709.31
43.732 -80.698 3.697 735.28
43.732 -79.454 3.713 559.45
43.732 -78.209 3.742 393.61
43.732 -76.964 3.783 439.56
43.732 -75.720 3.803 408.59
43.732 -74.475 3.770 654.85
43.732 -73.230 3.707 278.12
43.732 -71.986 3.641 212.79
43.732 -70.741 3.608 0.00
43.732 -69.496 3.588 0.00
43.732 -68.252 3.580 0.00
43.732 -67.007 3.581 0.00
43.732 -65.763 3.583 0.00
43.732 -64.518 3.583 0.00
44.632 -134.754 3.582 0.00
44.632 -133.490 3.582 0.00
44.632 -132.227 3.589 0.00
44.632 -130.963 3.600 0.00
44.632 -129.699 3.564 0.00
44.632 -128.435 3.482 0.00
44.632 -127.172 3.353 692.50
44.632 -125.908 3.263 2188.13
44.632 -124.644 3.237 3502.88
44.632 -123.380 3.307 4233.97
44.632 -122.116 3.415 3829.05
44.632 -120.853 3.463 4075.28
44.632 -119.589 3.433 5633.91
44.632 -118.325 3.393 8436.30
44.632 -117.061 3.381 9015.08
44.632 -115.797 3.406 6219.56
44.632 -114.534 3.437 4966.99
44.632 -113.270 3.428 4324.72
44.632 -112.006 3.488 3253.50
44.632 -110.742 3.600 2793.54
44.632 -109.479 3.670 2767.96
44.632 -108.215 3.657 1840.52
44.632 -106.951 3.641 1760.98
44.632 -105.687 3.683 1539.84
44.632 -104.423 3.749 1204.70
44.632 -103.160 3.817 1080.86
44.632 -101.896 3.831 984.97
44.632 -100.632 3.811 833.12
44.632 -99.368 3.803 1052.90
44.632 -98.104 3.798 790.20
44.632 -96.841 3.790 573.38
44.632 -95.577 3.797 694.24
44.632 -94.313 3.841 718.23
44.632 -93.049 3.913 595.37
44.632 -91.785 3.946 754.22
44.632 -90.522 3.881 535.45
44.632 -89.258 3.819 588.42
44.632 -87.994 3.795 683.32
44.632 -86.730 3.767 443.56
44.632 -85.467 3.765 574.42
44.632 -84.203 3.800 510.36
44.632 -82.939 3.838 319.67
44.632 -81.675 3.869 231.74
44.632 -80.411 3.899 342.63
44.632 -79.148 3.919 411.28
44.632 -77.884 3.934 390.60
44.632 -76.620 3.942 531.03
44.632 -75.356 3.909 629.31
44.632 -74.092 3.818 335.51
44.632 -72.829 3.718 94.89
44.632 -71.565 3.642 57.13
44.632 -70.301 3.598 148.86
44.632 -69.037 3.585 0.00
44.632 -67.773 3.580 0.00
44.632 -66.510 3.581 0.00
44.632 -65.246 3.583 0.00
44.632 -63.982 3.583 0.00
45.531 -135.316 3.583 0.00
45.531 -134.032 3.582 0.00
45.531 -132.748 3.582 0.00
45.531 -131.464 3.599 0.00
45.531 -130.180 3.604 0.00
45.531 -128.897 3.551 4.00
45.531 -127.613 3.519 490.87
45.531 -126.329 3.525 88.12
45.531 -125.045 3.579 455.62
45.531 -123.761 3.627 1637.17
45.531 -122.477 3.681 2133.51
45.531 -121.193 3.611 4260.54
45.531 -119.910 3.467 7597.69
45.531 -118.626 3.403 10491.58
45.531 -117.342 3.435 7085.16
45.531 -116.058 3.511 5873.99
45.531 -114.774 3.548 4798.42
45.531 -113.490 3.546 3589.61
45.531 -112.207 3.588 3677.35
45.531 -110.923 3.648 3236.65
45.531 -109.639 3.695 2274.67
45.531 -108.355 3.710 1947.66
45.531 -107.071 3.721 1685.47
45.531 -105.787 3.727 1357.09
45.531 -104.504 3.771 1061.76
45.531 -103.220 3.809 838.62
45.531 -101.936 3.828 831.15
45.531 -100.652 3.847 826.95
45.531 -99.368 3.853 612.37
45.531 -98.084 3.842 658.31
45.531 -96.801 3.822 705.27
45.531 -95.517 3.811 547.44
45.531 -94.233 3.835 379.62
45.531 -92.949 3.867 464.52
45.531 -91.665 3.825 567.41
45.531 -90.381 3.771 468.50
45.531 -89.097 3.752 346.62
45.531 -87.814 3.761 374.59
45.531 -86.530 3.763 418.54
45.531 -85.246 3.783 347.62
45.531 -83.962 3.831 394.58
45.531 -82.678 3.881 410.57
45.531 -81.394 3.917 534.44
45.531 -80.111 3.928 464.51
45.531 -78.827 3.915 410.55
45.531 -77.543 3.888 472.47
45.531 -76.259 3.848 330.62
45.531 -74.975 3.793 132.84
45.531 -73.691 3.724 29.96
45.531 -72.408 3.663 61.93
45.531 -71.124 3.627 93.89
45.531 -69.840 3.607 124.23
45.531 -68.556 3.592 6.26
45.531 -67.272 3.585 0.00
45.531 -65.988 3.582 0.00
45.531 -64.705 3.583 0.00
45.531 -63.421 3.583 0.00
46.431 -135.904 3.583 0.00
46.431 -134.600 3.583 0.00
46.431 -133.295 3.579 0.00
46.431 -131.990 3.578 0.00
46.431 -130.685 3.593 0.00
46.431 -129.380 3.588 108.88
46.431 -128.075 3.579 317.02
46.431 -126.770 3.626 278.75
46.431 -125.466 3.677 688.01
46.431 -124.161 3.700 1000.28
46.431 -122.856 3.680 1727.20
46.431 -121.551 3.545 5274.51
46.431 -120.246 3.387 8981.84
46.431 -118.941 3.345 8467.12
46.431 -117.636 3.405 5801.71
46.431 -116.331 3.519 4675.61
46.431 -115.027 3.593 3853.70
46.431 -113.722 3.653 3988.40
46.431 -112.417 3.670 3008.64
46.431 -111.112 3.686 2446.19
46.431 -109.807 3.716 2096.59
46.431 -108.502 3.750 2109.97
46.431 -107.197 3.760 1530.26
46.431 -105.893 3.738 1407.78
46.431 -104.588 3.739 1211.80
46.431 -103.283 3.786 1307.14
46.431 -101.978 3.822 722.84
46.431 -100.673 3.826 570.39
46.431 -99.368 3.832 624.32
46.431 -98.063 3.813 478.48
46.431 -96.758 3.792 386.59
46.431 -95.454 3.805 400.58
46.431 -94.149 3.842 432.54
46.431 -92.844 3.844 442.53
46.431 -91.539 3.775 399.60
46.431 -90.234 3.746 297.70
46.431 -88.929 3.763 431.55
46.431 -87.624 3.772 389.62
46.431 -86.320 3.772 348.65
46.431 -85.015 3.796 306.68
46.431 -83.710 3.835 297.67
46.431 -82.405 3.859 281.69
46.431 -81.100 3.853 217.75
46.431 -79.795 3.824 217.74
46.431 -78.490 3.777 177.79
46.431 -77.185 3.736 170.80
46.431 -75.881 3.705 129.85
46.431 -74.576 3.676 95.89
46.431 -73.271 3.654 94.89
46.431 -71.966 3.636 32.96
46.431 -70.661 3.618 0.00
46.431 -69.356 3.601 0.00
46.431 -68.051 3.588 0.00
46.431 -66.747 3.581 0.00
46.431 -65.442 3.582 0.00
46.431 -64.137 3.583 0.00
46.431 -62.832 3.582 0.00
47.330 -136.522 3.580 0.00
47.330 -135.195 3.579 0.00
47.330 -133.868 3.578 0.00
47.330 -132.541 3.578 0.00
47.330 -131.214 3.592 0.00
47.330 -129.887 3.616 186.80
47.330 -128.561 3.602 457.45
47.330 -127.234 3.616 489.58
47.330 -125.907 3.636 891.13
47.330 -124.580 3.648 1051.15
47.330 -123.253 3.595 4081.17
47.330 -121.926 3.461 8434.13
47.330 -120.599 3.341 8269.49
47.330 -119.272 3.307 6519.32
47.330 -117.945 3.378 4048.69
47.330 -116.618 3.500 3363.66
47.330 -115.291 3.579 3652.12
47.330 -113.964 3.623 2620.91
47.330 -112.637 3.630 2587.38
47.330 -111.311 3.618 2240.15
47.330 -109.984 3.670 1928.09
47.330 -108.657 3.720 1614.49
47.330 -107.330 3.735 1653.42
47.330 -106.003 3.746 1608.86
47.330 -104.676 3.766 1112.88
47.330 -103.349 3.801 785.08
47.330 -102.022 3.827 713.79
47.330 -100.695 3.819 585.40
47.330 -99.368 3.790 400.60
47.330 -98.041 3.763 399.60
47.330 -96.714 3.769 314.68
47.330 -95.387 3.818 298.70
47.330 -94.061 3.853 406.58
47.330 -92.734 3.802 198.79
47.330 -91.407 3.748 300.70
47.330 -90.080 3.756 198.79
47.330 -88.753 3.793 264.71
47.330 -87.426 3.795 139.84
47.330 -86.099 3.785 110.87
47.330 -84.772 3.791 91.89
47.330 -83.445 3.803 176.79
47.330 -82.118 3.802 299.65
47.330 -80.791 3.783 285.66
47.330 -79.464 3.759 210.75
47.330 -78.137 3.721 127.85
47.330 -76.811 3.678 42.95
47.330 -75.484 3.654 0.00
47.330 -74.157 3.657 0.00
47.330 -72.830 3.675 11.99
47.330 -71.503 3.680 116.86
47.330 -70.176 3.639 53.36
47.330 -68.849 3.598 0.00
47.330 -67.522 3.582 0.00
47.330 -66.195 3.581 0.00
47.330 -64.868 3.583 0.00
47.330 -63.541 3.582 0.00
47.330 -62.214 3.580 0.00
48.229 -137.170 3.576 0.00
48.229 -135.820 3.574 0.00
48.229 -134.470 3.583 0.00
48.229 -133.120 3.603 43.95
48.229 -131.770 3.634 140.85
48.229 -130.420 3.656 317.66
48.229 -129.070 3.592 615.64
48.229 -127.720 3.586 369.70
48.229 -126.370 3.616 1078.98
48.229 -125.020 3.612 3023.01
48.229 -123.670 3.532 9231.30
48.229 -122.320 3.440 8813.59
48.229 -120.969 3.392 7101.96
48.229 -119.619 3.413 3944.07
48.229 -118.269 3.481 3784.59
48.229 -116.919 3.527 2780.63
48.229 -115.569 3.560 1985.69
48.229 -114.219 3.557 2081.13
48.229 -112.869 3.551 1954.44
48.229 -111.519 3.552 1877.20
48.229 -110.169 3.589 1806.97
48.229 -108.819 3.675 1677.32
48.229 -107.469 3.735 1473.55
48.229 -106.119 3.745 1182.85
48.229 -104.769 3.752 1032.19
48.229 -103.418 3.754 669.34
48.229 -102.068 3.750 382.63
48.229 -100.718 3.732 300.70
48.229 -99.368 3.707 300.70
48.229 -98.018 3.709 299.70
48.229 -96.668 3.761 299.70
48.229 -95.318 3.843 292.53
48.229 -93.968 3.851 230.73
48.229 -92.618 3.809 199.77
48.229 -91.268 3.794 153.50
48.229 -89.918 3.840 175.79
48.229 -88.568 3.885 303.64
48.229 -87.217 3.874 205.76
48.229 -85.867 3.842 231.73
48.229 -84.517 3.816 302.64
48.229 -83.167 3.790 223.74
48.229 -81.817 3.785 167.82
48.229 -80.467 3.784 113.89
48.229 -79.117 3.773 166.85
48.229 -77.767 3.743 175.60
48.229 -76.417 3.710 95.89
48.229 -75.067 3.705 95.89
48.229 -73.717 3.721 133.84
48.229 -72.367 3.728 178.79
48.229 -71.017 3.689 71.92
48.229 -69.666 3.628 0.00
48.229 -68.316 3.590 0.00
48.229 -66.966 3.579 0.00
48.229 -65.616 3.581 0.00
48.229 -64.266 3.581 0.00
48.229 -62.916 3.578 0.00
48.229 -61.566 3.580 0.00
49.129 -137.851 3.589 0.00
49.129 -136.477 3.590 41.96
49.129 -135.103 3.611 133.86
49.129 -133.728 3.650 182.81
49.129 -132.354 3.673 269.72
49.129 -130.979 3.623 396.58
49.129 -129.605 3.551 316.95
49.129 -128.231 3.549 854.24
49.129 -126.856 3.574 2130.95
49.129 -125.482 3.544 10509.87
49.129 -124.107 3.481 10584.77
49.129 -122.733 3.454 7261.00
