48.229 -93.968 3.274 11719.22
48.229 -92.618 3.203 3515.72
48.229 -91.268 3.069 2408.94
48.229 -89.918 2.950 1414.94
48.229 -88.568 2.876 705.09
48.229 -87.217 2.882 99.91
48.229 -85.867 2.918 279.62
48.229 -84.517 2.974 198.83
48.229 -83.167 3.028 197.83
48.229 -81.817 3.081 129.17
48.229 -80.467 3.109 379.13
48.229 -79.117 3.137 441.80
48.229 -77.767 3.207 294.06
48.229 -76.417 3.264 735.29
48.229 -75.067 3.195 432.12
48.229 -73.717 3.156 602.90
48.229 -72.367 3.128 296.57
48.229 -71.017 3.085 564.39
48.229 -69.666 3.022 271.55
48.229 -68.316 2.981 1.10
48.229 -66.966 2.962 5.06
48.229 -65.616 2.944 0.00
48.229 -64.266 2.938 0.00
48.229 -62.916 2.948 0.00
48.229 -61.566 2.953 0.00
49.129 -137.851 2.951 0.00
49.129 -136.477 2.951 0.00
49.129 -135.103 2.951 0.00
49.129 -133.728 2.951 0.00
49.129 -132.354 2.951 0.00
49.129 -130.979 2.951 0.00
49.129 -129.605 2.951 0.00
49.129 -128.231 2.951 0.00
49.129 -126.856 2.951 0.00
49.129 -125.482 2.951 0.00
49.129 -124.107 2.952 0.00
49.129 -122.733 2.952 0.00
49.129 -121.359 2.952 0.00
49.129 -119.984 2.951 206.05
49.129 -118.610 2.946 90.06
49.129 -117.235 2.939 113.93
49.129 -115.861 2.935 47.05
49.129 -114.487 2.934 209.49
49.129 -113.112 2.947 5.89
49.129 -111.738 2.953 0.00
49.129 -110.363 2.952 0.00
49.129 -108.989 2.951 0.00
49.129 -107.615 2.951 0.00
49.129 -106.240 2.951 0.00
49.129 -104.866 2.951 0.00
49.129 -103.491 2.951 0.56
49.129 -102.117 2.948 0.00
49.129 -100.743 2.948 0.00
49.129 -99.368 2.965 0.00
49.129 -97.994 3.023 2743.71
49.129 -96.619 3.125 2292.18
49.129 -95.245 3.152 3483.43
49.129 -93.871 3.136 211.15
49.129 -92.496 3.092 0.00
49.129 -91.122 3.017 0.00
49.129 -89.747 2.960 232.81
49.129 -88.373 2.937 74.96
49.129 -86.999 2.944 100.91
49.129 -85.624 2.978 100.88
49.129 -84.250 3.009 200.79
49.129 -82.875 3.015 249.48
49.129 -81.501 3.018 205.60
49.129 -80.127 3.034 411.22
49.129 -78.752 3.053 325.44
49.129 -77.378 3.125 428.74
49.129 -76.003 3.164 600.13
49.129 -74.629 3.086 173.94
49.129 -73.255 3.051 248.37
49.129 -71.880 3.043 162.09
49.129 -70.506 3.028 136.30
49.129 -69.131 2.986 130.08
49.129 -67.757 2.954 102.61
49.129 -66.383 2.942 0.00
49.129 -65.008 2.942 0.00
49.129 -63.634 2.948 0.00
49.129 -62.259 2.952 0.00
49.129 -60.885 2.951 0.00
50.028 -138.567 2.951 0.00
50.028 -137.167 2.951 0.00
50.028 -135.767 2.951 0.00
50.028 -134.367 2.951 0.00
50.028 -132.967 2.951 0.00
50.028 -131.567 2.951 0.00
50.028 -130.167 2.951 0.00
50.028 -128.767 2.951 0.00
50.028 -127.368 2.951 0.00
50.028 -125.968 2.951 0.00
50.028 -124.568 2.951 2.22
50.028 -123.168 2.950 6.70
50.028 -121.768 2.949 27.23
50.028 -120.368 2.948 150.12
50.028 -118.968 2.950 165.91
50.028 -117.568 2.949 0.00
50.028 -116.168 2.947 0.00
50.028 -114.768 2.946 0.00
50.028 -113.368 2.950 3.50
50.028 -111.968 2.952 0.00
50.028 -110.568 2.951 0.00
50.028 -109.168 2.950 0.00
50.028 -107.768 2.951 0.00
50.028 -106.368 2.951 0.00
50.028 -104.968 2.951 0.00
50.028 -103.568 2.952 0.00
50.028 -102.168 2.950 0.00
50.028 -100.768 2.947 0.00
50.028 -99.368 2.948 0.00
50.028 -97.968 2.958 0.00
50.028 -96.568 2.990 50.24
50.028 -95.168 3.003 127.78
50.028 -93.768 2.989 42.36
50.028 -92.368 2.965 42.36
50.028 -90.968 2.950 42.36
50.028 -89.568 2.958 350.13
50.028 -88.168 2.964 41.93
50.028 -86.769 2.975 222.29
50.028 -85.369 2.998 306.64
50.028 -83.969 3.003 86.46
50.028 -82.569 3.003 41.51
50.028 -81.169 3.012 275.14
50.028 -79.769 3.014 165.51
50.028 -78.369 3.033 132.92
50.028 -76.969 3.089 446.61
50.028 -75.569 3.108 200.77
50.028 -74.169 3.038 88.54
50.028 -72.769 3.008 349.05
50.028 -71.369 2.989 0.00
50.028 -69.969 2.976 124.56
50.028 -68.569 2.955 16.89
50.028 -67.169 2.945 0.00
50.028 -65.769 2.946 0.00
50.028 -64.369 2.950 0.00
50.028 -62.969 2.952 0.00
50.028 -61.569 2.951 0.00
50.028 -60.169 2.951 0.00
50.927 -139.320 2.951 0.00
50.927 -137.893 2.951 0.00
50.927 -136.466 2.951 0.00
50.927 -135.040 2.951 0.00
50.927 -133.613 2.951 0.00
50.927 -132.186 2.951 0.00
50.927 -130.759 2.951 0.00
50.927 -129.332 2.951 0.00
50.927 -127.905 2.951 0.00
50.927 -126.478 2.951 0.00
50.927 -125.052 2.951 0.00
50.927 -123.625 2.950 6.79
50.927 -122.198 2.948 36.42
50.927 -120.771 2.949 0.00
50.927 -119.344 2.951 27.99
50.927 -117.917 2.953 59.30
50.927 -116.490 2.952 0.00
50.927 -115.064 2.951 0.00
50.927 -113.637 2.951 3.50
50.927 -112.210 2.951 0.00
50.927 -110.783 2.950 0.00
50.927 -109.356 2.951 0.00
50.927 -107.929 2.951 0.00
50.927 -106.502 2.952 0.00
50.927 -105.076 2.952 0.00
50.927 -103.649 2.951 0.00
50.927 -102.222 2.947 0.00
50.927 -100.795 2.941 0.00
50.927 -99.368 2.935 21.98
50.927 -97.941 2.930 113.88
50.927 -96.514 2.934 63.93
50.927 -95.088 2.938 0.00
50.927 -93.661 2.938 0.00
50.927 -92.234 2.933 0.00
50.927 -90.807 2.943 162.86
50.927 -89.380 2.963 246.79
50.927 -87.953 2.970 104.89
50.927 -86.526 2.975 9.99
50.927 -85.100 2.992 200.78
50.927 -83.673 2.991 0.00
50.927 -82.246 2.995 142.91
50.927 -80.819 3.006 254.26
50.927 -79.392 3.019 102.94
50.927 -77.965 3.057 277.77
50.927 -76.538 3.087 141.85
50.927 -75.112 3.091 295.69
50.927 -73.685 3.021 59.32
50.927 -72.258 2.997 119.88
50.927 -70.831 2.992 131.88
50.927 -69.404 2.973 125.56
50.927 -67.977 2.952 16.89
50.927 -66.550 2.948 0.00
50.927 -65.124 2.950 0.00
50.927 -63.697 2.951 0.00
50.927 -62.270 2.951 0.00
50.927 -60.843 2.951 0.00
50.927 -59.416 2.951 0.00
51.827 -140.113 2.951 0.00
51.827 -138.658 2.951 0.00
51.827 -137.203 2.951 0.00
51.827 -135.747 2.951 0.00
51.827 -134.292 2.951 0.00
51.827 -132.837 2.951 0.00
51.827 -131.382 2.951 0.00
51.827 -129.927 2.951 0.00
51.827 -128.472 2.951 0.00
51.827 -127.016 2.951 0.00
51.827 -125.561 2.951 0.00
51.827 -124.106 2.950 0.00
51.827 -122.651 2.950 9.19
51.827 -121.196 2.950 0.00
51.827 -119.741 2.951 0.00
51.827 -118.285 2.952 2.96
51.827 -116.830 2.952 0.00
51.827 -115.375 2.951 0.00
51.827 -113.920 2.951 1.92
51.827 -112.465 2.951 1.57
51.827 -111.010 2.951 0.00
51.827 -109.554 2.951 0.00
51.827 -108.099 2.951 0.00
51.827 -106.644 2.950 0.00
51.827 -105.189 2.948 0.00
51.827 -103.734 2.944 0.00
51.827 -102.279 2.940 6.99
51.827 -100.823 2.934 113.88
51.827 -99.368 2.934 91.90
51.827 -97.913 2.937 0.00
51.827 -96.458 2.940 0.00
51.827 -95.003 2.943 0.00
51.827 -93.548 2.945 0.00
51.827 -92.092 2.945 0.00
51.827 -90.637 2.947 240.48
51.827 -89.182 2.953 4.00
51.827 -87.727 2.959 0.00
51.827 -86.272 2.971 54.94
51.827 -84.817 2.992 146.84
51.827 -83.361 2.992 139.91
51.827 -81.906 2.998 185.88
51.827 -80.451 3.015 26.98
51.827 -78.996 3.048 105.91
51.827 -77.541 3.080 346.67
51.827 -76.085 3.086 143.87
51.827 -74.630 3.050 172.81
51.827 -73.175 2.987 15.33
51.827 -71.720 2.979 0.00
51.827 -70.265 3.000 252.34
51.827 -68.810 2.982 131.12
51.827 -67.354 2.956 1.97
51.827 -65.899 2.949 0.00
51.827 -64.444 2.950 0.00
51.827 -62.989 2.951 0.00
51.827 -61.534 2.951 0.00
51.827 -60.079 2.951 0.00
51.827 -58.623 2.951 0.00
52.726 -140.948 2.951 0.00
52.726 -139.463 2.951 0.00
52.726 -137.978 2.951 0.00
52.726 -136.493 2.951 0.00
52.726 -135.008 2.951 0.00
52.726 -133.523 2.951 0.00
52.726 -132.038 2.951 0.00
52.726 -130.553 2.951 0.00
52.726 -129.068 2.951 0.00
52.726 -127.583 2.951 0.00
52.726 -126.098 2.951 0.00
52.726 -124.613 2.951 0.00
52.726 -123.128 2.951 1.80
52.726 -121.643 2.950 7.39
52.726 -120.158 2.951 0.00
52.726 -118.673 2.951 2.96
52.726 -117.188 2.951 0.00
52.726 -115.703 2.951 0.00
52.726 -114.218 2.953 0.00
52.726 -112.733 2.955 3.50
52.726 -111.248 2.953 0.00
52.726 -109.763 2.950 0.00
52.726 -108.278 2.946 0.00
52.726 -106.793 2.943 0.00
52.726 -105.308 2.939 9.99
52.726 -103.823 2.934 113.88
52.726 -102.338 2.935 106.89
52.726 -100.853 2.940 0.00
52.726 -99.368 2.945 0.00
52.726 -97.883 2.948 0.00
52.726 -96.398 2.950 0.00
52.726 -94.913 2.951 0.00
52.726 -93.428 2.951 0.00
52.726 -91.943 2.949 0.00
52.726 -90.458 2.946 74.86
52.726 -88.973 2.948 0.00
52.726 -87.488 2.958 0.00
52.726 -86.003 2.979 127.85
52.726 -84.518 2.995 163.85
52.726 -83.033 2.996 114.04
52.726 -81.548 3.013 102.92
52.726 -80.063 3.043 0.00
52.726 -78.578 3.077 392.67
52.726 -77.093 3.073 179.82
52.726 -75.608 3.064 142.83
52.726 -74.123 3.008 69.50
52.726 -72.638 2.959 4.76
52.726 -71.153 2.967 0.00
52.726 -69.668 3.002 264.37
52.726 -68.183 2.991 124.03
52.726 -66.698 2.960 0.00
52.726 -65.213 2.948 0.00
52.726 -63.728 2.949 0.00
52.726 -62.243 2.951 0.00
52.726 -60.758 2.951 0.00
52.726 -59.273 2.951 0.00
52.726 -57.788 2.951 0.00
53.625 -141.829 2.951 0.00
53.625 -140.313 2.951 0.00
53.625 -138.796 2.951 0.00
53.625 -137.280 2.951 0.00
53.625 -135.763 2.951 0.00
53.625 -134.247 2.951 0.00
53.625 -132.730 2.951 0.00
53.625 -131.214 2.951 0.00
53.625 -129.697 2.951 0.00
53.625 -128.181 2.951 0.00
53.625 -126.665 2.951 0.00
53.625 -125.148 2.951 0.00
53.625 -123.632 2.951 0.00
53.625 -122.115 2.951 5.93
53.625 -120.599 2.951 3.26
53.625 -119.082 2.951 2.96
53.625 -117.566 2.951 0.00
53.625 -116.049 2.951 0.00
53.625 -114.533 2.954 0.00
53.625 -113.016 2.957 105.33
53.625 -111.500 2.952 14.99
53.625 -109.983 2.945 0.00
53.625 -108.467 2.938 37.96
53.625 -106.951 2.933 113.88
53.625 -105.434 2.934 103.89
53.625 -103.918 2.940 0.00
53.625 -102.401 2.944 0.00
53.625 -100.885 2.948 0.00
53.625 -99.368 2.951 0.00
53.625 -97.852 2.952 0.00
53.625 -96.335 2.952 0.00
53.625 -94.819 2.952 0.00
53.625 -93.302 2.951 0.00
53.625 -91.786 2.949 0.00
53.625 -90.269 2.947 0.00
53.625 -88.753 2.953 0.00
53.625 -87.237 2.970 0.00
53.625 -85.720 2.996 295.70
53.625 -84.204 2.996 35.97
53.625 -82.687 3.008 63.95
53.625 -81.171 3.042 76.94
53.625 -79.654 3.072 324.73
53.625 -78.138 3.055 178.82
53.625 -76.621 3.037 35.96
53.625 -75.105 3.042 202.51
53.625 -73.588 2.987 14.59
53.625 -72.072 2.948 0.00
53.625 -70.555 2.960 0.00
53.625 -69.039 2.998 206.41
53.625 -67.523 2.996 185.81
53.625 -66.006 2.965 0.00
53.625 -64.490 2.950 0.00
53.625 -62.973 2.949 0.00
53.625 -61.457 2.951 0.00
53.625 -59.940 2.951 0.00
53.625 -58.424 2.951 0.00
53.625 -56.907 2.951 0.00
54.525 -142.759 2.951 0.00
54.525 -141.209 2.951 0.00
54.525 -139.660 2.951 0.00
54.525 -138.110 2.951 0.00
54.525 -136.560 2.951 0.00
54.525 -135.011 2.951 0.00
54.525 -133.461 2.951 0.00
54.525 -131.911 2.951 0.00
54.525 -130.362 2.951 0.00
54.525 -128.812 2.951 0.00
54.525 -127.262 2.951 0.00
54.525 -125.713 2.951 0.00
54.525 -124.163 2.951 0.00
54.525 -122.613 2.951 0.00
54.525 -121.064 2.951 9.28
54.525 -119.514 2.950 2.96
54.525 -117.964 2.947 0.00
54.525 -116.415 2.944 0.00
54.525 -114.865 2.944 0.00
54.525 -113.315 2.946 0.00
54.525 -111.766 2.946 220.79
54.525 -110.216 2.941 126.87
54.525 -108.666 2.939 74.92
54.525 -107.117 2.941 0.00
54.525 -105.567 2.944 0.00
54.525 -104.017 2.948 0.00
54.525 -102.468 2.951 0.00
54.525 -100.918 2.952 0.00
54.525 -99.368 2.952 0.00
54.525 -97.819 2.951 0.00
54.525 -96.269 2.951 0.00
54.525 -94.719 2.950 0.00
54.525 -93.170 2.948 0.00
54.525 -91.620 2.948 0.00
54.525 -90.070 2.952 0.00
54.525 -88.520 2.965 0.00
54.525 -86.971 2.989 99.92
54.525 -85.421 3.008 177.95
54.525 -83.871 3.008 0.00
54.525 -82.322 3.036 201.84
54.525 -80.772 3.061 119.90
54.525 -79.222 3.055 263.77
54.525 -77.673 3.011 100.88
54.525 -76.123 3.005 0.00
54.525 -74.573 3.030 218.25
54.525 -73.024 2.983 0.00
54.525 -71.474 2.949 0.00
54.525 -69.924 2.957 15.24
54.525 -68.375 2.984 3.34
54.525 -66.825 2.993 334.86
54.525 -65.275 2.966 0.00
54.525 -63.726 2.952 0.00
54.525 -62.176 2.950 0.00
54.525 -60.626 2.951 0.00
54.525 -59.077 2.951 0.00
54.525 -57.527 2.951 0.00
54.525 -55.977 2.951 0.00
55.424 -143.742 2.951 0.00
55.424 -142.157 2.951 0.00
55.424 -140.572 2.951 0.00
55.424 -138.988 2.951 0.00
55.424 -137.403 2.951 0.00
55.424 -135.818 2.951 0.00
55.424 -134.233 2.951 0.00
55.424 -132.648 2.951 0.00
55.424 -131.064 2.951 0.00
55.424 -129.479 2.951 0.00
55.424 -127.894 2.951 0.00
55.424 -126.309 2.951 0.00
55.424 -124.725 2.951 0.00
55.424 -123.140 2.951 0.00
55.424 -121.555 2.950 0.60
55.424 -119.970 2.947 11.63
55.424 -118.385 2.940 26.97
55.424 -116.801 2.933 109.88
55.424 -115.216 2.932 111.88
55.424 -113.631 2.936 111.88
55.424 -112.046 2.946 5.99
55.424 -110.462 2.954 116.91
55.424 -108.877 2.954 13.99
55.424 -107.292 2.952 0.00
55.424 -105.707 2.951 0.00
55.424 -104.123 2.951 0.00
55.424 -102.538 2.951 0.00
55.424 -100.953 2.951 0.00
55.424 -99.368 2.951 0.00
55.424 -97.783 2.951 0.00
55.424 -96.199 2.950 0.00
55.424 -94.614 2.947 0.00
55.424 -93.029 2.948 0.00
55.424 -91.444 2.954 0.00
55.424 -89.860 2.968 0.00
55.424 -88.275 2.988 108.91
55.424 -86.690 3.005 28.98
55.424 -85.105 3.020 158.85
55.424 -83.520 3.029 160.87
55.424 -81.936 3.046 53.96
55.424 -80.351 3.055 295.75
55.424 -78.766 3.011 22.98
55.424 -77.181 2.976 33.21
55.424 -75.597 2.994 6.55
55.424 -74.012 3.026 210.55
55.424 -72.427 2.984 0.00
55.424 -70.842 2.955 0.00
55.424 -69.257 2.959 30.57
55.424 -67.673 2.972 101.93
55.424 -66.088 2.971 13.99
55.424 -64.503 2.957 0.00
55.424 -62.918 2.950 0.00
55.424 -61.334 2.950 0.00
55.424 -59.749 2.951 0.00
55.424 -58.164 2.951 0.00
55.424 -56.579 2.951 0.00
55.424 -54.995 2.951 0.00
56.324 -144.782 2.951 0.00
56.324 -143.160 2.951 0.00
56.324 -141.538 2.951 0.00
56.324 -139.916 2.951 0.00
56.324 -138.294 2.951 0.00
56.324 -136.672 2.951 0.00
56.324 -135.050 2.951 0.00
56.324 -133.428 2.951 0.00
56.324 -131.806 2.951 0.00
56.324 -130.184 2.951 0.00
56.324 -128.563 2.951 0.00
56.324 -126.941 2.951 0.00
56.324 -125.319 2.951 0.00
56.324 -123.697 2.951 0.00
56.324 -122.075 2.950 0.00
56.324 -120.453 2.945 23.82
56.324 -118.831 2.940 82.91
56.324 -117.209 2.940 0.00
56.324 -115.587 2.942 0.00
56.324 -113.965 2.945 0.00
56.324 -112.343 2.951 0.00
56.324 -110.722 2.957 0.00
56.324 -109.100 2.962 116.91
56.324 -107.478 2.960 15.99
56.324 -105.856 2.955 0.00
56.324 -104.234 2.951 0.00
56.324 -102.612 2.950 0.00
56.324 -100.990 2.950 0.00
56.324 -99.368 2.951 0.00
56.324 -97.746 2.949 0.00
56.324 -96.124 2.947 0.00
56.324 -94.502 2.949 0.00
56.324 -92.881 2.959 0.00
56.324 -91.259 2.975 0.00
56.324 -89.637 2.994 120.90
56.324 -88.015 3.005 46.96
56.324 -86.393 3.018 206.81
56.324 -84.771 3.016 45.96
56.324 -83.149 3.030 102.92
56.324 -81.527 3.047 163.86
56.324 -79.905 3.026 155.86
56.324 -78.283 2.977 0.00
56.324 -76.661 2.966 0.00
56.324 -75.040 3.006 96.39
56.324 -73.418 3.018 121.86
56.324 -71.796 2.980 0.00
56.324 -70.174 2.962 45.17
56.324 -68.552 2.963 103.50
56.324 -66.930 2.960 0.00
56.324 -65.308 2.956 0.00
56.324 -63.686 2.950 0.00
56.324 -62.064 2.949 0.00
56.324 -60.442 2.950 0.00
56.324 -58.820 2.951 0.00
56.324 -57.199 2.951 0.00
56.324 -55.577 2.951 0.00
56.324 -53.955 2.951 0.00
57.223 -145.883 2.951 0.00
57.223 -144.222 2.951 0.00
57.223 -142.561 2.951 0.00
57.223 -140.899 2.951 0.00
57.223 -139.238 2.951 0.00
57.223 -137.577 2.951 0.00
57.223 -135.916 2.951 0.00
57.223 -134.254 2.951 0.00
57.223 -132.593 2.951 0.00
57.223 -130.932 2.950 0.00
57.223 -129.271 2.950 0.00
57.223 -127.609 2.950 0.00
57.223 -125.948 2.951 0.00
57.223 -124.287 2.951 0.00
57.223 -122.626 2.951 0.00
57.223 -120.964 2.949 0.00
57.223 -119.303 2.947 0.00
57.223 -117.642 2.949 0.00
57.223 -115.981 2.950 0.00
57.223 -114.319 2.950 0.00
57.223 -112.658 2.951 0.00
57.223 -110.997 2.954 0.00
57.223 -109.336 2.958 0.00
57.223 -107.674 2.962 114.91
57.223 -106.013 2.959 20.98
57.223 -104.352 2.954 0.00
57.223 -102.691 2.951 0.00
57.223 -101.029 2.949 0.00
57.223 -99.368 2.949 0.00
57.223 -97.707 2.948 0.00
57.223 -96.046 2.951 0.00
57.223 -94.384 2.965 0.00
57.223 -92.723 2.988 8.99
57.223 -91.062 3.005 134.89
57.223 -89.401 3.006 112.91
57.223 -87.739 3.000 76.94
57.223 -86.078 3.006 99.90
57.223 -84.417 3.014 48.96
57.223 -82.756 3.035 66.95
57.223 -81.094 3.040 306.72
57.223 -79.433 2.993 0.00
57.223 -77.772 2.957 0.00
57.223 -76.111 2.973 12.65
57.223 -74.449 3.026 133.68
57.223 -72.788 3.014 70.92
57.223 -71.127 2.976 70.95
57.223 -69.466 2.962 80.54
57.223 -67.805 2.958 0.00
57.223 -66.143 2.953 0.00
57.223 -64.482 2.950 0.00
57.223 -62.821 2.949 0.00
57.223 -61.160 2.950 0.00
57.223 -59.498 2.951 0.00
57.223 -57.837 2.951 0.00
57.223 -56.176 2.951 0.00
57.223 -54.515 2.951 0.00
57.223 -52.853 2.951 0.00
58.122 -147.051 2.951 0.00
58.122 -145.348 2.951 0.00
58.122 -143.645 2.951 0.00
58.122 -141.942 2.951 0.00
58.122 -140.239 2.951 0.00
58.122 -138.537 2.951 0.00
58.122 -136.834 2.950 0.00
58.122 -135.131 2.951 0.00
58.122 -133.428 2.950 0.00
58.122 -131.725 2.949 6.00
58.122 -130.022 2.949 89.04
58.122 -128.319 2.949 0.00
58.122 -126.616 2.950 0.00
58.122 -124.913 2.951 0.00
58.122 -123.210 2.951 0.00
58.122 -121.507 2.951 0.00
58.122 -119.804 2.950 0.00
58.122 -118.101 2.951 0.00
58.122 -116.398 2.952 0.00
58.122 -114.695 2.951 0.00
58.122 -112.992 2.950 0.00
58.122 -111.289 2.951 0.00
58.122 -109.586 2.953 0.00
58.122 -107.883 2.958 0.00
58.122 -106.180 2.962 109.91
58.122 -104.477 2.959 28.98
58.122 -102.774 2.954 0.00
58.122 -101.071 2.950 0.00
58.122 -99.368 2.949 0.00
58.122 -97.665 2.953 0.00
58.122 -95.962 2.963 0.00
58.122 -94.259 2.985 28.98
58.122 -92.556 3.011 225.82
58.122 -90.853 3.005 97.92
58.122 -89.150 2.981 0.00
58.122 -87.447 2.978 0.00
58.122 -85.744 3.002 100.90
58.122 -84.041 3.030 103.92
58.122 -82.339 3.047 291.74
58.122 -80.636 3.013 29.97
58.122 -78.933 2.965 0.00
58.122 -77.230 2.949 3.57
58.122 -75.527 2.989 11.91
58.122 -73.824 3.045 203.76
58.122 -72.121 3.010 101.93
58.122 -70.418 2.967 31.98
58.122 -68.715 2.954 18.58
58.122 -67.012 2.952 0.00
58.122 -65.309 2.950 0.00
58.122 -63.606 2.950 0.00
58.122 -61.903 2.950 0.00
58.122 -60.200 2.951 0.00
58.122 -58.497 2.951 0.00
58.122 -56.794 2.951 0.00
58.122 -55.091 2.951 0.00
58.122 -53.388 2.951 0.00
58.122 -51.685 2.951 0.00
59.022 -148.292 2.951 0.00
59.022 -146.545 2.951 0.00
59.022 -144.798 2.951 0.00
59.022 -143.050 2.951 0.00
59.022 -141.303 2.951 0.00
59.022 -139.556 2.950 0.00
59.022 -137.808 2.949 16.88
59.022 -136.061 2.950 62.16
59.022 -134.314 2.950 423.98
59.022 -132.567 2.947 123.04
59.022 -130.819 2.947 29.98
59.022 -129.072 2.947 74.94
59.022 -127.325 2.949 0.00
59.022 -125.577 2.951 0.00
59.022 -123.830 2.951 0.00
59.022 -122.083 2.951 0.00
59.022 -120.336 2.951 0.00
59.022 -118.588 2.951 0.00
59.022 -116.841 2.951 0.00
59.022 -115.094 2.951 0.00
59.022 -113.346 2.951 0.00
59.022 -111.599 2.950 0.00
59.022 -109.852 2.950 0.00
59.022 -108.105 2.952 0.00
59.022 -106.357 2.956 0.00
59.022 -104.610 2.960 102.92
59.022 -102.863 2.959 39.97
59.022 -101.115 2.957 0.00
59.022 -99.368 2.958 0.00
59.022 -97.621 2.962 0.00
59.022 -95.874 2.970 159.85
59.022 -94.126 2.979 285.81
59.022 -92.379 2.980 0.00
59.022 -90.632 2.968 0.00
59.022 -88.884 2.958 0.00
59.022 -87.137 2.980 85.91
59.022 -85.390 3.018 59.95
59.022 -83.643 3.049 185.84
59.022 -81.895 3.036 194.82
59.022 -80.148 2.985 0.00
59.022 -78.401 2.951 0.00
59.022 -76.654 2.957 15.48
59.022 -74.906 3.008 34.98
59.022 -73.159 3.050 305.69
59.022 -71.412 2.997 0.00
59.022 -69.664 2.957 14.86
59.022 -67.917 2.949 3.72
59.022 -66.170 2.950 0.00
59.022 -64.423 2.950 0.00
59.022 -62.675 2.950 0.00
59.022 -60.928 2.951 0.00
59.022 -59.181 2.951 0.00
59.022 -57.433 2.951 0.00
59.022 -55.686 2.951 0.00
59.022 -53.939 2.951 0.00
59.022 -52.192 2.951 0.00
59.022 -50.444 2.951 0.00
59.921 -149.612 2.951 0.00
59.921 -147.818 2.951 0.00
59.921 -146.023 2.951 0.00
59.921 -144.229 2.950 0.00
59.921 -142.434 2.949 0.00
59.921 -140.640 2.948 17.66
59.921 -138.845 2.948 89.36
59.921 -137.051 2.950 154.85
59.921 -135.257 2.949 463.51
59.921 -133.462 2.945 185.91
59.921 -131.668 2.944 48.96
59.921 -129.873 2.945 58.95
59.921 -128.079 2.947 46.96
59.921 -126.284 2.950 0.00
59.921 -124.490 2.951 0.00
59.921 -122.696 2.951 0.00
59.921 -120.901 2.951 0.00
59.921 -119.107 2.951 0.00
59.921 -117.312 2.951 0.00
59.921 -115.518 2.951 0.00
59.921 -113.724 2.951 0.00
59.921 -111.929 2.950 0.00
59.921 -110.135 2.949 0.00
59.921 -108.340 2.949 0.00
59.921 -106.546 2.952 0.00
59.921 -104.751 2.959 0.00
59.921 -102.957 2.967 90.93
59.921 -101.163 2.972 54.96
59.921 -99.368 2.973 83.92
59.921 -97.574 2.971 230.79
59.921 -95.779 2.964 70.94
59.921 -93.985 2.956 64.99
59.921 -92.191 2.948 42.99
59.921 -90.396 2.943 0.00
59.921 -88.602 2.957 0.00
59.921 -86.807 3.007 100.90
59.921 -85.013 3.046 103.92
59.921 -83.218 3.052 324.70
59.921 -81.424 3.005 0.00
59.921 -79.630 2.964 0.00
59.921 -77.835 2.953 10.27
59.921 -76.041 2.976 79.31
59.921 -74.246 3.022 121.89
59.921 -72.452 3.033 149.82
59.921 -70.657 2.981 0.00
59.921 -68.863 2.950 18.58
59.921 -67.069 2.947 0.00
59.921 -65.274 2.950 0.00
59.921 -63.480 2.951 0.00
59.921 -61.685 2.951 0.00
59.921 -59.891 2.951 0.00
59.921 -58.097 2.951 0.00
59.921 -56.302 2.951 0.00
59.921 -54.508 2.951 0.00
59.921 -52.713 2.951 0.00
59.921 -50.919 2.951 0.00
59.921 -49.124 2.951 0.00
60.820 -151.018 2.951 0.00
60.820 -149.173 2.951 0.00
60.820 -147.329 2.951 0.00
60.820 -145.484 2.949 5.88
60.820 -143.639 2.947 33.70
60.820 -141.795 2.947 0.00
60.820 -139.950 2.948 58.13
60.820 -138.106 2.949 195.07
60.820 -136.261 2.947 189.22
60.820 -134.416 2.941 366.14
60.820 -132.572 2.940 281.92
60.820 -130.727 2.941 99.92
60.820 -128.882 2.943 85.93
60.820 -127.038 2.946 19.98
60.820 -125.193 2.949 0.00
60.820 -123.348 2.951 0.00
60.820 -121.504 2.950 0.00
60.820 -119.659 2.949 0.00
60.820 -117.815 2.950 0.00
60.820 -115.970 2.950 0.00
60.820 -114.125 2.949 0.00
60.820 -112.281 2.950 0.00
60.820 -110.436 2.950 0.00
60.820 -108.591 2.952 0.00
60.820 -106.747 2.956 0.00
60.820 -104.902 2.964 0.00
60.820 -103.057 2.973 44.95
60.820 -101.213 2.981 302.73
60.820 -99.368 2.978 221.81
60.820 -97.524 2.968 0.00
60.820 -95.679 2.957 0.00
60.820 -93.834 2.945 0.00
60.820 -91.990 2.931 109.98
60.820 -90.145 2.938 0.00
60.820 -88.300 2.980 0.00
60.820 -86.456 3.043 144.86
60.820 -84.611 3.067 340.70
60.820 -82.766 3.027 44.96
60.820 -80.922 2.980 0.00
60.820 -79.077 2.957 13.63
60.820 -77.233 2.962 117.92
60.820 -75.388 2.984 29.98
60.820 -73.543 3.021 100.88
60.820 -71.699 3.010 101.88
60.820 -69.854 2.966 7.43
60.820 -68.009 2.948 11.33
60.820 -66.165 2.949 0.00
60.820 -64.320 2.951 0.00
60.820 -62.475 2.951 0.00
60.820 -60.631 2.951 0.00
60.820 -58.786 2.951 0.00
60.820 -56.942 2.951 0.00
60.820 -55.097 2.951 0.00
60.820 -53.252 2.951 0.00
60.820 -51.408 2.951 0.00
60.820 -49.563 2.951 0.00
60.820 -47.718 2.951 0.00
61.720 -152.518 2.951 0.00
61.720 -150.620 2.951 0.00
61.720 -148.722 2.951 0.00
61.720 -146.824 2.949 0.79
61.720 -144.926 2.944 80.56
61.720 -143.027 2.943 35.05
61.720 -141.129 2.946 7.67
61.720 -139.231 2.948 12.00
61.720 -137.333 2.947 222.96
61.720 -135.434 2.940 183.17
61.720 -133.536 2.937 257.42
61.720 -131.638 2.936 328.70
61.720 -129.740 2.936 248.89
61.720 -127.842 2.936 120.90
61.720 -125.943 2.943 0.00
61.720 -124.045 2.950 0.00
61.720 -122.147 2.950 0.00
61.720 -120.249 2.948 0.00
61.720 -118.350 2.947 0.00
61.720 -116.452 2.947 0.00
61.720 -114.554 2.949 0.00
61.720 -112.656 2.954 0.00
61.720 -110.758 2.959 0.00
61.720 -108.859 2.963 0.00
61.720 -106.961 2.967 63.93
61.720 -105.063 2.970 214.80
61.720 -103.165 2.969 185.83
61.720 -101.266 2.967 4.00
61.720 -99.368 2.967 55.95
61.720 -97.470 2.965 101.92
61.720 -95.572 2.958 0.00
61.720 -93.674 2.945 0.00
61.720 -91.775 2.930 108.98
61.720 -89.877 2.951 0.00
61.720 -87.979 3.017 74.92
61.720 -86.081 3.071 242.79
61.720 -84.182 3.056 215.81
61.720 -82.284 3.001 0.00
61.720 -80.386 2.967 59.96
61.720 -78.488 2.958 107.57
61.720 -76.590 2.960 0.00
61.720 -74.691 2.981 0.00
61.720 -72.793 3.010 100.88
61.720 -70.895 2.989 35.08
61.720 -68.997 2.957 18.58
61.720 -67.098 2.948 0.00
61.720 -65.200 2.950 0.00
61.720 -63.302 2.951 0.00
61.720 -61.404 2.951 0.00
61.720 -59.505 2.951 0.00
61.720 -57.607 2.951 0.00
61.720 -55.709 2.951 0.00
61.720 -53.811 2.951 0.00
61.720 -51.913 2.951 0.00
61.720 -50.014 2.951 0.00
61.720 -48.116 2.951 0.00
61.720 -46.218 2.951 0.00
62.619 -154.123 2.951 0.00
62.619 -152.167 2.951 0.00
62.619 -150.212 2.951 0.00
62.619 -148.256 2.948 0.00
62.619 -146.301 2.940 1.15
62.619 -144.345 2.934 151.19
62.619 -142.390 2.935 10.99
62.619 -140.434 2.939 85.95
62.619 -138.479 2.944 610.83
62.619 -136.523 2.943 274.26
62.619 -134.567 2.943 0.00
62.619 -132.612 2.939 162.87
62.619 -130.656 2.933 262.59
62.619 -128.701 2.931 465.67
62.619 -126.745 2.942 241.97
62.619 -124.790 2.963 0.00
62.619 -122.834 2.967 0.00
62.619 -120.879 2.961 0.00
62.619 -118.923 2.955 75.02
62.619 -116.968 2.953 362.96
62.619 -115.012 2.957 326.22
62.619 -113.057 2.965 23.97
62.619 -111.101 2.971 143.85
62.619 -109.146 2.972 280.88
62.619 -107.190 2.967 164.85
62.619 -105.235 2.962 14.99
62.619 -103.279 2.957 0.00
62.619 -101.324 2.954 0.00
62.619 -99.368 2.957 0.00
62.619 -97.413 2.964 29.98
62.619 -95.457 2.968 130.89
62.619 -93.502 2.957 5.00
62.619 -91.546 2.947 69.99
62.619 -89.591 2.982 40.99
62.619 -87.635 3.061 145.86
62.619 -85.680 3.084 388.66
62.619 -83.724 3.027 6.00
62.619 -81.769 2.979 105.93
62.619 -79.813 2.958 53.60
62.619 -77.858 2.954 7.00
62.619 -75.902 2.958 0.00
62.619 -73.946 2.979 0.00
62.619 -71.991 3.000 101.88
62.619 -70.035 2.974 0.74
62.619 -68.080 2.952 17.84
62.619 -66.124 2.948 0.00
62.619 -64.169 2.950 0.00
62.619 -62.213 2.951 0.00
62.619 -60.258 2.951 0.00
62.619 -58.302 2.951 0.00
62.619 -56.347 2.951 0.00
62.619 -54.391 2.951 0.00
62.619 -52.436 2.951 0.00
62.619 -50.480 2.951 0.00
62.619 -48.525 2.951 0.00
62.619 -46.569 2.951 0.00
62.619 -44.614 2.951 0.00
63.518 -155.841 2.951 0.00
63.518 -153.824 2.951 0.00
63.518 -151.807 2.950 0.18
63.518 -149.790 2.944 11.00
63.518 -147.773 2.934 107.43
63.518 -145.757 2.927 229.22
63.518 -143.740 2.925 472.63
63.518 -141.723 2.935 424.91
63.518 -139.706 2.946 467.92
63.518 -137.689 2.948 170.23
63.518 -135.672 2.950 0.00
63.518 -133.655 2.948 0.00
63.518 -131.638 2.944 81.01
63.518 -129.622 2.943 47.00
63.518 -127.605 2.957 382.77
63.518 -125.588 2.996 423.90
63.518 -123.571 3.008 530.83
63.518 -121.554 3.000 550.85
63.518 -119.537 2.990 523.77
63.518 -117.520 2.983 314.75
63.518 -115.503 2.979 316.69
63.518 -113.486 2.974 311.70
63.518 -111.470 2.969 191.82
63.518 -109.453 2.967 0.00
63.518 -107.436 2.964 0.00
63.518 -105.419 2.960 0.00
63.518 -103.402 2.958 0.00
63.518 -101.385 2.957 0.00
63.518 -99.368 2.960 0.00
63.518 -97.351 2.969 80.93
63.518 -95.334 2.975 100.92
63.518 -93.318 2.975 226.82
63.518 -91.301 2.979 106.97
63.518 -89.284 3.024 110.98
63.518 -87.267 3.099 484.57
63.518 -85.250 3.065 119.91
63.518 -83.233 2.997 99.93
63.518 -81.216 2.957 0.30
63.518 -79.199 2.950 15.48
63.518 -77.182 2.950 0.00
63.518 -75.166 2.961 0.00
63.518 -73.149 2.988 50.94
63.518 -71.132 2.988 49.94
63.518 -69.115 2.962 13.95
63.518 -67.098 2.949 0.00
63.518 -65.081 2.949 0.00
63.518 -63.064 2.950 0.00
63.518 -61.047 2.951 0.00
63.518 -59.030 2.951 0.00
63.518 -57.014 2.951 0.00
63.518 -54.997 2.951 0.00
63.518 -52.980 2.951 0.00
63.518 -50.963 2.951 0.00
63.518 -48.946 2.951 0.00
63.518 -46.929 2.951 0.00
63.518 -44.912 2.951 0.00
63.518 -42.895 2.951 0.00
64.418 -157.686 2.951 0.00
64.418 -155.603 2.951 0.00
64.418 -153.520 2.949 0.00
64.418 -151.437 2.944 66.84
64.418 -149.355 2.941 45.17
64.418 -147.272 2.940 95.08
64.418 -145.189 2.938 259.08
64.418 -143.106 2.938 252.82
64.418 -141.023 2.943 115.33
64.418 -138.941 2.947 265.65
64.418 -136.858 2.951 89.98
64.418 -134.775 2.953 90.98
64.418 -132.692 2.951 91.98
64.418 -130.610 2.951 158.99
64.418 -128.527 2.963 390.16
64.418 -126.444 2.992 621.26
64.418 -124.361 3.019 531.77
64.418 -122.279 3.025 513.08
64.418 -120.196 3.015 352.77
64.418 -118.113 3.004 211.25
64.418 -116.030 2.991 113.91
64.418 -113.948 2.978 98.92
64.418 -111.865 2.969 98.92
64.418 -109.782 2.967 99.92
64.418 -107.699 2.965 100.92
64.418 -105.616 2.965 99.92
64.418 -103.534 2.967 101.92
64.418 -101.451 2.966 100.92
64.418 -99.368 2.965 100.92
64.418 -97.285 2.962 20.98
64.418 -95.203 2.962 0.00
64.418 -93.120 2.966 0.00
64.418 -91.037 2.986 81.93
64.418 -88.954 3.037 463.44
64.418 -86.872 3.074 412.66
64.418 -84.789 3.020 39.97
64.418 -82.706 2.965 0.00
64.418 -80.623 2.946 15.93
64.418 -78.541 2.945 0.00
64.418 -76.458 2.948 0.00
64.418 -74.375 2.968 0.00
64.418 -72.292 3.000 101.88
64.418 -70.210 2.982 0.00
64.418 -68.127 2.956 0.00
64.418 -66.044 2.949 0.00
64.418 -63.961 2.950 0.00
64.418 -61.878 2.950 0.00
64.418 -59.796 2.951 0.00
64.418 -57.713 2.951 0.00
64.418 -55.630 2.951 0.00
64.418 -53.547 2.951 0.00
64.418 -51.465 2.951 0.00
64.418 -49.382 2.951 0.00
64.418 -47.299 2.951 0.00
64.418 -45.216 2.951 0.00
64.418 -43.134 2.951 0.00
64.418 -41.051 2.951 0.00
65.317 -159.670 2.951 0.00
65.317 -157.516 2.951 0.00
65.317 -155.363 2.950 0.00
65.317 -153.209 2.949 0.00
65.317 -151.055 2.949 0.00
65.317 -148.902 2.950 2.50
65.317 -146.748 2.947 28.47
65.317 -144.595 2.942 134.07
65.317 -142.441 2.939 228.65
65.317 -140.287 2.942 161.14
65.317 -138.134 2.949 0.00
65.317 -135.980 2.952 0.00
65.317 -133.826 2.951 0.00
65.317 -131.673 2.949 11.00
65.317 -129.519 2.947 179.37
65.317 -127.365 2.955 126.04
65.317 -125.212 2.967 95.49
65.317 -123.058 2.977 104.84
65.317 -120.905 2.990 228.88
65.317 -118.751 2.996 291.80
65.317 -116.597 2.991 234.85
65.317 -114.444 2.978 98.97
65.317 -112.290 2.970 100.97
65.317 -110.136 2.966 5.98
65.317 -107.983 2.960 0.00
65.317 -105.829 2.958 0.00
65.317 -103.675 2.958 0.00
65.317 -101.522 2.957 0.00
65.317 -99.368 2.953 0.00
65.317 -97.215 2.950 0.00
65.317 -95.061 2.950 0.00
65.317 -92.907 2.952 19.98
65.317 -90.754 2.963 105.90
65.317 -88.600 2.987 122.53
65.317 -86.446 2.994 0.00
65.317 -84.293 2.966 0.00
65.317 -82.139 2.945 8.04
65.317 -79.985 2.946 7.74
65.317 -77.832 2.947 0.00
65.317 -75.678 2.951 0.00
65.317 -73.525 2.980 0.00
65.317 -71.371 3.016 101.88
65.317 -69.217 2.993 0.00
65.317 -67.064 2.969 0.00
65.317 -64.910 2.959 21.32
65.317 -62.756 2.953 0.00
65.317 -60.603 2.951 0.00
65.317 -58.449 2.950 0.00
65.317 -56.295 2.951 0.00
65.317 -54.142 2.951 0.00
65.317 -51.988 2.951 0.00
65.317 -49.835 2.951 0.00
65.317 -47.681 2.951 0.00
65.317 -45.527 2.951 0.00
65.317 -43.374 2.951 0.00
65.317 -41.220 2.951 0.00
65.317 -39.066 2.951 0.00
66.216 -161.810 2.951 0.00
66.216 -159.580 2.951 0.00
66.216 -157.350 2.951 0.00
66.216 -155.120 2.951 0.00
66.216 -152.890 2.951 0.00
66.216 -150.660 2.952 0.00
66.216 -148.430 2.951 0.00
66.216 -146.200 2.947 0.00
66.216 -143.970 2.942 159.86
66.216 -141.740 2.942 256.97
66.216 -139.510 2.948 1.14
66.216 -137.279 2.951 0.00
66.216 -135.049 2.951 0.90
66.216 -132.819 2.949 0.00
66.216 -130.589 2.946 13.75
66.216 -128.359 2.944 0.00
66.216 -126.129 2.945 4.66
66.216 -123.899 2.950 0.99
66.216 -121.669 2.960 5.23
66.216 -119.439 2.971 12.37
66.216 -117.209 2.983 57.95
66.216 -114.979 2.996 197.82
66.216 -112.749 2.999 197.82
66.216 -110.519 2.993 88.92
66.216 -108.288 2.984 0.00
66.216 -106.058 2.979 0.00
66.216 -103.828 2.974 0.00
66.216 -101.598 2.966 0.00
66.216 -99.368 2.958 0.00
66.216 -97.138 2.954 36.97
66.216 -94.908 2.953 106.90
66.216 -92.678 2.953 86.92
66.216 -90.448 2.952 0.00
66.216 -88.218 2.956 45.05
66.216 -85.988 2.956 0.00
66.216 -83.758 2.949 0.00
66.216 -81.528 2.953 16.08
66.216 -79.298 2.964 0.00
66.216 -77.067 2.967 0.00
66.216 -74.837 2.976 0.00
66.216 -72.607 3.007 0.00
66.216 -70.377 3.036 180.81
66.216 -68.147 3.010 89.92
66.216 -65.917 2.985 88.92
66.216 -63.687 2.967 20.98
66.216 -61.457 2.955 0.00
66.216 -59.227 2.951 0.00
66.216 -56.997 2.950 0.00
66.216 -54.767 2.951 0.00
66.216 -52.537 2.951 0.00
66.216 -50.307 2.951 0.00
66.216 -48.077 2.951 0.00
66.216 -45.846 2.951 0.00
66.216 -43.616 2.951 0.00
66.216 -41.386 2.951 0.00
66.216 -39.156 2.951 0.00
66.216 -36.926 2.951 0.00
67.116 -164.125 2.951 0.00
67.116 -161.812 2.951 0.00
67.116 -159.499 2.951 0.00
67.116 -157.186 2.951 0.00
67.116 -154.874 2.951 0.00
67.116 -152.561 2.951 0.00
67.116 -150.248 2.951 16.55
67.116 -147.935 2.950 45.89
67.116 -145.623 2.948 25.29
67.116 -143.310 2.948 0.00
67.116 -140.997 2.950 3.64
67.116 -138.685 2.951 4.78
67.116 -136.372 2.951 2.95
67.116 -134.059 2.951 1.74
67.116 -131.746 2.951 13.88
67.116 -129.434 2.950 0.00
67.116 -127.121 2.948 0.00
67.116 -124.808 2.947 0.35
67.116 -122.495 2.948 0.00
67.116 -120.183 2.952 0.12
67.116 -117.870 2.960 12.49
67.116 -115.557 2.972 5.83
67.116 -113.245 2.983 0.00
67.116 -110.932 2.997 108.90
67.116 -108.619 3.010 200.82
67.116 -106.306 3.013 200.82
67.116 -103.994 3.010 196.83
67.116 -101.681 3.001 170.84
67.116 -99.368 2.989 106.90
67.116 -97.055 2.984 69.93
67.116 -94.743 2.981 0.00
67.116 -92.430 2.979 0.00
67.116 -90.117 2.975 37.54
67.116 -87.805 2.971 7.51
67.116 -85.492 2.969 0.00
67.116 -83.179 2.971 16.08
67.116 -80.866 2.980 17.98
67.116 -78.554 2.990 95.91
67.116 -76.241 2.993 93.91
67.116 -73.928 3.007 93.91
67.116 -71.615 3.032 160.83
67.116 -69.303 3.016 44.95
67.116 -66.990 2.981 0.00
67.116 -64.677 2.964 0.00
67.116 -62.365 2.956 0.00
67.116 -60.052 2.951 0.00
67.116 -57.739 2.950 0.00
67.116 -55.426 2.950 0.00
67.116 -53.114 2.951 0.00
67.116 -50.801 2.951 0.00
67.116 -48.488 2.951 0.00
67.116 -46.176 2.951 0.00
67.116 -43.863 2.951 0.00
67.116 -41.550 2.951 0.00
67.116 -39.237 2.951 0.00
67.116 -36.925 2.951 0.00
67.116 -34.612 2.951 0.00
68.015 -166.634 2.951 0.00
68.015 -164.232 2.951 0.00
68.015 -161.829 2.951 0.00
68.015 -159.427 2.951 0.00
68.015 -157.025 2.951 0.00
68.015 -154.622 2.951 0.00
68.015 -152.220 2.951 0.00
68.015 -149.818 2.951 0.00
68.015 -147.415 2.951 0.00
68.015 -145.013 2.950 0.00
68.015 -142.611 2.951 0.00
68.015 -140.208 2.951 0.00
68.015 -137.806 2.951 2.56
68.015 -135.404 2.951 5.73
68.015 -133.001 2.953 64.28
68.015 -130.599 2.954 56.95
68.015 -128.196 2.954 0.00
68.015 -125.794 2.953 0.00
68.015 -123.392 2.952 0.00
68.015 -120.989 2.951 0.00
68.015 -118.587 2.951 0.00
68.015 -116.185 2.954 5.45
68.015 -113.782 2.959 15.99
68.015 -111.380 2.969 104.90
68.015 -108.978 2.979 105.90
68.015 -106.575 2.985 106.90
68.015 -104.173 2.990 110.90
68.015 -101.771 3.000 137.88
68.015 -99.368 3.011 203.82
68.015 -96.966 3.015 201.82
68.015 -94.563 3.015 200.83
68.015 -92.161 3.014 200.83
68.015 -89.759 3.009 180.92
68.015 -87.356 3.002 98.91
68.015 -84.954 2.999 106.10
68.015 -82.552 2.996 105.80
68.015 -80.149 2.988 77.93
68.015 -77.747 2.974 0.00
68.015 -75.345 2.972 0.00
68.015 -72.942 2.991 0.00
68.015 -70.540 3.016 101.88
68.015 -68.138 2.986 0.00
68.015 -65.735 2.955 0.00
68.015 -63.333 2.947 0.00
68.015 -60.931 2.949 0.00
68.015 -58.528 2.950 0.00
68.015 -56.126 2.950 0.00
68.015 -53.723 2.951 0.00
68.015 -51.321 2.951 0.00
68.015 -48.919 2.951 0.00
68.015 -46.516 2.951 0.00
68.015 -44.114 2.951 0.00
68.015 -41.712 2.951 0.00
68.015 -39.309 2.951 0.00
68.015 -36.907 2.951 0.00
68.015 -34.505 2.951 0.00
68.015 -32.102 2.951 0.00
68.915 -169.364 2.951 0.00
68.915 -166.864 2.951 0.00
68.915 -164.364 2.951 0.00
68.915 -161.865 2.951 0.00
68.915 -159.365 2.951 0.00
68.915 -156.865 2.951 0.00
68.915 -154.365 2.951 0.00
68.915 -151.865 2.951 0.00
68.915 -149.365 2.951 0.00
68.915 -146.865 2.951 0.00
68.915 -144.366 2.951 0.00
68.915 -141.866 2.951 0.00
68.915 -139.366 2.951 0.00
68.915 -136.866 2.951 0.00
68.915 -134.366 2.953 0.00
68.915 -131.866 2.955 36.97
68.915 -129.366 2.956 95.91
68.915 -126.867 2.957 96.91
68.915 -124.367 2.957 98.91
68.915 -121.867 2.956 99.91
68.915 -119.367 2.955 101.91
68.915 -116.867 2.954 102.90
68.915 -114.367 2.953 87.92
68.915 -111.867 2.953 0.00
68.915 -109.368 2.954 0.00
68.915 -106.868 2.954 0.00
68.915 -104.368 2.957 0.00
68.915 -101.868 2.965 0.00
68.915 -99.368 2.973 0.00
68.915 -96.868 2.977 0.00
68.915 -94.368 2.978 0.00
68.915 -91.869 2.978 2.65
68.915 -89.369 2.977 42.84
68.915 -86.869 2.973 0.60
68.915 -84.369 2.972 15.78
68.915 -81.869 2.969 0.00
68.915 -79.369 2.962 0.00
68.915 -76.870 2.952 0.00
68.915 -74.370 2.952 0.00
68.915 -71.870 2.976 0.00
68.915 -69.370 3.004 101.88
68.915 -66.870 2.974 0.00
68.915 -64.370 2.949 0.00
68.915 -61.870 2.946 0.00
68.915 -59.371 2.949 0.00
68.915 -56.871 2.951 0.00
68.915 -54.371 2.951 0.00
68.915 -51.871 2.951 0.00
68.915 -49.371 2.951 0.00
68.915 -46.871 2.951 0.00
68.915 -44.371 2.951 0.00
68.915 -41.872 2.951 0.00
68.915 -39.372 2.951 0.00
68.915 -36.872 2.951 0.00
68.915 -34.372 2.951 0.00
68.915 -31.872 2.951 0.00
68.915 -29.372 2.951 0.00
69.814 -172.344 2.951 0.00
69.814 -169.737 2.951 0.00
69.814 -167.131 2.951 0.00
69.814 -164.525 2.951 0.00
69.814 -161.919 2.951 0.00
69.814 -159.312 2.951 0.00
69.814 -156.706 2.951 0.00
69.814 -154.100 2.951 0.00
69.814 -151.494 2.951 0.00
69.814 -148.887 2.951 0.00
69.814 -146.281 2.951 0.00
69.814 -143.675 2.951 0.00
69.814 -141.069 2.951 0.00
69.814 -138.462 2.951 0.00
69.814 -135.856 2.951 0.00
69.814 -133.250 2.952 0.00
69.814 -130.643 2.953 0.00
69.814 -128.037 2.953 0.00
69.814 -125.431 2.954 0.00
69.814 -122.825 2.954 0.00
69.814 -120.218 2.954 0.00
69.814 -117.612 2.953 0.00
69.814 -115.006 2.951 0.00
69.814 -112.400 2.950 0.00
69.814 -109.793 2.949 0.00
69.814 -107.187 2.947 0.00
69.814 -104.581 2.947 0.00
69.814 -101.974 2.949 0.00
69.814 -99.368 2.950 0.00
69.814 -96.762 2.951 0.00
69.814 -94.156 2.952 0.00
69.814 -91.549 2.954 45.05
69.814 -88.943 2.953 0.00
69.814 -86.337 2.952 16.37
69.814 -83.731 2.951 0.00
69.814 -81.124 2.951 0.00
69.814 -78.518 2.950 0.00
69.814 -75.912 2.947 0.00
69.814 -73.306 2.950 0.00
69.814 -70.699 2.970 0.00
69.814 -68.093 2.992 102.88
69.814 -65.487 2.968 0.00
69.814 -62.880 2.951 0.00
69.814 -60.274 2.949 0.00
69.814 -57.668 2.951 0.00
69.814 -55.062 2.951 0.00
69.814 -52.455 2.951 0.00
69.814 -49.849 2.951 0.00
69.814 -47.243 2.951 0.00
69.814 -44.637 2.951 0.00
69.814 -42.030 2.951 0.00
69.814 -39.424 2.951 0.00
69.814 -36.818 2.951 0.00
69.814 -34.211 2.951 0.00
69.814 -31.605 2.951 0.00
69.814 -28.999 2.951 0.00
69.814 -26.393 2.951 0.00
70.713 -175.608 2.951 0.00
70.713 -172.885 2.951 0.00
70.713 -170.162 2.951 0.00
70.713 -167.439 2.951 0.00
70.713 -164.717 2.951 0.00
70.713 -161.994 2.951 0.00
70.713 -159.271 2.951 0.00
70.713 -156.548 2.951 0.00
70.713 -153.825 2.951 0.00
70.713 -151.102 2.951 0.00
70.713 -148.379 2.951 0.00
70.713 -145.657 2.951 0.00
70.713 -142.934 2.951 0.00
70.713 -140.211 2.951 0.00
70.713 -137.488 2.950 0.00
70.713 -134.765 2.951 0.00
70.713 -132.042 2.951 0.00
70.713 -129.320 2.951 0.00
70.713 -126.597 2.951 0.00
70.713 -123.874 2.951 0.00
70.713 -121.151 2.951 0.00
70.713 -118.428 2.951 0.00
70.713 -115.705 2.951 0.00
70.713 -112.982 2.950 0.00
70.713 -110.260 2.950 0.00
70.713 -107.537 2.950 0.00
70.713 -104.814 2.950 0.00
70.713 -102.091 2.949 0.00
70.713 -99.368 2.948 0.00
70.713 -96.645 2.948 0.00
70.713 -93.923 2.950 0.00
70.713 -91.200 2.953 45.49
70.713 -88.477 2.952 9.68
70.713 -85.754 2.950 7.00
70.713 -83.031 2.949 0.00
70.713 -80.308 2.949 0.00
70.713 -77.585 2.949 0.00
70.713 -74.863 2.949 0.00
70.713 -72.140 2.952 0.00
70.713 -69.417 2.962 22.29
70.713 -66.694 2.968 1.00
70.713 -63.971 2.957 0.00
70.713 -61.248 2.949 0.00
70.713 -58.525 2.950 0.00
70.713 -55.803 2.951 0.00
70.713 -53.080 2.951 0.00
70.713 -50.357 2.951 0.00
70.713 -47.634 2.951 0.00
70.713 -44.911 2.951 0.00
70.713 -42.188 2.951 0.00
70.713 -39.466 2.951 0.00
70.713 -36.743 2.951 0.00
70.713 -34.020 2.951 0.00
70.713 -31.297 2.951 0.00
70.713 -28.574 2.951 0.00
70.713 -25.851 2.951 0.00
70.713 -23.128 2.951 0.00
71.613 -179.198 2.951 0.00
71.613 -176.347 2.951 0.00
71.613 -173.496 2.951 0.00
71.613 -170.645 2.951 0.00
71.613 -167.794 2.951 0.00
71.613 -164.943 2.951 0.00
71.613 -162.092 2.951 0.00
71.613 -159.241 2.951 0.00
71.613 -156.390 2.951 0.00
71.613 -153.539 2.951 0.00
71.613 -150.688 2.951 0.00
71.613 -147.837 2.951 0.00
71.613 -144.985 2.951 0.00
71.613 -142.134 2.951 0.00
71.613 -139.283 2.951 0.00
71.613 -136.432 2.951 0.00
71.613 -133.581 2.950 0.00
71.613 -130.730 2.950 0.00
71.613 -127.879 2.950 0.00
71.613 -125.028 2.950 0.00
71.613 -122.177 2.950 0.00
71.613 -119.326 2.950 0.00
71.613 -116.475 2.951 0.00
71.613 -113.624 2.951 0.00
71.613 -110.773 2.951 0.00
71.613 -107.921 2.951 0.00
71.613 -105.070 2.951 0.00
71.613 -102.219 2.950 0.00
71.613 -99.368 2.950 0.00
71.613 -96.517 2.951 0.00
71.613 -93.666 2.954 14.13
71.613 -90.815 2.955 33.59
71.613 -87.964 2.953 14.44
71.613 -85.113 2.951 0.00
71.613 -82.262 2.950 0.00
71.613 -79.411 2.950 0.00
71.613 -76.560 2.951 0.00
71.613 -73.708 2.950 0.00
71.613 -70.857 2.951 0.00
71.613 -68.006 2.953 0.00
71.613 -65.155 2.954 0.00
71.613 -62.304 2.950 0.00
71.613 -59.453 2.949 0.00
71.613 -56.602 2.950 0.00
71.613 -53.751 2.951 0.00
71.613 -50.900 2.951 0.00
71.613 -48.049 2.951 0.00
71.613 -45.198 2.951 0.00
71.613 -42.347 2.951 0.00
71.613 -39.496 2.951 0.00
71.613 -36.644 2.951 0.00
71.613 -33.793 2.951 0.00
71.613 -30.942 2.951 0.00
71.613 -28.091 2.951 0.00
71.613 -25.240 2.951 0.00
71.613 -22.389 2.951 0.00
71.613 -19.538 2.951 0.00
72.512 -177.180 2.951 0.00
72.512 -174.187 2.951 0.00
72.512 -171.194 2.951 0.00
72.512 -168.202 2.951 0.00
72.512 -165.209 2.951 0.00
72.512 -162.216 2.951 0.00
72.512 -159.223 2.951 0.00
72.512 -156.231 2.951 0.00
72.512 -153.238 2.951 0.00
72.512 -150.245 2.951 0.00
72.512 -147.252 2.951 0.00
72.512 -144.260 2.951 0.00
72.512 -141.267 2.951 0.00
72.512 -138.274 2.951 0.00
72.512 -135.281 2.951 0.00
72.512 -132.289 2.951 0.00
72.512 -129.296 2.951 0.00
72.512 -126.303 2.951 0.00
72.512 -123.310 2.951 0.00
72.512 -120.318 2.951 0.00
72.512 -117.325 2.951 0.00
72.512 -114.332 2.951 0.00
72.512 -111.339 2.951 0.00
72.512 -108.346 2.951 0.00
72.512 -105.354 2.951 0.00
72.512 -102.361 2.951 0.00
72.512 -99.368 2.951 0.00
72.512 -96.375 2.953 0.00
72.512 -93.383 2.956 45.49
72.512 -90.390 2.955 17.12
72.512 -87.397 2.952 0.00
72.512 -84.404 2.951 0.00
72.512 -81.412 2.951 0.00
72.512 -78.419 2.951 0.00
72.512 -75.426 2.951 0.00
72.512 -72.433 2.951 0.00
72.512 -69.441 2.950 0.00
72.512 -66.448 2.950 0.00
72.512 -63.455 2.950 0.00
72.512 -60.462 2.950 0.00
72.512 -57.470 2.950 0.00
72.512 -54.477 2.951 0.00
72.512 -51.484 2.951 0.00
72.512 -48.491 2.951 0.00
72.512 -45.499 2.951 0.00
72.512 -42.506 2.951 0.00
72.512 -39.513 2.951 0.00
72.512 -36.520 2.951 0.00
72.512 -33.527 2.951 0.00
72.512 -30.535 2.951 0.00
72.512 -27.542 2.951 0.00
72.512 -24.549 2.951 0.00
72.512 -21.556 2.951 0.00
72.512 -18.564 2.951 0.00
72.512 -15.571 2.951 0.00
73.411 -178.120 2.951 0.00
73.411 -174.970 2.951 0.00
73.411 -171.820 2.951 0.00
73.411 -168.670 2.951 0.00
73.411 -165.520 2.951 0.00
73.411 -162.370 2.951 0.00
73.411 -159.220 2.951 0.00
73.411 -156.070 2.951 0.00
73.411 -152.919 2.951 0.00
73.411 -149.769 2.951 0.00
73.411 -146.619 2.951 0.00
73.411 -143.469 2.951 0.00
73.411 -140.319 2.951 0.00
73.411 -137.169 2.951 0.00
73.411 -134.019 2.951 0.00
73.411 -130.869 2.951 0.00
73.411 -127.719 2.951 0.00
73.411 -124.569 2.951 0.00
73.411 -121.419 2.951 0.00
73.411 -118.269 2.951 0.00
73.411 -115.119 2.951 0.00
73.411 -111.969 2.951 0.00
73.411 -108.818 2.951 0.00
73.411 -105.668 2.951 0.00
73.411 -102.518 2.951 0.00
73.411 -99.368 2.951 0.00
73.411 -96.218 2.953 0.00
73.411 -93.068 2.956 58.44
73.411 -89.918 2.954 4.76
73.411 -86.768 2.951 0.00
73.411 -83.618 2.950 0.00
73.411 -80.468 2.951 0.00
73.411 -77.318 2.951 0.00
73.411 -74.168 2.951 0.00
73.411 -71.018 2.951 0.00
73.411 -67.867 2.951 0.00
73.411 -64.717 2.950 0.00
73.411 -61.567 2.950 0.00
73.411 -58.417 2.950 0.00
73.411 -55.267 2.951 0.00
73.411 -52.117 2.951 0.00
73.411 -48.967 2.951 0.00
73.411 -45.817 2.951 0.00
73.411 -42.667 2.951 0.00
73.411 -39.517 2.951 0.00
73.411 -36.367 2.951 0.00
73.411 -33.217 2.951 0.00
73.411 -30.067 2.951 0.00
73.411 -26.916 2.951 0.00
73.411 -23.766 2.951 0.00
73.411 -20.616 2.951 0.00
73.411 -17.466 2.951 0.00
73.411 -14.316 2.951 0.00
73.411 -11.166 2.951 0.00
74.311 -179.185 2.951 0.00
74.311 -175.860 2.951 0.00
74.311 -172.534 2.951 0.00
74.311 -169.208 2.951 0.00
74.311 -165.882 2.951 0.00
74.311 -162.557 2.951 0.00
74.311 -159.231 2.951 0.00
74.311 -155.905 2.951 0.00
74.311 -152.580 2.951 0.00
74.311 -149.254 2.951 0.00
74.311 -145.928 2.951 0.00
74.311 -142.602 2.951 0.00
74.311 -139.277 2.951 0.00
74.311 -135.951 2.951 0.00
74.311 -132.625 2.951 0.00
74.311 -129.300 2.951 0.00
74.311 -125.974 2.951 0.00
74.311 -122.648 2.951 0.00
74.311 -119.322 2.951 0.00
74.311 -115.997 2.951 0.00
74.311 -112.671 2.951 0.00
74.311 -109.345 2.951 0.00
74.311 -106.020 2.951 0.00
74.311 -102.694 2.951 0.00
74.311 -99.368 2.951 0.00
74.311 -96.042 2.954 27.57
74.311 -92.717 2.955 30.75
74.311 -89.391 2.952 0.00
74.311 -86.065 2.951 0.00
74.311 -82.740 2.950 0.00
74.311 -79.414 2.951 0.00
74.311 -76.088 2.951 0.00
74.311 -72.763 2.951 0.00
74.311 -69.437 2.951 0.00
74.311 -66.111 2.951 0.00
74.311 -62.785 2.951 0.00
74.311 -59.460 2.951 0.00
74.311 -56.134 2.951 0.00
74.311 -52.808 2.951 0.00
74.311 -49.483 2.951 0.00
74.311 -46.157 2.951 0.00
74.311 -42.831 2.951 0.00
74.311 -39.505 2.951 0.00
74.311 -36.180 2.951 0.00
74.311 -32.854 2.951 0.00
74.311 -29.528 2.951 0.00
74.311 -26.203 2.951 0.00
74.311 -22.877 2.951 0.00
74.311 -19.551 2.951 0.00
74.311 -16.225 2.951 0.00
74.311 -12.900 2.951 0.00
74.311 -9.574 2.951 0.00
74.311 -6.248 2.951 0.00
75.210 -176.874 2.951 0.00
75.210 -173.351 2.951 0.00
75.210 -169.828 2.951 0.00
75.210 -166.305 2.951 0.00
75.210 -162.782 2.951 0.00
75.210 -159.259 2.951 0.00
75.210 -155.736 2.951 0.00
75.210 -152.213 2.951 0.00
75.210 -148.690 2.951 0.00
75.210 -145.167 2.951 0.00
75.210 -141.644 2.951 0.00
75.210 -138.121 2.951 0.00
75.210 -134.598 2.951 0.00
75.210 -131.075 2.951 0.00
75.210 -127.552 2.951 0.00
75.210 -124.029 2.951 0.00
75.210 -120.506 2.951 0.00
75.210 -116.983 2.951 0.00
75.210 -113.460 2.951 0.00
75.210 -109.937 2.951 0.00
75.210 -106.414 2.951 0.00
75.210 -102.891 2.951 0.00
75.210 -99.368 2.951 0.00
75.210 -95.845 2.952 0.00
75.210 -92.322 2.952 0.00
75.210 -88.799 2.951 0.00
75.210 -85.276 2.950 0.00
75.210 -81.753 2.951 0.00
75.210 -78.230 2.951 0.00
75.210 -74.707 2.951 0.00
75.210 -71.184 2.951 0.00
75.210 -67.661 2.951 0.00
75.210 -64.138 2.951 0.00
75.210 -60.615 2.951 0.00
75.210 -57.092 2.951 0.00
75.210 -53.569 2.951 0.00
75.210 -50.046 2.951 0.00
75.210 -46.523 2.951 0.00
75.210 -43.000 2.951 0.00
75.210 -39.477 2.951 0.00
75.210 -35.954 2.951 0.00
75.210 -32.431 2.951 0.00
75.210 -28.908 2.951 0.00
75.210 -25.385 2.951 0.00
75.210 -21.862 2.951 0.00
75.210 -18.339 2.951 0.00
75.210 -14.816 2.951 0.00
75.210 -11.293 2.951 0.00
75.210 -7.770 2.951 0.00
75.210 -4.247 2.951 0.00
75.210 -0.724 2.951 0.00
76.109 -178.038 2.951 0.00
76.109 -174.292 2.951 0.00
76.109 -170.545 2.951 0.00
76.109 -166.799 2.951 0.00
76.109 -163.053 2.951 0.00
76.109 -159.307 2.951 0.00
76.109 -155.561 2.951 0.00
76.109 -151.815 2.951 0.00
76.109 -148.068 2.951 0.00
76.109 -144.322 2.951 0.00
76.109 -140.576 2.951 0.00
76.109 -136.830 2.951 0.00
76.109 -133.084 2.951 0.00
76.109 -129.338 2.951 0.00
76.109 -125.591 2.951 0.00
76.109 -121.845 2.951 0.00
76.109 -118.099 2.951 0.00
76.109 -114.353 2.951 0.00
76.109 -110.607 2.951 0.00
76.109 -106.861 2.951 0.00
76.109 -103.114 2.951 0.00
76.109 -99.368 2.951 0.00
76.109 -95.622 2.951 0.00
76.109 -91.876 2.951 0.00
76.109 -88.130 2.951 0.00
76.109 -84.384 2.951 0.00
76.109 -80.637 2.951 0.00
76.109 -76.891 2.951 0.00
76.109 -73.145 2.951 0.00
76.109 -69.399 2.951 0.00
76.109 -65.653 2.951 0.00
76.109 -61.906 2.951 0.00
76.109 -58.160 2.951 0.00
76.109 -54.414 2.951 0.00
76.109 -50.668 2.951 0.00
76.109 -46.922 2.951 0.00
76.109 -43.176 2.951 0.00
76.109 -39.429 2.951 0.00
76.109 -35.683 2.951 0.00
76.109 -31.937 2.951 0.00
76.109 -28.191 2.951 0.00
76.109 -24.445 2.951 0.00
76.109 -20.699 2.951 0.00
76.109 -16.952 2.951 0.00
76.109 -13.206 2.951 0.00
76.109 -9.460 2.951 0.00
76.109 -5.714 2.951 0.00
76.109 -1.968 2.951 0.00
76.109 1.778 2.951 0.00
76.109 5.525 2.951 0.00
77.009 -179.380 2.951 0.00
77.009 -175.379 2.951 0.00
77.009 -171.379 2.951 0.00
77.009 -167.378 2.951 0.00
77.009 -163.377 2.951 0.00
77.009 -159.377 2.951 0.00
77.009 -155.376 2.951 0.00
77.009 -151.376 2.951 0.00
77.009 -147.375 2.951 0.00
77.009 -143.375 2.951 0.00
77.009 -139.374 2.951 0.00
77.009 -135.373 2.951 0.00
77.009 -131.373 2.951 0.00
