33.839 -72.299 3.091 0.00
33.839 -71.216 3.087 0.00
33.839 -70.133 3.092 1.22
33.839 -69.050 3.093 2.35
34.739 -130.012 3.092 1.25
34.739 -128.918 3.092 0.00
34.739 -127.823 3.092 0.00
34.739 -126.729 3.092 0.00
34.739 -125.635 3.092 0.00
34.739 -124.540 3.096 0.00
34.739 -123.446 3.103 0.00
34.739 -122.351 3.075 0.00
34.739 -121.257 3.022 0.00
34.739 -120.162 3.020 829.62
34.739 -119.068 3.016 7714.14
34.739 -117.974 2.931 30670.35
34.739 -116.879 3.069 46820.73
34.739 -115.785 3.184 65442.39
34.739 -114.690 3.287 76582.15
34.739 -113.596 3.352 67503.22
34.739 -112.501 3.166 65813.27
34.739 -111.407 3.106 76471.08
34.739 -110.313 3.080 75652.14
34.739 -109.218 3.000 67141.91
34.739 -108.124 2.923 63780.75
34.739 -107.029 2.909 60777.10
34.739 -105.935 3.067 53119.23
34.739 -104.840 3.056 50764.25
34.739 -103.746 3.001 66528.62
34.739 -102.651 2.980 81523.21
34.739 -101.557 2.957 81732.70
34.739 -100.463 3.024 87093.61
34.739 -99.368 3.013 101515.45
34.739 -98.274 2.955 106589.78
34.739 -97.179 3.020 99593.05
34.739 -96.085 3.012 105019.08
34.739 -94.990 2.911 111311.10
34.739 -93.896 2.943 90758.90
34.739 -92.802 3.085 79398.16
34.739 -91.707 3.151 67686.79
34.739 -90.613 3.172 68533.48
34.739 -89.518 3.244 62346.93
34.739 -88.424 3.227 69455.34
34.739 -87.329 3.214 42575.39
34.739 -86.235 3.183 47825.77
34.739 -85.141 3.147 52632.70
34.739 -84.046 3.135 50303.11
34.739 -82.952 3.112 51420.36
34.739 -81.857 3.134 44852.65
34.739 -80.763 3.137 41731.51
34.739 -79.668 3.213 33622.75
34.739 -78.574 3.136 22244.63
34.739 -77.480 3.107 8113.84
34.739 -76.385 3.132 405.77
34.739 -75.291 3.252 223.74
34.739 -74.196 3.227 70.92
34.739 -73.102 3.126 17.16
34.739 -72.007 3.087 0.00
34.739 -70.913 3.088 0.00
34.739 -69.818 3.092 0.00
34.739 -68.724 3.092 0.00
35.638 -130.353 3.092 3.40
35.638 -129.247 3.092 1.56
35.638 -128.140 3.092 0.00
35.638 -127.034 3.092 0.00
35.638 -125.927 3.094 0.00
35.638 -124.820 3.098 0.00
35.638 -123.714 3.083 0.00
35.638 -122.607 3.018 0.00
35.638 -121.500 2.971 1410.93
35.638 -120.394 2.996 11391.12
35.638 -119.287 3.072 19428.48
35.638 -118.181 3.054 26617.26
35.638 -117.074 3.070 39898.39
35.638 -115.967 3.188 62962.53
35.638 -114.861 3.149 66484.88
35.638 -113.754 3.194 76854.31
35.638 -112.648 3.132 74304.88
35.638 -111.541 3.066 76368.23
35.638 -110.434 3.055 68286.35
35.638 -109.328 3.101 60118.32
35.638 -108.221 3.038 60510.78
35.638 -107.115 2.950 62206.88
35.638 -106.008 2.975 53827.04
35.638 -104.901 2.992 53009.00
35.638 -103.795 3.031 67447.85
35.638 -102.688 3.033 85409.14
35.638 -101.581 3.009 91209.71
35.638 -100.475 2.963 106213.56
35.638 -99.368 2.927 117410.35
35.638 -98.262 2.954 128650.07
35.638 -97.155 2.929 194787.94
35.638 -96.048 3.028 154315.05
35.638 -94.942 3.105 111607.65
35.638 -93.835 3.107 97827.05
35.638 -92.729 3.135 124945.73
35.638 -91.622 3.194 93944.70
35.638 -90.515 3.180 94626.18
35.638 -89.409 3.242 86319.77
35.638 -88.302 3.230 71299.77
35.638 -87.195 3.180 47793.49
35.638 -86.089 3.186 52434.20
35.638 -84.982 3.170 52441.27
35.638 -83.876 3.101 55315.87
35.638 -82.769 3.037 57797.68
35.638 -81.662 3.081 49608.61
35.638 -80.556 3.140 55873.27
35.638 -79.449 3.235 36546.46
35.638 -78.343 3.137 38642.62
35.638 -77.236 3.095 14037.06
35.638 -76.129 3.124 9344.62
35.638 -75.023 3.258 199.76
35.638 -73.916 3.189 4.76
35.638 -72.809 3.101 12.23
35.638 -71.703 3.082 0.00
35.638 -70.596 3.090 0.00
35.638 -69.490 3.093 0.00
35.638 -68.383 3.092 0.00
36.538 -130.710 3.092 0.00
36.538 -129.591 3.092 0.79
36.538 -128.471 3.092 2.35
36.538 -127.352 3.093 2.06
36.538 -126.233 3.094 0.00
36.538 -125.113 3.091 0.00
36.538 -123.994 3.067 0.00
36.538 -122.875 3.034 2.30
36.538 -121.755 3.066 2758.39
36.538 -120.636 3.209 44690.09
36.538 -119.516 3.299 53642.62
36.538 -118.397 3.188 56027.03
36.538 -117.278 3.061 63706.03
36.538 -116.158 3.114 76776.08
36.538 -115.039 3.077 79114.20
36.538 -113.920 3.112 92223.66
36.538 -112.800 3.186 80854.77
36.538 -111.681 3.136 69048.38
36.538 -110.562 3.084 61310.16
36.538 -109.442 3.156 55074.49
36.538 -108.323 3.137 57256.05
36.538 -107.204 3.083 59848.18
36.538 -106.084 3.013 58175.07
36.538 -104.965 3.016 61823.54
36.538 -103.846 3.052 78721.69
36.538 -102.726 3.004 97644.31
36.538 -101.607 2.952 108122.84
36.538 -100.488 2.948 111287.84
36.538 -99.368 2.965 123436.17
36.538 -98.249 3.016 126321.43
36.538 -97.130 3.003 127652.80
36.538 -96.010 3.046 149047.12
36.538 -94.891 3.135 136718.88
36.538 -93.771 3.084 134590.34
36.538 -92.652 3.101 124050.60
36.538 -91.533 3.204 102756.79
36.538 -90.413 3.206 110333.45
36.538 -89.294 3.271 101584.80
36.538 -88.175 3.245 75259.27
36.538 -87.055 3.143 54970.42
36.538 -85.936 3.138 49655.11
36.538 -84.817 3.099 57866.55
36.538 -83.697 3.127 61500.18
36.538 -82.578 3.122 58901.43
36.538 -81.459 3.135 58000.16
36.538 -80.339 3.145 47958.36
36.538 -79.220 3.223 46127.59
36.538 -78.101 3.167 35064.72
36.538 -76.981 3.080 22446.89
36.538 -75.862 3.148 1699.45
36.538 -74.743 3.267 207.85
36.538 -73.623 3.176 17.16
36.538 -72.504 3.094 0.00
36.538 -71.384 3.083 0.00
36.538 -70.265 3.091 0.00
36.538 -69.146 3.093 0.00
36.538 -68.026 3.092 0.00
37.437 -131.083 3.092 0.00
37.437 -129.950 3.092 0.00
37.437 -128.817 3.092 0.00
37.437 -127.685 3.093 0.26
37.437 -126.552 3.089 2.35
37.437 -125.419 3.081 2.35
37.437 -124.287 3.090 1.05
37.437 -123.154 3.121 6.69
37.437 -122.021 3.222 19623.49
37.437 -120.889 3.467 34581.12
37.437 -119.756 3.273 27737.82
37.437 -118.623 2.991 52375.13
37.437 -117.491 2.868 56931.42
37.437 -116.358 2.978 74120.88
37.437 -115.225 3.085 81656.48
37.437 -114.093 3.023 86890.15
37.437 -112.960 2.942 86134.89
37.437 -111.827 2.961 68141.01
37.437 -110.695 3.084 66790.55
37.437 -109.562 3.115 58323.90
37.437 -108.429 3.037 58272.18
37.437 -107.297 2.935 63019.58
37.437 -106.164 2.891 73378.48
37.437 -105.032 3.009 99987.82
37.437 -103.899 3.062 88952.37
37.437 -102.766 3.021 106375.59
37.437 -101.634 2.950 103451.84
37.437 -100.501 2.992 108374.68
37.437 -99.368 3.065 114403.74
37.437 -98.236 3.051 117959.84
37.437 -97.103 3.049 111597.87
37.437 -95.970 3.038 121381.40
37.437 -94.838 3.048 137355.53
37.437 -93.705 3.090 131482.12
37.437 -92.572 3.092 122956.70
37.437 -91.440 3.162 110722.57
37.437 -90.307 3.153 111850.01
37.437 -89.174 3.213 93635.30
37.437 -88.042 3.197 72526.36
37.437 -86.909 3.090 56375.68
37.437 -85.776 3.101 53118.58
37.437 -84.644 3.087 57915.66
37.437 -83.511 3.135 63359.75
37.437 -82.378 3.079 68041.07
37.437 -81.246 3.156 74983.89
37.437 -80.113 3.201 61995.33
37.437 -78.980 3.245 54754.43
37.437 -77.848 3.171 37650.94
37.437 -76.715 3.095 23235.14
37.437 -75.582 3.158 2374.24
37.437 -74.450 3.254 233.95
37.437 -73.317 3.161 17.16
37.437 -72.184 3.093 0.00
37.437 -71.052 3.087 0.00
37.437 -69.919 3.092 0.00
37.437 -68.786 3.092 0.00
37.437 -67.654 3.092 0.00
38.336 -131.472 3.092 0.00
38.336 -130.326 3.092 0.00
38.336 -129.179 3.092 0.00
38.336 -128.033 3.091 0.00
38.336 -126.886 3.090 0.00
38.336 -125.740 3.109 0.00
38.336 -124.593 3.147 9.31
38.336 -123.446 3.154 216.23
38.336 -122.300 3.242 11884.27
38.336 -121.153 3.517 29776.87
38.336 -120.007 3.333 30251.19
38.336 -118.860 3.006 55111.55
38.336 -117.713 2.801 65142.80
38.336 -116.567 2.871 70117.12
38.336 -115.420 3.044 70760.41
38.336 -114.274 2.978 83316.71
38.336 -113.127 2.947 86722.20
38.336 -111.981 2.893 81273.01
38.336 -110.834 3.024 70122.48
38.336 -109.687 3.178 58510.45
38.336 -108.541 3.000 58252.11
38.336 -107.394 2.888 65061.17
38.336 -106.248 2.921 65854.72
38.336 -105.101 3.004 47904.62
38.336 -103.955 3.036 47343.02
38.336 -102.808 3.067 66744.95
38.336 -101.661 3.046 69283.84
38.336 -100.515 3.037 79281.12
38.336 -99.368 3.023 91430.38
38.336 -98.222 3.059 101676.56
38.336 -97.075 3.100 94309.24
38.336 -95.928 3.103 98521.12
38.336 -94.782 3.085 104414.41
38.336 -93.635 3.109 114215.13
38.336 -92.489 3.119 112243.90
38.336 -91.342 3.149 126375.50
38.336 -90.196 3.144 107018.06
38.336 -89.049 3.158 96595.28
38.336 -87.902 3.177 76603.61
38.336 -86.756 3.049 64740.41
38.336 -85.609 3.029 60706.52
38.336 -84.463 3.093 63888.39
38.336 -83.316 3.114 65840.79
38.336 -82.170 3.073 77770.77
38.336 -81.023 3.109 76702.96
38.336 -79.876 3.224 79028.18
38.336 -78.730 3.281 73186.91
38.336 -77.583 3.188 42881.78
38.336 -76.437 3.106 18537.90
38.336 -75.290 3.165 5716.34
38.336 -74.143 3.215 294.23
38.336 -72.997 3.132 17.15
38.336 -71.850 3.086 0.00
38.336 -70.704 3.088 0.00
38.336 -69.557 3.093 0.00
38.336 -68.411 3.093 0.00
38.336 -67.264 3.092 0.00
39.236 -131.880 3.092 0.00
39.236 -130.719 3.092 0.00
39.236 -129.558 3.093 0.00
39.236 -128.397 3.095 0.00
39.236 -127.235 3.096 0.00
39.236 -126.074 3.098 6.49
39.236 -124.913 3.069 1.05
39.236 -123.752 2.977 967.32
39.236 -122.591 2.994 13142.57
39.236 -121.430 3.138 22122.99
39.236 -120.269 3.055 48811.74
39.236 -119.107 2.959 85025.77
39.236 -117.946 2.975 55822.79
39.236 -116.785 3.023 58033.71
39.236 -115.624 3.093 68001.73
39.236 -114.463 3.077 72032.45
39.236 -113.302 3.145 76851.70
39.236 -112.141 3.050 81025.61
39.236 -110.980 2.973 72031.77
39.236 -109.818 3.023 61986.88
39.236 -108.657 3.015 66225.33
39.236 -107.496 2.923 68874.02
39.236 -106.335 2.861 63298.57
39.236 -105.174 2.915 46967.54
39.236 -104.013 3.002 39986.18
39.236 -102.852 3.072 46651.30
39.236 -101.690 3.092 47927.29
39.236 -100.529 3.054 52456.01
39.236 -99.368 3.049 68090.44
39.236 -98.207 3.081 68553.53
39.236 -97.046 3.117 80344.84
39.236 -95.885 3.103 73140.78
39.236 -94.724 3.101 80970.79
39.236 -93.563 3.105 100426.53
39.236 -92.401 3.141 91570.88
39.236 -91.240 3.175 98677.20
39.236 -90.079 3.148 81157.14
39.236 -88.918 3.082 83584.64
39.236 -87.757 3.125 79552.39
39.236 -86.596 3.070 58684.93
39.236 -85.435 3.033 58874.82
39.236 -84.273 3.102 70451.84
39.236 -83.112 3.140 66193.55
39.236 -81.951 3.109 75278.68
39.236 -80.790 3.093 65667.77
39.236 -79.629 3.187 56340.29
39.236 -78.468 3.213 41805.05
39.236 -77.307 3.162 28750.65
39.236 -76.145 3.146 20367.58
39.236 -74.984 3.178 8619.34
39.236 -73.823 3.170 362.27
39.236 -72.662 3.108 17.15
39.236 -71.501 3.076 0.00
39.236 -70.340 3.084 0.00
39.236 -69.179 3.091 0.00
39.236 -68.018 3.093 0.00
39.236 -66.856 3.092 0.00
40.135 -132.306 3.092 0.00
40.135 -131.130 3.094 0.00
40.135 -129.954 3.096 0.00
40.135 -128.777 3.083 0.00
40.135 -127.601 3.059 5.10
40.135 -126.424 3.060 2.55
40.135 -125.248 3.029 0.00
40.135 -124.072 2.755 10641.92
40.135 -122.895 2.605 30654.11
40.135 -121.719 2.822 30176.86
40.135 -120.543 2.970 61267.23
40.135 -119.366 3.095 75573.18
40.135 -118.190 3.160 55891.30
40.135 -117.014 3.136 61792.70
40.135 -115.837 3.100 67059.62
40.135 -114.661 3.242 84324.21
40.135 -113.484 3.424 81853.51
40.135 -112.308 3.166 80622.95
40.135 -111.132 2.967 70324.02
40.135 -109.955 2.877 63257.55
40.135 -108.779 2.926 70036.97
40.135 -107.603 2.957 65028.88
40.135 -106.426 2.950 51919.84
40.135 -105.250 2.899 45095.76
40.135 -104.074 2.844 37770.34
40.135 -102.897 2.909 36613.55
40.135 -101.721 3.013 39426.39
40.135 -100.545 3.033 43009.69
40.135 -99.368 3.045 52939.83
40.135 -98.192 3.039 60659.14
40.135 -97.015 3.028 70594.96
40.135 -95.839 3.074 78547.22
40.135 -94.663 3.066 80051.56
40.135 -93.486 3.071 80700.58
40.135 -92.310 3.135 79648.98
40.135 -91.134 3.145 67216.40
40.135 -89.957 3.089 54945.27
40.135 -88.781 3.076 46695.65
40.135 -87.605 3.134 55666.88
40.135 -86.428 3.096 50133.93
40.135 -85.252 3.096 72111.91
40.135 -84.076 3.130 78029.89
40.135 -82.899 3.182 60533.64
40.135 -81.723 3.134 72020.22
40.135 -80.546 3.037 59994.43
40.135 -79.370 3.077 52873.74
40.135 -78.194 3.131 40317.40
40.135 -77.017 3.132 42744.13
40.135 -75.841 3.132 21745.56
40.135 -74.665 3.160 15878.54
40.135 -73.488 3.138 3222.51
40.135 -72.312 3.116 17.15
40.135 -71.136 3.084 0.00
40.135 -69.959 3.082 0.00
40.135 -68.783 3.088 0.00
40.135 -67.607 3.091 0.00
40.135 -66.430 3.093 0.00
41.034 -132.752 3.095 0.00
41.034 -131.560 3.096 0.00
41.034 -130.368 3.081 0.00
41.034 -129.175 3.047 3.80
41.034 -127.983 3.080 4.00
41.034 -126.791 3.277 0.00
41.034 -125.598 3.413 232.11
41.034 -124.406 2.988 51988.62
41.034 -123.214 2.650 41995.86
41.034 -122.022 2.850 39076.78
41.034 -120.829 2.995 39217.00
41.034 -119.637 3.031 52601.06
41.034 -118.445 3.058 55915.33
41.034 -117.252 3.081 50624.57
41.034 -116.060 3.065 52266.74
41.034 -114.868 3.230 110801.95
41.034 -113.676 3.449 78560.28
41.034 -112.483 3.208 73882.23
41.034 -111.291 2.942 70268.00
41.034 -110.099 2.805 81088.66
41.034 -108.906 2.826 60840.67
41.034 -107.714 2.947 54131.95
41.034 -106.522 3.044 41992.88
41.034 -105.330 3.027 37276.08
41.034 -104.137 2.851 34576.23
41.034 -102.945 2.865 30441.93
41.034 -101.753 3.004 33160.82
41.034 -100.560 3.024 41172.60
41.034 -99.368 2.992 50762.77
41.034 -98.176 3.020 59668.89
41.034 -96.984 3.033 72182.50
41.034 -95.791 3.026 76829.48
41.034 -94.599 3.029 77476.03
41.034 -93.407 3.065 76554.16
41.034 -92.215 3.124 68846.16
41.034 -91.022 3.138 56630.90
41.034 -89.830 3.104 55095.47
41.034 -88.638 3.109 45853.92
41.034 -87.445 3.148 44384.03
41.034 -86.253 3.093 46571.73
41.034 -85.061 3.112 64971.45
41.034 -83.869 3.168 55269.46
41.034 -82.676 3.188 53794.15
41.034 -81.484 3.140 48741.28
41.034 -80.292 3.117 50437.55
41.034 -79.099 3.117 49278.39
41.034 -77.907 3.138 46350.52
41.034 -76.715 3.121 42561.04
41.034 -75.523 3.129 40201.21
41.034 -74.330 3.143 25054.18
41.034 -73.138 3.164 16462.26
41.034 -71.946 3.183 1699.22
41.034 -70.753 3.141 971.75
41.034 -69.561 3.096 0.00
41.034 -68.369 3.084 0.00
41.034 -67.177 3.089 0.00
41.034 -65.984 3.093 0.00
41.934 -133.219 3.096 0.00
41.934 -132.010 3.088 0.00
41.934 -130.801 3.054 2.70
41.934 -129.592 3.061 5.25
41.934 -128.383 3.250 0.00
41.934 -127.174 3.807 76.92
41.934 -125.965 4.369 1006.98
41.934 -124.756 3.726 15869.72
41.934 -123.547 2.917 22734.21
41.934 -122.338 2.830 23166.68
41.934 -121.129 2.966 27876.04
41.934 -119.920 3.007 41424.90
41.934 -118.711 3.048 45201.61
41.934 -117.502 3.117 52179.38
41.934 -116.293 3.088 61144.09
41.934 -115.085 3.057 72866.30
41.934 -113.876 3.284 68847.67
41.934 -112.667 3.373 65700.55
41.934 -111.458 3.038 84468.45
41.934 -110.249 2.844 80254.89
41.934 -109.040 2.857 64022.89
41.934 -107.831 2.889 49233.30
41.934 -106.622 3.037 41636.73
41.934 -105.413 3.079 36010.66
41.934 -104.204 2.926 30679.00
41.934 -102.995 2.917 28283.15
41.934 -101.786 2.976 29887.95
41.934 -100.577 3.002 37324.40
41.934 -99.368 3.011 52827.97
41.934 -98.159 3.091 56223.36
41.934 -96.950 3.131 70057.51
41.934 -95.741 2.995 78531.96
41.934 -94.532 3.016 73931.24
41.934 -93.323 3.062 68036.27
41.934 -92.115 3.109 54159.69
41.934 -90.906 3.120 64028.32
41.934 -89.697 3.093 47818.56
41.934 -88.488 3.155 49501.12
41.934 -87.279 3.212 50278.63
41.934 -86.070 3.216 50795.89
41.934 -84.861 3.155 50981.34
41.934 -83.652 3.150 43914.04
41.934 -82.443 3.136 44667.00
41.934 -81.234 3.124 45462.96
41.934 -80.025 3.132 47341.77
41.934 -78.816 3.097 51734.46
41.934 -77.607 3.052 46037.20
41.934 -76.398 3.112 41054.46
41.934 -75.189 3.203 35018.26
41.934 -73.980 3.242 30101.75
41.934 -72.771 3.276 20311.04
41.934 -71.562 3.303 12774.81
41.934 -70.353 3.248 9134.76
41.934 -69.145 3.151 221.90
41.934 -67.936 3.088 0.00
41.934 -66.727 3.083 0.00
41.934 -65.518 3.092 0.00
42.833 -133.707 3.081 0.00
42.833 -132.481 3.072 1.80
42.833 -131.254 3.068 6.34
42.833 -130.028 3.157 0.00
42.833 -128.802 3.471 7.99
42.833 -127.575 4.161 305.70
42.833 -126.349 4.629 9025.88
42.833 -125.122 3.810 9510.50
42.833 -123.896 3.146 9652.75
42.833 -122.670 2.909 17198.64
42.833 -121.443 2.938 19390.88
42.833 -120.217 2.952 26353.74
42.833 -118.990 2.975 36650.50
42.833 -117.764 3.152 47259.57
42.833 -116.538 3.204 57643.13
42.833 -115.311 3.102 54960.23
42.833 -114.085 3.211 63337.67
42.833 -112.858 3.292 59880.30
42.833 -111.632 3.076 65644.03
42.833 -110.406 2.843 64594.73
42.833 -109.179 2.854 57925.37
42.833 -107.953 2.883 46892.15
42.833 -106.727 2.982 41903.94
42.833 -105.500 3.097 36696.75
42.833 -104.274 3.115 33707.45
42.833 -103.047 3.100 31514.17
42.833 -101.821 3.033 33328.20
42.833 -100.595 3.013 36413.57
42.833 -99.368 3.089 45021.92
42.833 -98.142 3.151 65142.95
42.833 -96.915 3.133 67080.09
42.833 -95.689 3.092 71852.14
42.833 -94.463 3.003 68609.22
42.833 -93.236 3.015 57889.18
42.833 -92.010 3.099 46971.16
42.833 -90.783 3.106 64723.61
42.833 -89.557 3.100 49674.12
42.833 -88.331 3.129 48774.09
42.833 -87.104 3.151 57723.91
42.833 -85.878 3.112 47723.21
42.833 -84.652 3.080 48875.44
42.833 -83.425 3.109 45894.02
42.833 -82.199 3.100 41275.88
42.833 -80.972 3.104 47998.54
42.833 -79.746 3.132 46960.43
42.833 -78.520 3.123 50669.79
42.833 -77.293 3.116 50766.59
42.833 -76.067 3.179 44328.85
42.833 -74.840 3.253 39286.79
42.833 -73.614 3.332 39380.66
42.833 -72.388 3.426 37121.48
42.833 -71.161 3.425 13906.39
42.833 -69.935 3.323 2501.31
42.833 -68.708 3.209 298.64
42.833 -67.482 3.113 0.00
42.833 -66.256 3.084 0.00
42.833 -65.029 3.082 0.00
43.732 -134.219 3.062 1.15
43.732 -132.974 3.064 7.19
43.732 -131.729 3.149 0.00
43.732 -130.485 3.327 0.00
43.732 -129.240 3.572 283.72
43.732 -127.995 3.679 224.76
43.732 -126.751 3.478 30129.30
43.732 -125.506 3.128 14604.70
43.732 -124.261 2.966 14819.91
43.732 -123.017 2.929 20367.18
43.732 -121.772 2.957 23497.10
43.732 -120.527 2.916 26590.79
43.732 -119.283 2.943 34195.26
43.732 -118.038 3.160 38418.44
43.732 -116.793 3.192 48461.06
43.732 -115.549 3.067 44403.14
43.732 -114.304 3.050 51113.27
43.732 -113.059 3.120 46518.11
43.732 -111.815 3.054 45043.24
43.732 -110.570 2.887 53025.80
43.732 -109.325 2.963 45513.06
43.732 -108.081 2.962 42913.07
43.732 -106.836 2.930 38658.45
43.732 -105.591 3.014 33887.21
43.732 -104.347 3.105 30856.84
43.732 -103.102 3.177 28180.97
43.732 -101.858 3.077 28090.32
43.732 -100.613 3.049 33637.65
43.732 -99.368 3.114 46236.19
43.732 -98.124 3.138 58627.58
43.732 -96.879 3.153 76180.12
43.732 -95.634 3.216 69065.75
43.732 -94.390 3.136 66670.19
43.732 -93.145 3.045 58475.14
43.732 -91.900 3.135 41567.77
43.732 -90.656 3.098 55397.79
43.732 -89.411 3.068 50648.45
43.732 -88.166 3.143 45825.79
43.732 -86.922 3.141 46956.66
43.732 -85.677 3.148 72259.62
43.732 -84.432 3.130 47908.12
43.732 -83.188 3.147 44451.72
43.732 -81.943 3.196 38571.29
43.732 -80.698 3.167 51463.87
43.732 -79.454 3.127 54644.26
43.732 -78.209 3.107 53795.29
43.732 -76.964 3.181 56992.50
43.732 -75.720 3.276 51075.77
43.732 -74.475 3.331 52672.00
43.732 -73.230 3.323 42096.84
43.732 -71.986 3.382 33851.89
43.732 -70.741 3.405 33009.87
43.732 -69.496 3.280 9491.87
43.732 -68.252 3.210 1093.18
43.732 -67.007 3.126 115.89
43.732 -65.763 3.091 0.00
43.732 -64.518 3.078 0.00
44.632 -134.754 3.071 8.59
44.632 -133.490 3.094 0.00
44.632 -132.227 3.300 0.00
44.632 -130.963 3.535 215.79
44.632 -129.699 3.559 225.33
44.632 -128.435 3.329 172.57
44.632 -127.172 3.034 1740.23
44.632 -125.908 2.867 9513.31
44.632 -124.644 2.817 12261.20
44.632 -123.380 2.820 20981.41
44.632 -122.116 2.892 20568.89
44.632 -120.853 2.901 21952.05
44.632 -119.589 2.958 25248.68
44.632 -118.325 3.066 34143.75
44.632 -117.061 3.121 39476.82
44.632 -115.797 3.071 36958.93
44.632 -114.534 3.060 42428.29
44.632 -113.270 3.057 48975.60
44.632 -112.006 3.035 42613.98
44.632 -110.742 2.901 42887.98
44.632 -109.479 3.005 35386.46
44.632 -108.215 3.091 27800.37
44.632 -106.951 2.968 27003.16
44.632 -105.687 2.927 23935.51
44.632 -104.423 3.002 21744.85
44.632 -103.160 3.083 23818.97
44.632 -101.896 3.079 28026.46
44.632 -100.632 3.076 30078.64
44.632 -99.368 3.084 34743.93
44.632 -98.104 3.218 50953.06
44.632 -96.841 3.213 69215.62
44.632 -95.577 3.223 61980.84
44.632 -94.313 3.160 59205.37
44.632 -93.049 3.041 52024.22
44.632 -91.785 3.148 43781.55
44.632 -90.522 3.177 45313.12
44.632 -89.258 3.125 49361.23
44.632 -87.994 3.173 43099.44
44.632 -86.730 3.160 41711.12
44.632 -85.467 3.149 46945.91
44.632 -84.203 3.114 49831.26
44.632 -82.939 3.208 28425.89
44.632 -81.675 3.303 25839.73
44.632 -80.411 3.265 30304.00
44.632 -79.148 3.128 39428.77
44.632 -77.884 3.001 54322.94
44.632 -76.620 3.142 54026.14
44.632 -75.356 3.256 49877.54
44.632 -74.092 3.235 47972.62
44.632 -72.829 3.230 35833.80
44.632 -71.565 3.211 25316.90
44.632 -70.301 3.176 23676.18
44.632 -69.037 3.167 14222.30
44.632 -67.773 3.173 14060.15
44.632 -66.510 3.130 137.95
44.632 -65.246 3.085 251.09
44.632 -63.982 3.082 249.91
45.531 -135.316 3.153 8.09
45.531 -134.032 3.203 0.00
45.531 -132.748 3.454 151.53
45.531 -131.464 3.568 246.77
45.531 -130.180 3.437 111.58
45.531 -128.897 3.336 138.03
45.531 -127.613 3.456 443.69
45.531 -126.329 3.624 1681.35
45.531 -125.045 3.413 4275.38
45.531 -123.761 3.020 11556.60
45.531 -122.477 2.942 17787.61
45.531 -121.193 3.009 20572.29
45.531 -119.910 3.063 25349.97
45.531 -118.626 3.036 35878.81
45.531 -117.342 2.993 35367.79
45.531 -116.058 3.040 29925.59
45.531 -114.774 3.054 30499.29
45.531 -113.490 3.076 35025.81
45.531 -112.207 3.073 49441.57
45.531 -110.923 2.983 28962.66
45.531 -109.639 3.004 20816.05
45.531 -108.355 3.104 20756.91
45.531 -107.071 3.005 23605.96
45.531 -105.787 2.938 21999.65
45.531 -104.504 3.019 16524.47
45.531 -103.220 3.066 16224.98
45.531 -101.936 3.129 23882.06
45.531 -100.652 3.132 26473.54
45.531 -99.368 3.111 35458.58
45.531 -98.084 3.226 49436.47
45.531 -96.801 3.209 57051.23
45.531 -95.517 3.156 59008.82
45.531 -94.233 3.136 49797.84
45.531 -92.949 3.047 40693.57
45.531 -91.665 3.092 46349.13
45.531 -90.381 3.186 33460.79
45.531 -89.097 3.206 40606.18
45.531 -87.814 3.169 36002.34
45.531 -86.530 3.163 35882.53
45.531 -85.246 3.139 32806.24
45.531 -83.962 3.157 32334.19
45.531 -82.678 3.233 39658.24
45.531 -81.394 3.293 25836.48
45.531 -80.111 3.304 24122.02
45.531 -78.827 3.219 26525.40
45.531 -77.543 2.994 34445.82
45.531 -76.259 3.016 47695.67
45.531 -74.975 3.282 28365.21
45.531 -73.691 3.264 29960.12
45.531 -72.408 3.219 26454.69
45.531 -71.124 3.211 21744.12
45.531 -69.840 3.179 19125.78
45.531 -68.556 3.129 9837.03
45.531 -67.272 3.145 1654.14
45.531 -65.988 3.131 911.57
45.531 -64.705 3.086 417.00
45.531 -63.421 3.120 213.98
46.431 -135.904 3.318 248.01
46.431 -134.600 3.387 111.81
46.431 -133.295 3.502 266.64
46.431 -131.990 3.402 152.86
46.431 -130.685 3.285 7.58
46.431 -129.380 3.511 236.62
46.431 -128.075 4.298 518.15
46.431 -126.770 4.923 1564.84
46.431 -125.466 4.351 3306.62
46.431 -124.161 3.387 5488.69
46.431 -122.856 3.106 13517.48
46.431 -121.551 3.057 20997.28
46.431 -120.246 3.137 27573.27
46.431 -118.941 3.206 33677.65
46.431 -117.636 3.170 26184.10
46.431 -116.331 3.107 22422.71
46.431 -115.027 3.050 28256.52
46.431 -113.722 2.997 32778.98
46.431 -112.417 3.001 26020.28
46.431 -111.112 2.933 18681.26
46.431 -109.807 2.953 15269.40
46.431 -108.502 3.112 17015.75
46.431 -107.197 3.144 18719.52
46.431 -105.893 3.015 24059.07
46.431 -104.588 3.065 15437.83
46.431 -103.283 3.024 16436.59
46.431 -101.978 3.047 22545.63
46.431 -100.673 3.097 25265.29
46.431 -99.368 3.153 27835.80
46.431 -98.063 3.240 34320.94
46.431 -96.758 3.253 44660.20
46.431 -95.454 3.223 47776.84
46.431 -94.149 3.208 36654.47
46.431 -92.844 3.120 31688.46
46.431 -91.539 3.057 24948.35
46.431 -90.234 3.118 18458.32
46.431 -88.929 3.221 17061.67
46.431 -87.624 3.235 16447.70
46.431 -86.320 3.158 23904.05
46.431 -85.015 3.151 24818.94
46.431 -83.710 3.169 21336.33
46.431 -82.405 3.183 21909.78
46.431 -81.100 3.228 17577.26
46.431 -79.795 3.215 26089.54
46.431 -78.490 3.151 26400.10
46.431 -77.185 3.111 27020.39
46.431 -75.881 3.136 25123.63
46.431 -74.576 3.241 19449.32
46.431 -73.271 3.211 25425.99
46.431 -71.966 3.127 23372.06
46.431 -70.661 3.115 17188.05
46.431 -69.356 3.131 10487.29
46.431 -68.051 3.111 11761.10
46.431 -66.747 3.163 486.27
46.431 -65.442 3.141 521.43
46.431 -64.137 3.087 232.52
46.431 -62.832 3.184 106.20
47.330 -136.522 3.527 193.32
47.330 -135.195 3.554 311.78
47.330 -133.868 3.440 144.86
47.330 -132.541 3.292 10.99
47.330 -131.214 3.361 20.71
47.330 -129.887 3.862 302.70
47.330 -128.561 4.990 1011.88
47.330 -127.234 5.389 2180.67
47.330 -125.907 4.610 2621.88
47.330 -124.580 3.510 4809.19
47.330 -123.253 3.101 13095.25
47.330 -121.926 2.982 18417.89
47.330 -120.599 3.240 22404.67
47.330 -119.272 3.473 21458.69
47.330 -117.945 3.299 20183.36
47.330 -116.618 3.072 20689.95
47.330 -115.291 2.986 22664.57
47.330 -113.964 2.984 19531.96
47.330 -112.637 3.043 17344.91
47.330 -111.311 2.987 14568.05
47.330 -109.984 3.006 13514.72
47.330 -108.657 3.186 12582.69
47.330 -107.330 3.252 15464.95
47.330 -106.003 3.071 16724.34
47.330 -104.676 3.056 16382.86
47.330 -103.349 3.021 15108.81
47.330 -102.022 2.995 19984.71
47.330 -100.695 3.082 23434.61
47.330 -99.368 3.168 23751.28
47.330 -98.041 3.222 35117.67
47.330 -96.714 3.221 35655.21
47.330 -95.387 3.176 31647.23
47.330 -94.061 3.174 29907.27
47.330 -92.734 3.147 22781.37
47.330 -91.407 3.092 13264.76
47.330 -90.080 3.098 13413.56
47.330 -88.753 3.187 11456.20
47.330 -87.426 3.206 7479.82
47.330 -86.099 3.233 4557.02
47.330 -84.772 3.284 3634.90
47.330 -83.445 3.318 4520.46
47.330 -82.118 3.276 5809.22
47.330 -80.791 3.226 8254.67
47.330 -79.464 3.223 9833.22
47.330 -78.137 3.222 9253.28
47.330 -76.811 3.215 13441.32
47.330 -75.484 3.197 10494.97
47.330 -74.157 3.218 9219.81
47.330 -72.830 3.210 8230.67
47.330 -71.503 3.159 7234.92
47.330 -70.176 3.129 8552.88
47.330 -68.849 3.141 960.15
47.330 -67.522 3.162 529.78
47.330 -66.195 3.196 584.46
47.330 -64.868 3.169 401.50
47.330 -63.541 3.146 193.94
47.330 -62.214 3.312 146.94
48.229 -137.170 3.777 415.42
48.229 -135.820 3.697 104.10
48.229 -134.470 3.451 63.07
48.229 -133.120 3.375 61.96
48.229 -131.770 3.628 155.19
48.229 -130.420 4.281 734.32
48.229 -129.070 5.166 1227.92
48.229 -127.720 4.928 2328.70
48.229 -126.370 4.155 2466.75
48.229 -125.020 3.361 6802.03
48.229 -123.670 3.073 16462.09
48.229 -122.320 2.972 15675.92
48.229 -120.969 3.269 16932.31
48.229 -119.619 3.447 13897.26
48.229 -118.269 3.255 15540.04
48.229 -116.919 3.080 18344.41
48.229 -115.569 2.932 15146.41
48.229 -114.219 3.036 13328.00
48.229 -112.869 3.134 13955.30
48.229 -111.519 3.128 9282.97
48.229 -110.169 3.108 10821.88
48.229 -108.819 3.186 9505.03
48.229 -107.469 3.163 12663.00
48.229 -106.119 3.004 11431.32
48.229 -104.769 2.982 17746.73
48.229 -103.418 3.014 13268.36
48.229 -102.068 3.047 17672.67
48.229 -100.718 3.112 18888.95
48.229 -99.368 3.155 21806.41
48.229 -98.018 3.182 19724.97
48.229 -96.668 3.157 22449.97
48.229 -95.318 3.149 25487.74
48.229 -93.968 3.206 17651.05
48.229 -92.618 3.188 7807.83
48.229 -91.268 3.095 6948.29
48.229 -89.918 3.082 4450.89
48.229 -88.568 3.124 5548.29
48.229 -87.217 3.152 3947.24
48.229 -85.867 3.190 3459.75
48.229 -84.517 3.254 3135.74
48.229 -83.167 3.297 3225.27
48.229 -81.817 3.274 3876.56
48.229 -80.467 3.254 3987.16
48.229 -79.117 3.252 3861.51
48.229 -77.767 3.283 3701.40
48.229 -76.417 3.254 3389.29
48.229 -75.067 3.183 2098.43
48.229 -73.717 3.183 2026.25
48.229 -72.367 3.191 1227.79
48.229 -71.017 3.170 904.59
48.229 -69.666 3.141 358.65
48.229 -68.316 3.125 233.86
48.229 -66.966 3.108 236.58
48.229 -65.616 3.126 182.40
48.229 -64.266 3.169 278.46
48.229 -62.916 3.289 332.14
48.229 -61.566 3.572 425.23
49.129 -137.851 4.116 493.16
49.129 -136.477 3.986 151.60
49.129 -135.103 3.566 136.05
49.129 -133.728 3.511 292.11
49.129 -132.354 3.854 672.32
49.129 -130.979 4.588 958.98
49.129 -129.605 4.949 774.92
49.129 -128.231 4.310 2387.49
49.129 -126.856 3.729 4262.28
49.129 -125.482 3.289 14877.31
49.129 -124.107 3.144 17627.54
49.129 -122.733 3.043 13427.72
49.129 -121.359 3.149 11622.11
49.129 -119.984 3.256 12880.57
49.129 -118.610 3.201 11532.00
49.129 -117.235 3.098 10643.62
49.129 -115.861 3.000 9173.10
49.129 -114.487 3.023 8573.12
49.129 -113.112 3.147 9904.93
49.129 -111.738 3.087 7653.72
49.129 -110.363 2.980 7481.49
49.129 -108.989 2.962 8596.37
49.129 -107.615 3.015 8943.39
49.129 -106.240 3.012 10922.71
49.129 -104.866 2.941 12016.50
49.129 -103.491 2.984 13671.59
49.129 -102.117 3.060 10946.19
49.129 -100.743 3.105 11815.55
49.129 -99.368 3.139 10221.27
49.129 -97.994 3.140 11284.27
49.129 -96.619 3.135 10511.18
49.129 -95.245 3.165 8492.52
49.129 -93.871 3.228 2683.50
49.129 -92.496 3.201 2870.64
49.129 -91.122 3.104 3573.80
49.129 -89.747 3.095 3657.96
49.129 -88.373 3.146 3834.70
49.129 -86.999 3.176 4461.28
49.129 -85.624 3.179 3681.66
49.129 -84.250 3.205 3089.43
49.129 -82.875 3.235 3864.72
49.129 -81.501 3.241 2707.77
49.129 -80.127 3.230 3578.33
49.129 -78.752 3.211 2515.18
49.129 -77.378 3.196 2007.76
49.129 -76.003 3.163 1629.25
49.129 -74.629 3.111 1339.81
49.129 -73.255 3.119 1003.77
49.129 -71.880 3.124 931.08
49.129 -70.506 3.120 522.93
49.129 -69.131 3.102 348.97
49.129 -67.757 3.079 482.79
49.129 -66.383 3.070 188.27
49.129 -65.008 3.126 166.47
49.129 -63.634 3.260 112.00
49.129 -62.259 3.510 123.44
49.129 -60.885 3.897 355.31
50.028 -138.567 4.280 654.46
50.028 -137.167 4.120 616.95
50.028 -135.767 3.584 437.73
50.028 -134.367 3.569 526.44
50.028 -132.967 4.031 311.70
50.028 -131.567 4.639 703.24
50.028 -130.167 4.386 1050.27
50.028 -128.767 3.739 3436.64
50.028 -127.368 3.514 15504.33
50.028 -125.968 3.297 19471.84
50.028 -124.568 3.204 15303.38
50.028 -123.168 3.024 12728.25
50.028 -121.768 3.076 13113.84
50.028 -120.368 3.220 10590.58
50.028 -118.968 3.174 8888.39
50.028 -117.568 3.099 9402.20
50.028 -116.168 3.065 7473.39
50.028 -114.768 2.936 7743.34
50.028 -113.368 2.983 7529.08
50.028 -111.968 2.975 7609.38
50.028 -110.568 2.930 6226.65
50.028 -109.168 2.893 8022.23
50.028 -107.768 2.994 8054.21
50.028 -106.368 3.116 9692.45
50.028 -104.968 3.026 9710.05
50.028 -103.568 3.036 13493.01
50.028 -102.168 3.127 8894.51
50.028 -100.768 3.169 8271.86
50.028 -99.368 3.176 7128.29
50.028 -97.968 3.160 6335.44
50.028 -96.568 3.157 8090.22
50.028 -95.168 3.181 3315.43
50.028 -93.768 3.197 2828.44
50.028 -92.368 3.139 2220.10
50.028 -90.968 3.048 4490.68
50.028 -89.568 3.089 3574.42
50.028 -88.168 3.154 3773.26
50.028 -86.769 3.172 2924.51
50.028 -85.369 3.167 2486.47
50.028 -83.969 3.163 2842.07
50.028 -82.569 3.188 2812.93
50.028 -81.169 3.204 3112.61
50.028 -79.769 3.177 1983.28
50.028 -78.369 3.138 1113.01
50.028 -76.969 3.106 1657.06
50.028 -75.569 3.088 1898.03
50.028 -74.169 3.097 1419.72
50.028 -72.769 3.121 589.31
50.028 -71.369 3.113 394.93
50.028 -69.969 3.105 373.17
50.028 -68.569 3.105 239.07
50.028 -67.169 3.137 420.80
50.028 -65.769 3.223 103.90
50.028 -64.369 3.362 137.68
50.028 -62.969 3.583 163.84
50.028 -61.569 3.844 525.50
50.028 -60.169 3.971 229.76
50.927 -139.320 3.945 955.65
50.927 -137.893 3.826 620.82
50.927 -136.466 3.503 295.18
50.927 -135.040 3.628 2.00
50.927 -133.613 4.106 677.30
50.927 -132.186 4.282 346.61
50.927 -130.759 3.814 1670.82
50.927 -129.332 3.418 19863.72
50.927 -127.905 3.437 26126.71
50.927 -126.478 3.239 17219.68
50.927 -125.052 3.145 16167.84
50.927 -123.625 3.077 13047.57
50.927 -122.198 3.056 10856.35
50.927 -120.771 3.190 8886.24
50.927 -119.344 3.005 8854.49
50.927 -117.917 2.912 9856.90
50.927 -116.490 2.983 7047.35
50.927 -115.064 2.923 7145.90
50.927 -113.637 2.883 6119.16
50.927 -112.210 2.964 6901.38
50.927 -110.783 3.003 5367.13
50.927 -109.356 2.966 6617.87
50.927 -107.929 3.061 6830.44
50.927 -106.502 3.279 9078.93
50.927 -105.076 3.172 10029.55
50.927 -103.649 3.122 12195.53
50.927 -102.222 3.166 10743.30
50.927 -100.795 3.167 6570.13
50.927 -99.368 3.142 5433.27
50.927 -97.941 3.165 4937.51
50.927 -96.514 3.201 3501.79
50.927 -95.088 3.183 3477.70
50.927 -93.661 3.138 2727.13
50.927 -92.234 3.069 3161.81
50.927 -90.807 3.048 4081.51
50.927 -89.380 3.131 2553.93
50.927 -87.953 3.192 2882.00
50.927 -86.526 3.194 3327.35
50.927 -85.100 3.206 2809.94
50.927 -83.673 3.225 1389.44
50.927 -82.246 3.251 2711.27
50.927 -80.819 3.257 2672.34
50.927 -79.392 3.200 1049.26
50.927 -77.965 3.162 1821.15
50.927 -76.538 3.155 1313.66
50.927 -75.112 3.152 1571.39
50.927 -73.685 3.172 1166.38
50.927 -72.258 3.189 390.84
50.927 -70.831 3.159 464.04
50.927 -69.404 3.153 341.50
50.927 -67.977 3.227 381.30
50.927 -66.550 3.378 201.92
50.927 -65.124 3.588 259.76
50.927 -63.697 3.810 306.71
50.927 -62.270 3.916 568.42
50.927 -60.843 3.869 404.22
50.927 -59.416 3.810 740.43
51.827 -140.113 3.613 786.26
51.827 -138.658 3.568 100.20
51.827 -137.203 3.460 21.97
51.827 -135.747 3.670 155.82
51.827 -134.292 4.064 700.29
51.827 -132.837 4.039 441.51
51.827 -131.382 3.605 28536.17
51.827 -129.927 3.423 40661.86
51.827 -128.472 3.421 20259.84
51.827 -127.016 3.248 14887.01
51.827 -125.561 3.150 11957.06
51.827 -124.106 3.020 10403.66
51.827 -122.651 3.012 9070.00
51.827 -121.196 3.072 6545.83
51.827 -119.741 2.914 6741.53
51.827 -118.285 2.861 6105.59
51.827 -116.830 2.969 5242.08
51.827 -115.375 2.957 3876.21
51.827 -113.920 2.921 4609.21
51.827 -112.465 3.001 5807.11
51.827 -111.010 3.099 6030.26
51.827 -109.554 3.080 6503.73
51.827 -108.099 3.125 7489.90
51.827 -106.644 3.275 10256.30
51.827 -105.189 3.282 11118.61
51.827 -103.734 3.125 10729.19
51.827 -102.279 3.125 11831.54
51.827 -100.823 3.112 6988.99
51.827 -99.368 3.095 4962.98
51.827 -97.913 3.161 4810.13
51.827 -96.458 3.202 2534.89
51.827 -95.003 3.188 3296.71
51.827 -93.548 3.114 2887.70
51.827 -92.092 3.066 2726.16
51.827 -90.637 3.095 3425.07
51.827 -89.182 3.179 2655.16
51.827 -87.727 3.228 3380.29
51.827 -86.272 3.251 2919.93
51.827 -84.817 3.269 1978.04
51.827 -83.361 3.307 2289.69
51.827 -81.906 3.338 1997.43
51.827 -80.451 3.331 1530.41
51.827 -78.996 3.271 2039.03
51.827 -77.541 3.270 2084.98
51.827 -76.085 3.312 1490.73
51.827 -74.630 3.351 985.41
51.827 -73.175 3.372 1017.70
51.827 -71.720 3.379 702.93
51.827 -70.265 3.369 644.61
51.827 -68.810 3.400 315.46
51.827 -67.354 3.521 200.79
51.827 -65.899 3.712 213.80
51.827 -64.444 3.896 728.30
51.827 -62.989 3.955 763.25
51.827 -61.534 3.866 534.24
51.827 -60.079 3.719 689.66
51.827 -58.623 3.579 267.75
52.726 -140.948 3.459 107.99
52.726 -139.463 3.461 91.89
52.726 -137.978 3.500 135.84
52.726 -136.493 3.780 514.48
52.726 -135.008 4.087 410.61
52.726 -133.523 4.000 825.11
52.726 -132.038 3.637 3641.59
52.726 -130.553 3.462 6385.07
52.726 -129.068 3.456 4890.87
52.726 -127.583 3.292 4735.12
52.726 -126.098 3.144 5325.09
52.726 -124.613 3.071 6528.49
52.726 -123.128 3.135 4737.62
52.726 -121.643 3.149 4037.30
52.726 -120.158 2.923 5338.90
52.726 -118.673 2.881 5488.59
52.726 -117.188 2.994 4783.19
52.726 -115.703 3.014 4018.86
52.726 -114.218 3.014 3981.14
52.726 -112.733 3.057 7218.30
52.726 -111.248 3.078 7315.29
52.726 -109.763 3.113 7174.06
52.726 -108.278 3.079 9555.97
52.726 -106.793 3.122 11941.88
52.726 -105.308 3.272 11571.74
52.726 -103.823 3.126 11397.77
52.726 -102.338 3.114 10568.59
52.726 -100.853 3.078 8151.36
52.726 -99.368 3.148 4669.28
52.726 -97.883 3.215 3713.99
52.726 -96.398 3.249 2363.11
52.726 -94.913 3.186 3231.66
52.726 -93.428 3.113 2236.26
52.726 -91.943 3.097 2649.70
52.726 -90.458 3.127 3074.41
52.726 -88.973 3.193 2295.76
52.726 -87.488 3.212 2602.95
52.726 -86.003 3.218 3046.74
52.726 -84.518 3.233 2173.23
52.726 -83.033 3.267 1831.24
52.726 -81.548 3.283 1467.73
52.726 -80.063 3.269 1821.35
52.726 -78.578 3.248 2283.16
52.726 -77.093 3.296 1593.90
52.726 -75.608 3.363 1456.89
52.726 -74.123 3.419 1472.44
52.726 -72.638 3.469 707.32
52.726 -71.153 3.528 1116.99
52.726 -69.668 3.640 601.26
52.726 -68.183 3.739 640.37
52.726 -66.698 3.857 625.38
52.726 -65.213 3.946 898.15
52.726 -63.728 3.910 533.50
52.726 -62.243 3.803 510.38
52.726 -60.758 3.671 449.74
52.726 -59.273 3.510 0.00
52.726 -57.788 3.416 83.93
53.625 -141.829 3.396 439.67
53.625 -140.313 3.423 174.83
53.625 -138.796 3.571 114.90
53.625 -137.280 3.828 634.35
53.625 -135.763 3.984 195.80
53.625 -134.247 4.005 1127.28
53.625 -132.730 4.030 1633.17
53.625 -131.214 3.907 2194.62
53.625 -129.697 3.713 2620.72
53.625 -128.181 3.338 3890.60
53.625 -126.665 3.126 4307.44
53.625 -125.148 3.155 5017.18
53.625 -123.632 3.262 3457.39
53.625 -122.115 3.241 3462.18
53.625 -120.599 2.987 5269.29
53.625 -119.082 2.878 4611.56
53.625 -117.566 2.964 4914.09
53.625 -116.049 3.004 4054.56
53.625 -114.533 3.046 4958.53
53.625 -113.016 3.079 6210.99
53.625 -111.500 3.022 7778.38
53.625 -109.983 3.102 9032.51
53.625 -108.467 3.043 10617.39
53.625 -106.951 3.056 12933.36
53.625 -105.434 3.231 11085.34
53.625 -103.918 3.272 8661.22
53.625 -102.401 3.140 8754.09
53.625 -100.885 3.142 9105.11
53.625 -99.368 3.208 4269.65
53.625 -97.852 3.248 3180.68
53.625 -96.335 3.260 2525.69
53.625 -94.819 3.212 2325.60
53.625 -93.302 3.159 1995.92
53.625 -91.786 3.113 2460.51
53.625 -90.269 3.128 2018.89
53.625 -88.753 3.163 2562.53
53.625 -87.237 3.170 3357.67
53.625 -85.720 3.169 2779.85
53.625 -84.204 3.175 1401.15
53.625 -82.687 3.204 1335.68
53.625 -81.171 3.205 1251.65
53.625 -79.654 3.176 2098.02
53.625 -78.138 3.147 1778.67
53.625 -76.621 3.186 1462.00
53.625 -75.105 3.252 1299.79
53.625 -73.588 3.302 1673.96
53.625 -72.072 3.384 977.06
53.625 -70.555 3.522 968.00
53.625 -69.039 3.751 837.40
53.625 -67.523 3.941 1032.58
53.625 -66.006 3.969 681.37
53.625 -64.490 3.833 441.59
53.625 -62.973 3.706 396.21
53.625 -61.457 3.581 267.98
53.625 -59.940 3.435 106.90
53.625 -58.424 3.318 141.86
53.625 -56.907 3.271 182.96
54.525 -142.759 3.316 117.98
54.525 -141.209 3.347 0.00
54.525 -139.660 3.602 394.58
54.525 -138.110 3.796 317.70
54.525 -136.560 3.829 444.51
54.525 -135.011 3.917 1133.56
54.525 -133.461 4.196 1164.90
54.525 -131.911 4.070 1919.19
54.525 -130.362 3.737 2550.35
54.525 -128.812 3.311 3945.41
54.525 -127.262 3.139 4335.91
54.525 -125.713 3.193 3882.15
54.525 -124.163 3.318 3968.80
54.525 -122.613 3.299 3540.02
54.525 -121.064 3.083 4210.50
54.525 -119.514 2.930 4242.72
54.525 -117.964 2.957 4182.38
54.525 -116.415 2.994 4406.26
54.525 -114.865 3.101 4685.34
54.525 -113.315 3.180 5721.50
54.525 -111.766 3.141 8424.89
54.525 -110.216 3.154 10392.83
54.525 -108.666 3.096 11767.44
54.525 -107.117 3.075 12903.92
54.525 -105.567 3.241 9195.77
54.525 -104.017 3.345 7220.44
54.525 -102.468 3.139 7631.14
54.525 -100.918 3.173 7011.92
54.525 -99.368 3.184 5446.88
54.525 -97.819 3.211 2933.86
54.525 -96.269 3.242 2311.52
54.525 -94.719 3.246 2609.32
54.525 -93.170 3.194 2449.47
54.525 -91.620 3.135 1750.17
54.525 -90.070 3.135 2968.95
54.525 -88.520 3.151 2676.33
54.525 -86.971 3.165 2752.62
54.525 -85.421 3.150 1643.27
54.525 -83.871 3.159 1329.65
54.525 -82.322 3.198 1250.71
54.525 -80.772 3.179 1471.83
54.525 -79.222 3.120 2185.79
54.525 -77.673 3.108 1434.51
54.525 -76.123 3.122 923.09
54.525 -74.573 3.130 1422.22
54.525 -73.024 3.137 1150.51
54.525 -71.474 3.200 655.42
54.525 -69.924 3.344 634.15
54.525 -68.375 3.535 1048.50
54.525 -66.825 3.612 886.32
54.525 -65.275 3.614 267.36
54.525 -63.726 3.524 307.81
54.525 -62.176 3.400 130.17
54.525 -60.626 3.316 99.88
54.525 -59.077 3.255 134.84
54.525 -57.527 3.190 117.11
54.525 -55.977 3.186 16.48
55.424 -143.742 3.308 0.00
55.424 -142.157 3.341 39.96
55.424 -140.572 3.598 564.41
55.424 -138.988 3.779 179.83
55.424 -137.403 3.818 609.32
55.424 -135.818 3.911 1368.53
55.424 -134.233 4.092 802.87
55.424 -132.648 3.846 2228.70
55.424 -131.064 3.613 2725.81
55.424 -129.479 3.323 4049.30
55.424 -127.894 3.154 3324.20
55.424 -126.309 3.158 3902.12
55.424 -124.725 3.238 4392.13
55.424 -123.140 3.223 3327.25
55.424 -121.555 3.123 4661.31
55.424 -119.970 3.020 5171.96
55.424 -118.385 2.931 5471.34
55.424 -116.801 2.977 4355.62
55.424 -115.216 3.142 5285.65
55.424 -113.631 3.288 6587.50
55.424 -112.046 3.307 10036.83
55.424 -110.462 3.219 13172.04
55.424 -108.877 3.098 12811.88
55.424 -107.292 3.086 10645.87
55.424 -105.707 3.122 8396.60
55.424 -104.123 3.236 5800.76
55.424 -102.538 3.183 5125.14
55.424 -100.953 3.173 6476.51
55.424 -99.368 3.159 7862.48
55.424 -97.783 3.192 2572.87
55.424 -96.199 3.213 2676.28
55.424 -94.614 3.226 1570.39
55.424 -93.029 3.191 2511.45
55.424 -91.444 3.116 2005.01
55.424 -89.860 3.125 2967.01
55.424 -88.275 3.151 2075.19
55.424 -86.690 3.168 2402.65
55.424 -85.105 3.149 1452.45
55.424 -83.520 3.159 1640.29
55.424 -81.936 3.173 1172.57
55.424 -80.351 3.135 2151.13
55.424 -78.766 3.090 1796.61
55.424 -77.181 3.110 1322.21
55.424 -75.597 3.120 837.16
55.424 -74.012 3.133 1318.56
55.424 -72.427 3.139 620.35
55.424 -70.842 3.149 704.89
55.424 -69.257 3.193 853.56
55.424 -67.673 3.267 1044.11
55.424 -66.088 3.315 391.42
55.424 -64.503 3.328 403.93
55.424 -62.918 3.282 224.74
55.424 -61.334 3.228 127.85
55.424 -59.749 3.179 30.96
55.424 -58.164 3.140 11.38
55.424 -56.579 3.104 18.23
55.424 -54.995 3.171 0.00
56.324 -144.782 3.403 0.00
56.324 -143.160 3.453 453.52
56.324 -141.538 3.616 169.82
56.324 -139.916 3.792 423.57
56.324 -138.294 3.893 1066.87
56.324 -136.672 3.956 1096.92
56.324 -135.050 3.902 818.96
56.324 -133.428 3.552 2049.65
56.324 -131.806 3.478 3500.37
56.324 -130.184 3.294 3733.28
56.324 -128.563 3.170 2941.66
56.324 -126.941 3.168 3218.87
56.324 -125.319 3.140 5418.00
56.324 -123.697 3.095 4509.15
56.324 -122.075 3.061 5156.08
56.324 -120.453 3.010 4255.98
56.324 -118.831 2.951 5431.42
56.324 -117.209 2.935 4724.91
56.324 -115.587 3.057 5786.13
56.324 -113.965 3.250 8864.98
56.324 -112.343 3.311 12677.38
56.324 -110.722 3.198 14827.43
56.324 -109.100 3.076 11017.12
56.324 -107.478 3.038 9235.24
56.324 -105.856 3.003 5535.37
56.324 -104.234 3.117 6168.89
56.324 -102.612 3.241 5472.62
56.324 -100.990 3.143 6829.62
56.324 -99.368 3.176 5740.83
56.324 -97.746 3.147 3972.52
56.324 -96.124 3.172 1745.23
56.324 -94.502 3.191 1982.90
56.324 -92.881 3.164 3438.64
56.324 -91.259 3.085 1776.21
56.324 -89.637 3.084 1877.39
56.324 -88.015 3.119 2153.77
56.324 -86.393 3.135 2175.82
56.324 -84.771 3.101 1472.39
56.324 -83.149 3.087 1615.38
56.324 -81.527 3.085 1578.73
56.324 -79.905 3.064 2056.50
56.324 -78.283 3.100 1295.72
56.324 -76.661 3.160 730.75
56.324 -75.040 3.167 1069.64
56.324 -73.418 3.181 1313.52
56.324 -71.796 3.198 602.36
56.324 -70.174 3.188 707.25
56.324 -68.552 3.185 644.59
56.324 -66.930 3.186 680.46
56.324 -65.308 3.144 461.78
56.324 -63.686 3.127 271.56
56.324 -62.064 3.130 19.96
56.324 -60.442 3.114 7.03
56.324 -58.820 3.097 0.00
56.324 -57.199 3.076 20.34
56.324 -55.577 3.066 0.00
56.324 -53.955 3.193 0.00
57.223 -145.883 3.558 144.85
57.223 -144.222 3.607 501.47
57.223 -142.561 3.695 22.97
57.223 -140.899 3.821 740.23
57.223 -139.238 3.970 1229.53
57.223 -137.577 3.974 1004.26
57.223 -135.916 3.706 924.54
57.223 -134.254 3.368 1604.27
57.223 -132.593 3.384 3751.56
57.223 -130.932 3.189 2924.31
57.223 -129.271 3.152 3611.38
57.223 -127.609 3.228 3545.73
57.223 -125.948 3.141 5305.25
57.223 -124.287 3.015 4922.04
57.223 -122.626 3.013 4385.88
57.223 -120.964 3.015 3535.84
57.223 -119.303 3.044 3892.68
57.223 -117.642 2.978 4315.10
57.223 -115.981 2.994 6963.68
57.223 -114.319 3.157 11928.12
57.223 -112.658 3.235 15393.10
57.223 -110.997 3.198 14146.26
57.223 -109.336 3.063 9707.89
57.223 -107.674 2.919 7246.90
57.223 -106.013 2.926 5871.80
57.223 -104.352 3.028 5050.10
57.223 -102.691 3.213 5843.85
57.223 -101.029 3.114 4494.66
57.223 -99.368 3.116 4574.31
57.223 -97.707 3.077 6156.76
57.223 -96.046 3.115 3195.61
57.223 -94.384 3.164 2566.42
57.223 -92.723 3.135 2878.12
57.223 -91.062 3.046 1441.49
57.223 -89.401 3.031 2027.02
57.223 -87.739 3.066 1996.92
57.223 -86.078 3.088 1808.21
57.223 -84.417 3.095 2246.64
57.223 -82.756 3.096 1739.73
57.223 -81.094 3.090 1953.86
57.223 -79.433 3.086 1684.27
57.223 -77.772 3.129 1096.83
57.223 -76.111 3.173 822.15
57.223 -74.449 3.155 1028.95
57.223 -72.788 3.150 960.98
57.223 -71.127 3.163 551.45
57.223 -69.466 3.169 102.16
57.223 -67.805 3.165 575.91
57.223 -66.143 3.144 302.20
57.223 -64.482 3.087 200.83
57.223 -62.821 3.054 209.97
57.223 -61.160 3.041 213.96
57.223 -59.498 3.039 187.54
57.223 -57.837 3.050 32.06
57.223 -56.176 3.044 10.00
57.223 -54.515 3.055 18.73
57.223 -52.853 3.228 0.65
58.122 -147.051 3.720 590.38
58.122 -145.348 3.755 84.91
58.122 -143.645 3.814 323.66
58.122 -141.942 3.901 1016.92
58.122 -140.239 4.024 1022.28
58.122 -138.537 3.918 1152.80
58.122 -136.834 3.544 385.53
58.122 -135.131 3.286 2202.29
58.122 -133.428 3.295 4165.11
58.122 -131.725 3.118 3345.92
58.122 -130.022 3.084 4742.70
58.122 -128.319 3.244 3219.62
58.122 -126.616 3.199 4987.82
58.122 -124.913 3.030 5296.82
58.122 -123.210 3.013 3723.57
58.122 -121.507 3.008 4565.26
58.122 -119.804 3.072 3781.80
58.122 -118.101 3.026 5791.12
58.122 -116.398 2.954 10424.47
58.122 -114.695 3.096 16761.35
58.122 -112.992 3.274 15536.67
58.122 -111.289 3.328 11667.44
58.122 -109.586 3.132 6429.45
58.122 -107.883 2.996 5985.97
58.122 -106.180 2.943 5067.58
58.122 -104.477 3.046 4608.91
58.122 -102.774 3.198 4998.21
58.122 -101.071 3.191 4227.61
58.122 -99.368 3.092 4906.77
58.122 -97.665 3.095 6538.20
58.122 -95.962 3.161 4652.66
58.122 -94.259 3.228 3347.35
58.122 -92.556 3.180 1767.72
58.122 -90.853 3.095 1799.60
58.122 -89.150 3.059 1685.20
58.122 -87.447 3.073 2375.49
58.122 -85.744 3.093 2032.96
58.122 -84.041 3.113 2367.60
58.122 -82.339 3.120 1761.57
58.122 -80.636 3.124 1366.62
58.122 -78.933 3.130 1336.18
58.122 -77.230 3.154 805.17
58.122 -75.527 3.161 1173.82
58.122 -73.824 3.120 1343.55
58.122 -72.121 3.108 406.62
58.122 -70.418 3.118 284.65
58.122 -68.715 3.131 196.46
58.122 -67.012 3.139 445.57
58.122 -65.309 3.116 144.86
58.122 -63.606 3.077 176.82
58.122 -61.903 3.062 51.95
58.122 -60.200 3.052 130.90
58.122 -58.497 3.047 125.12
58.122 -56.794 3.036 182.70
58.122 -55.091 3.018 200.97
58.122 -53.388 3.040 61.48
58.122 -51.685 3.228 26.38
59.022 -148.292 3.752 717.78
59.022 -146.545 3.806 98.33
59.022 -144.798 3.883 875.08
59.022 -143.050 3.979 1044.88
59.022 -141.303 3.998 1145.35
59.022 -139.556 3.762 499.50
59.022 -137.808 3.413 645.86
59.022 -136.061 3.232 3880.51
59.022 -134.314 3.272 6192.97
59.022 -132.567 3.122 3553.64
59.022 -130.819 3.094 4397.88
59.022 -129.072 3.204 3530.40
59.022 -127.325 3.190 5668.23
59.022 -125.577 3.074 6133.32
59.022 -123.830 3.083 4548.41
59.022 -122.083 3.064 4310.66
59.022 -120.336 3.099 4326.70
59.022 -118.588 3.045 8385.40
59.022 -116.841 3.020 16308.60
59.022 -115.094 3.076 18913.44
59.022 -113.346 3.313 12694.66
59.022 -111.599 3.345 7389.96
59.022 -109.852 3.213 4947.30
59.022 -108.105 3.047 5401.31
59.022 -106.357 3.000 3378.22
59.022 -104.610 3.040 4615.77
59.022 -102.863 3.142 4296.22
59.022 -101.115 3.253 4496.57
59.022 -99.368 3.098 5372.74
59.022 -97.621 3.140 4049.58
59.022 -95.874 3.158 6103.34
59.022 -94.126 3.233 3109.08
59.022 -92.379 3.193 1212.79
59.022 -90.632 3.121 1091.87
59.022 -88.884 3.068 1361.58
59.022 -87.137 3.085 2874.09
59.022 -85.390 3.107 2075.89
59.022 -83.643 3.137 2339.24
59.022 -81.895 3.128 1564.12
59.022 -80.148 3.136 962.05
59.022 -78.401 3.139 1427.53
59.022 -76.654 3.144 992.97
59.022 -74.906 3.145 884.11
59.022 -73.159 3.115 1038.43
59.022 -71.412 3.108 505.98
59.022 -69.664 3.121 91.87
59.022 -67.917 3.135 369.64
59.022 -66.170 3.125 229.63
59.022 -64.423 3.104 104.89
59.022 -62.675 3.089 11.99
59.022 -60.928 3.083 51.95
59.022 -59.181 3.078 60.94
59.022 -57.433 3.072 44.96
59.022 -55.686 3.058 149.89
59.022 -53.939 3.038 82.60
59.022 -52.192 3.044 157.17
59.022 -50.444 3.188 211.82
59.921 -149.612 3.555 611.15
59.921 -147.818 3.626 416.92
59.921 -146.023 3.762 873.64
59.921 -144.229 3.866 1351.59
59.921 -142.434 3.793 725.08
59.921 -140.640 3.503 410.61
59.921 -138.845 3.238 1587.54
59.921 -137.051 3.199 2330.01
59.921 -135.257 3.263 3882.06
59.921 -133.462 3.140 3817.14
59.921 -131.668 3.138 3892.34
59.921 -129.873 3.191 3624.14
59.921 -128.079 3.164 4936.85
59.921 -126.284 3.113 6439.86
59.921 -124.490 3.128 6298.18
59.921 -122.696 3.154 3565.12
59.921 -120.901 3.167 5088.26
59.921 -119.107 3.120 14453.68
59.921 -117.312 3.040 22100.08
59.921 -115.518 3.070 14329.26
59.921 -113.724 3.221 7738.71
59.921 -111.929 3.312 6238.22
59.921 -110.135 3.265 5034.29
59.921 -108.340 3.151 3866.21
59.921 -106.546 3.104 3444.23
59.921 -104.751 3.045 5285.15
