38.336 -98.222 3.692 723.29
38.336 -97.075 3.687 598.35
38.336 -95.928 3.712 691.25
38.336 -94.782 3.747 1010.93
38.336 -93.635 3.783 892.06
38.336 -92.489 3.801 835.09
38.336 -91.342 3.796 668.49
38.336 -90.196 3.777 543.63
38.336 -89.049 3.727 177.82
38.336 -87.902 3.691 235.82
38.336 -86.756 3.677 257.74
38.336 -85.609 3.670 194.82
38.336 -84.463 3.672 243.01
38.336 -83.316 3.670 174.80
38.336 -82.170 3.644 216.78
38.336 -81.023 3.620 367.67
38.336 -79.876 3.615 319.69
38.336 -78.730 3.620 182.81
38.336 -77.583 3.600 195.25
38.336 -76.437 3.567 0.00
38.336 -75.290 3.552 0.00
38.336 -74.143 3.551 0.00
38.336 -72.997 3.555 0.00
38.336 -71.850 3.557 0.00
38.336 -70.704 3.557 0.00
38.336 -69.557 3.556 0.00
38.336 -68.411 3.557 0.00
38.336 -67.264 3.556 0.00
39.236 -131.880 3.555 0.00
39.236 -130.719 3.554 0.00
39.236 -129.558 3.554 0.00
39.236 -128.397 3.552 0.00
39.236 -127.235 3.557 0.00
39.236 -126.074 3.584 0.00
39.236 -124.913 3.584 0.00
39.236 -123.752 3.484 0.00
39.236 -122.591 3.384 725.01
39.236 -121.430 3.434 3470.43
39.236 -120.269 3.520 3166.29
39.236 -119.107 3.563 2547.33
39.236 -117.946 3.582 1238.17
39.236 -116.785 3.581 1582.72
39.236 -115.624 3.515 1718.96
39.236 -114.463 3.418 2538.97
39.236 -113.302 3.355 3013.99
39.236 -112.141 3.391 3793.82
39.236 -110.980 3.449 4131.31
39.236 -109.818 3.545 3446.12
39.236 -108.657 3.627 2998.27
39.236 -107.496 3.655 2555.70
39.236 -106.335 3.700 2495.23
39.236 -105.174 3.717 1738.16
39.236 -104.013 3.720 1522.43
39.236 -102.852 3.713 1032.17
39.236 -101.690 3.702 1158.89
39.236 -100.529 3.724 1094.51
39.236 -99.368 3.715 644.72
39.236 -98.207 3.702 665.30
39.236 -97.046 3.724 755.86
39.236 -95.885 3.754 579.41
39.236 -94.724 3.782 535.44
39.236 -93.563 3.790 395.58
39.236 -92.401 3.787 412.57
39.236 -91.240 3.776 320.68
39.236 -90.079 3.754 386.61
39.236 -88.918 3.729 484.51
39.236 -87.757 3.710 429.58
39.236 -86.596 3.666 256.74
39.236 -85.435 3.637 199.79
39.236 -84.273 3.637 142.34
39.236 -83.112 3.669 223.56
39.236 -81.951 3.691 40.95
39.236 -80.790 3.703 219.77
39.236 -79.629 3.704 470.26
39.236 -78.468 3.684 258.72
39.236 -77.307 3.642 159.37
39.236 -76.145 3.586 0.00
39.236 -74.984 3.560 0.00
39.236 -73.823 3.552 0.00
39.236 -72.662 3.551 0.00
39.236 -71.501 3.555 0.00
39.236 -70.340 3.557 0.00
39.236 -69.179 3.557 0.00
39.236 -68.018 3.556 0.00
39.236 -66.856 3.556 0.00
40.135 -132.306 3.557 0.00
40.135 -131.130 3.557 0.00
40.135 -129.954 3.555 0.00
40.135 -128.777 3.552 0.00
40.135 -127.601 3.564 0.00
40.135 -126.424 3.581 0.00
40.135 -125.248 3.522 0.00
40.135 -124.072 3.411 153.87
40.135 -122.895 3.371 1071.17
40.135 -121.719 3.472 2634.64
40.135 -120.543 3.611 4675.52
40.135 -119.366 3.656 2416.30
40.135 -118.190 3.600 1477.16
40.135 -117.014 3.510 1597.12
40.135 -115.837 3.430 1504.60
40.135 -114.661 3.365 2735.89
40.135 -113.484 3.397 4418.50
40.135 -112.308 3.499 4495.37
40.135 -111.132 3.556 4247.09
40.135 -109.955 3.581 3627.32
40.135 -108.779 3.586 3200.71
40.135 -107.603 3.588 2781.75
40.135 -106.426 3.582 1648.59
40.135 -105.250 3.567 1483.40
40.135 -104.074 3.563 1148.72
40.135 -102.897 3.575 1027.95
40.135 -101.721 3.621 1129.82
40.135 -100.545 3.682 1044.18
40.135 -99.368 3.726 561.42
40.135 -98.192 3.779 596.38
40.135 -97.015 3.815 468.51
40.135 -95.839 3.833 456.49
40.135 -94.663 3.828 274.68
40.135 -93.486 3.828 558.40
40.135 -92.310 3.820 444.54
40.135 -91.134 3.806 509.45
40.135 -89.957 3.784 418.16
40.135 -88.781 3.762 315.66
40.135 -87.605 3.723 149.82
40.135 -86.428 3.690 99.88
40.135 -85.252 3.683 115.86
40.135 -84.076 3.711 268.70
40.135 -82.899 3.766 346.82
40.135 -81.723 3.817 360.58
40.135 -80.546 3.821 257.70
40.135 -79.370 3.797 318.68
40.135 -78.194 3.739 412.58
40.135 -77.017 3.673 88.92
40.135 -75.841 3.619 0.00
40.135 -74.665 3.587 0.00
40.135 -73.488 3.567 0.00
40.135 -72.312 3.554 0.00
40.135 -71.136 3.553 0.00
40.135 -69.959 3.556 0.00
40.135 -68.783 3.557 0.00
40.135 -67.607 3.556 0.00
40.135 -66.430 3.556 0.00
41.034 -132.752 3.557 0.00
41.034 -131.560 3.556 0.00
41.034 -130.368 3.553 0.00
41.034 -129.175 3.561 0.00
41.034 -127.983 3.590 0.00
41.034 -126.791 3.562 0.00
41.034 -125.598 3.455 0.00
41.034 -124.406 3.383 762.62
41.034 -123.214 3.410 1716.57
41.034 -122.022 3.475 3684.44
41.034 -120.829 3.554 2764.88
41.034 -119.637 3.534 3382.38
41.034 -118.445 3.414 2059.85
41.034 -117.252 3.340 1704.99
41.034 -116.060 3.316 2552.49
41.034 -114.868 3.330 6792.00
41.034 -113.676 3.442 6106.50
41.034 -112.483 3.576 5406.76
41.034 -111.291 3.654 4248.54
41.034 -110.099 3.666 3621.12
41.034 -108.906 3.686 3265.18
41.034 -107.714 3.694 2189.64
41.034 -106.522 3.670 1862.85
41.034 -105.330 3.629 1606.35
41.034 -104.137 3.631 1509.93
41.034 -102.945 3.646 1635.70
41.034 -101.753 3.724 996.51
41.034 -100.560 3.781 496.71
41.034 -99.368 3.821 372.63
41.034 -98.176 3.860 297.01
41.034 -96.984 3.894 415.55
41.034 -95.791 3.900 417.57
41.034 -94.599 3.887 534.45
41.034 -93.407 3.849 295.68
41.034 -92.215 3.821 406.55
41.034 -91.022 3.805 319.68
41.034 -89.830 3.773 155.85
41.034 -88.638 3.740 18.98
41.034 -87.445 3.718 170.82
41.034 -86.253 3.707 257.72
41.034 -85.061 3.713 285.69
41.034 -83.869 3.744 308.67
41.034 -82.676 3.799 629.38
41.034 -81.484 3.842 711.29
41.034 -80.292 3.836 741.30
41.034 -79.099 3.816 720.33
41.034 -77.907 3.780 560.36
41.034 -76.715 3.719 393.60
41.034 -75.523 3.667 399.59
41.034 -74.330 3.625 344.48
41.034 -73.138 3.584 0.00
41.034 -71.946 3.560 0.00
41.034 -70.753 3.553 0.00
41.034 -69.561 3.555 0.00
41.034 -68.369 3.556 0.00
41.034 -67.177 3.556 0.00
41.034 -65.984 3.556 0.00
41.934 -133.219 3.556 0.00
41.934 -132.010 3.555 0.00
41.934 -130.801 3.557 0.00
41.934 -129.592 3.579 0.00
41.934 -128.383 3.584 0.00
41.934 -127.174 3.480 0.00
41.934 -125.965 3.363 102.91
41.934 -124.756 3.314 2250.37
41.934 -123.547 3.352 3579.04
41.934 -122.338 3.359 2565.92
41.934 -121.129 3.307 2762.87
41.934 -119.920 3.269 3012.16
41.934 -118.711 3.242 3544.50
41.934 -117.502 3.207 3427.28
41.934 -116.293 3.221 4877.33
41.934 -115.085 3.280 7331.83
41.934 -113.876 3.397 5301.50
41.934 -112.667 3.512 5520.72
41.934 -111.458 3.573 5213.91
41.934 -110.249 3.605 5178.07
41.934 -109.040 3.688 4270.17
41.934 -107.831 3.760 3419.35
41.934 -106.622 3.782 2751.95
41.934 -105.413 3.788 2250.84
41.934 -104.204 3.806 1563.41
41.934 -102.995 3.823 1209.74
41.934 -101.786 3.878 1167.05
41.934 -100.577 3.888 1402.91
41.934 -99.368 3.907 1395.07
41.934 -98.159 3.919 1323.97
41.934 -96.950 3.923 1313.00
41.934 -95.741 3.914 1144.32
41.934 -94.532 3.885 1164.80
41.934 -93.323 3.856 1012.80
41.934 -92.115 3.832 689.28
41.934 -90.906 3.788 708.26
41.934 -89.697 3.751 790.21
41.934 -88.488 3.728 783.22
41.934 -87.279 3.734 703.30
41.934 -86.070 3.745 638.37
41.934 -84.861 3.745 687.34
41.934 -83.652 3.741 808.46
41.934 -82.443 3.759 393.63
41.934 -81.234 3.791 383.64
41.934 -80.025 3.809 285.88
41.934 -78.816 3.804 338.68
41.934 -77.607 3.798 449.58
41.934 -76.398 3.774 383.50
41.934 -75.189 3.709 274.71
41.934 -73.980 3.650 28.97
41.934 -72.771 3.600 0.00
41.934 -71.562 3.566 0.00
41.934 -70.353 3.554 0.00
41.934 -69.145 3.555 0.00
41.934 -67.936 3.556 0.00
41.934 -66.727 3.556 0.00
41.934 -65.518 3.556 0.00
42.833 -133.707 3.556 0.00
42.833 -132.481 3.556 0.00
42.833 -131.254 3.563 0.00
42.833 -130.028 3.575 0.00
42.833 -128.802 3.528 0.00
42.833 -127.575 3.396 0.00
42.833 -126.349 3.256 2165.85
42.833 -125.122 3.226 5380.51
42.833 -123.896 3.208 3562.36
42.833 -122.670 3.163 3860.66
42.833 -121.443 3.134 4092.98
42.833 -120.217 3.157 4467.74
42.833 -118.990 3.220 4381.45
42.833 -117.764 3.226 5136.93
42.833 -116.538 3.187 8321.82
42.833 -115.311 3.201 6202.49
42.833 -114.085 3.309 5528.70
42.833 -112.858 3.418 4555.37
42.833 -111.632 3.475 4242.63
42.833 -110.406 3.558 2861.26
42.833 -109.179 3.665 2093.71
42.833 -107.953 3.752 2023.86
42.833 -106.727 3.781 2054.85
42.833 -105.500 3.803 1704.85
42.833 -104.274 3.831 1573.01
42.833 -103.047 3.869 1529.50
42.833 -101.821 3.919 1536.50
42.833 -100.595 3.923 1148.81
42.833 -99.368 3.914 845.13
42.833 -98.142 3.908 816.18
42.833 -96.915 3.885 677.31
42.833 -95.689 3.858 927.20
42.833 -94.463 3.836 926.43
42.833 -93.236 3.801 738.62
42.833 -92.010 3.769 736.90
42.833 -90.783 3.744 734.37
42.833 -89.557 3.724 380.26
42.833 -88.331 3.712 580.07
42.833 -87.104 3.722 524.53
42.833 -85.878 3.734 494.51
42.833 -84.652 3.732 399.60
42.833 -83.425 3.729 68.93
42.833 -82.199 3.731 179.83
42.833 -80.972 3.727 199.81
42.833 -79.746 3.720 419.58
42.833 -78.520 3.709 441.56
42.833 -77.293 3.726 399.60
42.833 -76.067 3.757 461.13
42.833 -74.840 3.735 338.51
42.833 -73.614 3.672 253.74
42.833 -72.388 3.619 105.88
42.833 -71.161 3.578 28.54
42.833 -69.935 3.558 0.00
42.833 -68.708 3.555 0.00
42.833 -67.482 3.556 0.00
42.833 -66.256 3.557 0.00
42.833 -65.029 3.556 0.00
43.732 -134.219 3.556 0.00
43.732 -132.974 3.556 0.00
43.732 -131.729 3.560 0.00
43.732 -130.485 3.566 0.00
43.732 -129.240 3.525 0.00
43.732 -127.995 3.388 0.00
43.732 -126.751 3.195 15241.70
43.732 -125.506 3.113 9868.80
43.732 -124.261 3.119 6623.76
43.732 -123.017 3.163 4928.97
43.732 -121.772 3.227 4581.31
43.732 -120.527 3.300 3829.82
43.732 -119.283 3.391 4759.34
43.732 -118.038 3.391 6263.34
43.732 -116.793 3.322 8138.12
43.732 -115.549 3.267 5644.08
43.732 -114.304 3.322 4416.95
43.732 -113.059 3.378 3734.84
43.732 -111.815 3.408 2801.21
43.732 -110.570 3.493 2444.09
43.732 -109.325 3.581 2186.33
43.732 -108.081 3.613 2072.02
43.732 -106.836 3.619 1304.48
43.732 -105.591 3.652 929.52
43.732 -104.347 3.696 1279.99
43.732 -103.102 3.766 1156.77
43.732 -101.858 3.821 1100.80
43.732 -100.613 3.832 1080.85
43.732 -99.368 3.819 1127.85
43.732 -98.124 3.800 1297.65
43.732 -96.879 3.797 1272.14
43.732 -95.634 3.806 841.14
43.732 -94.390 3.796 671.33
43.732 -93.145 3.779 832.15
43.732 -91.900 3.755 679.31
43.732 -90.656 3.726 528.48
43.732 -89.411 3.709 501.51
43.732 -88.166 3.712 307.70
43.732 -86.922 3.722 433.19
43.732 -85.677 3.721 468.49
43.732 -84.432 3.707 569.37
43.732 -83.188 3.674 716.23
43.732 -81.943 3.636 681.26
43.732 -80.698 3.622 707.51
43.732 -79.454 3.631 531.68
43.732 -78.209 3.651 365.84
43.732 -76.964 3.699 412.06
43.732 -75.720 3.747 381.09
43.732 -74.475 3.755 627.36
43.732 -73.230 3.708 271.02
43.732 -71.986 3.635 212.79
43.732 -70.741 3.588 0.00
43.732 -69.496 3.559 0.00
43.732 -68.252 3.550 0.00
43.732 -67.007 3.554 0.00
43.732 -65.763 3.557 0.00
43.732 -64.518 3.557 0.00
44.632 -134.754 3.556 0.00
44.632 -133.490 3.556 0.00
44.632 -132.227 3.561 0.00
44.632 -130.963 3.574 0.00
44.632 -129.699 3.546 0.00
44.632 -128.435 3.459 0.00
44.632 -127.172 3.364 417.40
44.632 -125.908 3.327 1629.23
44.632 -124.644 3.362 2518.81
44.632 -123.380 3.444 3279.93
44.632 -122.116 3.532 3350.43
44.632 -120.853 3.569 3361.72
44.632 -119.589 3.579 4932.66
44.632 -118.325 3.538 7360.80
44.632 -117.061 3.443 7792.18
44.632 -115.797 3.426 5174.29
44.632 -114.534 3.425 4323.84
44.632 -113.270 3.400 3375.91
44.632 -112.006 3.443 2952.86
44.632 -110.742 3.523 2804.40
44.632 -109.479 3.569 2705.94
44.632 -108.215 3.566 1745.21
44.632 -106.951 3.562 1724.02
44.632 -105.687 3.578 1534.40
44.632 -104.423 3.636 1202.72
44.632 -103.160 3.707 1029.46
44.632 -101.896 3.743 984.97
44.632 -100.632 3.757 833.12
44.632 -99.368 3.773 961.98
44.632 -98.104 3.771 686.29
44.632 -96.841 3.750 439.54
44.632 -95.577 3.739 430.54
44.632 -94.313 3.742 487.47
44.632 -93.049 3.750 460.52
44.632 -91.785 3.743 439.56
44.632 -90.522 3.725 434.57
44.632 -89.258 3.706 583.43
44.632 -87.994 3.695 582.43
44.632 -86.730 3.677 443.56
44.632 -85.467 3.667 556.44
44.632 -84.203 3.670 408.47
44.632 -82.939 3.674 217.77
44.632 -81.675 3.677 129.85
44.632 -80.411 3.691 220.76
44.632 -79.148 3.720 263.73
44.632 -77.884 3.751 290.71
44.632 -76.620 3.790 430.13
44.632 -75.356 3.807 529.41
44.632 -74.092 3.787 287.56
44.632 -72.829 3.744 192.77
44.632 -71.565 3.670 92.08
44.632 -70.301 3.603 148.86
44.632 -69.037 3.570 0.00
44.632 -67.773 3.554 0.00
44.632 -66.510 3.554 0.00
44.632 -65.246 3.556 0.00
44.632 -63.982 3.557 0.00
45.531 -135.316 3.556 0.00
45.531 -134.032 3.556 0.00
45.531 -132.748 3.555 0.00
45.531 -131.464 3.568 0.00
45.531 -130.180 3.578 0.00
45.531 -128.897 3.536 4.00
45.531 -127.613 3.521 311.66
45.531 -126.329 3.586 130.37
45.531 -125.045 3.710 380.20
45.531 -123.761 3.771 1146.68
45.531 -122.477 3.806 1766.87
45.531 -121.193 3.746 3452.55
45.531 -119.910 3.641 6344.81
45.531 -118.626 3.552 9114.09
45.531 -117.342 3.536 5934.47
45.531 -116.058 3.555 4954.24
45.531 -114.774 3.535 3631.02
45.531 -113.490 3.520 3260.00
45.531 -112.207 3.576 3303.34
45.531 -110.923 3.637 2513.61
45.531 -109.639 3.663 1893.31
45.531 -108.355 3.644 1877.54
45.531 -107.071 3.640 1646.56
45.531 -105.787 3.656 1289.63
45.531 -104.504 3.703 1055.34
45.531 -103.220 3.756 776.31
45.531 -101.936 3.771 666.33
45.531 -100.652 3.780 610.18
45.531 -99.368 3.777 439.57
45.531 -98.084 3.756 410.59
45.531 -96.801 3.727 512.47
45.531 -95.517 3.702 486.50
45.531 -94.233 3.684 379.62
45.531 -92.949 3.673 358.63
45.531 -91.665 3.674 458.51
45.531 -90.381 3.681 468.50
45.531 -89.097 3.690 314.66
45.531 -87.814 3.693 306.66
45.531 -86.530 3.684 418.54
45.531 -85.246 3.677 347.62
45.531 -83.962 3.689 394.58
45.531 -82.678 3.708 393.59
45.531 -81.394 3.734 432.56
45.531 -80.111 3.770 382.60
45.531 -78.827 3.803 410.55
45.531 -77.543 3.811 472.47
45.531 -76.259 3.798 365.58
45.531 -74.975 3.782 231.74
45.531 -73.691 3.753 88.90
45.531 -72.408 3.719 61.93
45.531 -71.124 3.677 142.83
45.531 -69.840 3.628 223.30
45.531 -68.556 3.584 6.26
45.531 -67.272 3.561 0.00
45.531 -65.988 3.555 0.00
45.531 -64.705 3.556 0.00
45.531 -63.421 3.556 0.00
46.431 -135.904 3.556 0.00
46.431 -134.600 3.556 0.00
46.431 -133.295 3.552 0.00
46.431 -131.990 3.552 0.00
46.431 -130.685 3.565 0.00
46.431 -129.380 3.561 108.88
46.431 -128.075 3.562 208.77
46.431 -126.770 3.636 259.80
46.431 -125.466 3.698 562.44
46.431 -124.161 3.709 860.26
46.431 -122.856 3.720 1705.53
46.431 -121.551 3.647 4573.99
46.431 -120.246 3.504 7443.02
46.431 -118.941 3.442 7309.58
46.431 -117.636 3.483 4695.91
46.431 -116.331 3.535 3533.15
46.431 -115.027 3.569 3562.50
46.431 -113.722 3.632 3556.96
46.431 -112.417 3.671 2474.92
46.431 -111.112 3.690 2205.42
46.431 -109.807 3.686 2001.04
46.431 -108.502 3.675 1977.84
46.431 -107.197 3.661 1696.36
46.431 -105.893 3.663 1547.74
46.431 -104.588 3.689 1239.21
46.431 -103.283 3.744 1192.25
46.431 -101.978 3.752 631.94
46.431 -100.673 3.732 424.55
46.431 -99.368 3.727 446.51
46.431 -98.063 3.713 401.55
46.431 -96.758 3.690 386.59
46.431 -95.454 3.676 400.58
46.431 -94.149 3.664 395.58
46.431 -92.844 3.658 365.62
46.431 -91.539 3.652 298.70
46.431 -90.234 3.654 297.70
46.431 -88.929 3.659 331.67
46.431 -87.624 3.661 389.62
46.431 -86.320 3.667 348.65
46.431 -85.015 3.689 283.71
46.431 -83.710 3.722 195.79
46.431 -82.405 3.754 195.79
46.431 -81.100 3.780 217.75
46.431 -79.795 3.789 217.74
46.431 -78.490 3.784 216.76
46.431 -77.185 3.779 269.71
46.431 -75.881 3.763 193.79
46.431 -74.576 3.734 95.89
46.431 -73.271 3.706 145.83
46.431 -71.966 3.677 128.85
46.431 -70.661 3.644 47.94
46.431 -69.356 3.607 0.00
46.431 -68.051 3.573 0.00
46.431 -66.747 3.555 0.00
46.431 -65.442 3.554 0.00
46.431 -64.137 3.556 0.00
46.431 -62.832 3.556 0.00
47.330 -136.522 3.554 0.00
47.330 -135.195 3.552 0.00
47.330 -133.868 3.554 0.00
47.330 -132.541 3.558 0.00
47.330 -131.214 3.570 0.00
47.330 -129.887 3.586 186.80
47.330 -128.561 3.582 420.55
47.330 -127.234 3.605 459.59
47.330 -125.907 3.612 583.45
47.330 -124.580 3.593 1040.62
47.330 -123.253 3.570 3730.73
47.330 -121.926 3.497 7076.68
47.330 -120.599 3.400 7390.33
47.330 -119.272 3.366 5556.54
47.330 -117.945 3.402 3409.74
47.330 -116.618 3.470 3272.53
47.330 -115.291 3.525 3017.82
47.330 -113.964 3.591 2256.47
47.330 -112.637 3.606 2315.12
47.330 -111.311 3.610 1883.55
47.330 -109.984 3.638 1692.35
47.330 -108.657 3.649 1837.22
47.330 -107.330 3.648 1800.36
47.330 -106.003 3.678 1535.92
47.330 -104.676 3.705 1068.05
47.330 -103.349 3.723 740.12
47.330 -102.022 3.721 530.99
47.330 -100.695 3.701 505.48
47.330 -99.368 3.684 400.60
47.330 -98.041 3.676 399.60
47.330 -96.714 3.678 314.68
47.330 -95.387 3.685 298.70
47.330 -94.061 3.679 291.70
47.330 -92.734 3.662 198.79
47.330 -91.407 3.653 198.79
47.330 -90.080 3.654 198.79
47.330 -88.753 3.658 163.82
47.330 -87.426 3.668 98.88
47.330 -86.099 3.688 7.99
47.330 -84.772 3.717 11.99
47.330 -83.445 3.752 176.79
47.330 -82.118 3.774 299.65
47.330 -80.791 3.783 339.61
47.330 -79.464 3.792 310.66
47.330 -78.137 3.780 187.79
47.330 -76.811 3.746 42.95
47.330 -75.484 3.713 61.94
47.330 -74.157 3.692 96.91
47.330 -72.830 3.680 57.93
47.330 -71.503 3.661 116.86
47.330 -70.176 3.617 53.36
47.330 -68.849 3.576 0.00
47.330 -67.522 3.554 0.00
47.330 -66.195 3.551 0.00
47.330 -64.868 3.555 0.00
47.330 -63.541 3.555 0.00
47.330 -62.214 3.554 0.00
48.229 -137.170 3.555 0.00
48.229 -135.820 3.554 0.00
48.229 -134.470 3.565 0.00
48.229 -133.120 3.584 43.95
48.229 -131.770 3.607 140.85
48.229 -130.420 3.619 317.66
48.229 -129.070 3.579 578.38
48.229 -127.720 3.588 343.71
48.229 -126.370 3.582 769.30
48.229 -125.020 3.532 2824.21
48.229 -123.670 3.484 7721.31
48.229 -122.320 3.412 7853.27
48.229 -120.969 3.362 6249.80
48.229 -119.619 3.401 3801.92
48.229 -118.269 3.477 3600.93
48.229 -116.919 3.518 2472.27
48.229 -115.569 3.527 1954.24
48.229 -114.219 3.516 1996.01
48.229 -112.869 3.515 1799.22
48.229 -111.519 3.519 1902.20
48.229 -110.169 3.558 1835.37
48.229 -108.819 3.626 1599.38
48.229 -107.469 3.669 1330.68
48.229 -106.119 3.665 979.05
48.229 -104.769 3.663 812.21
48.229 -103.418 3.662 602.38
48.229 -102.068 3.651 352.14
48.229 -100.718 3.637 300.70
48.229 -99.368 3.628 300.70
48.229 -98.018 3.624 299.70
48.229 -96.668 3.629 299.70
48.229 -95.318 3.650 208.62
48.229 -93.968 3.659 199.77
48.229 -92.618 3.659 199.77
48.229 -91.268 3.673 135.15
48.229 -89.918 3.703 98.88
48.229 -88.568 3.730 99.88
48.229 -87.217 3.753 143.83
48.229 -85.867 3.775 231.73
48.229 -84.517 3.784 302.64
48.229 -83.167 3.785 306.66
48.229 -81.817 3.804 200.79
48.229 -80.467 3.816 61.94
48.229 -79.117 3.806 69.93
48.229 -77.767 3.771 209.18
48.229 -76.417 3.725 193.80
48.229 -75.067 3.697 131.85
48.229 -73.717 3.686 133.84
48.229 -72.367 3.671 178.79
48.229 -71.017 3.632 71.92
48.229 -69.666 3.585 0.00
48.229 -68.316 3.556 0.00
48.229 -66.966 3.549 0.00
48.229 -65.616 3.553 0.00
48.229 -64.266 3.555 0.00
48.229 -62.916 3.554 0.00
48.229 -61.566 3.559 0.00
49.129 -137.851 3.576 0.00
49.129 -136.477 3.577 41.96
49.129 -135.103 3.593 133.86
49.129 -133.728 3.618 182.81
49.129 -132.354 3.631 269.72
49.129 -130.979 3.593 396.58
49.129 -129.605 3.545 317.68
49.129 -128.231 3.548 630.45
49.129 -126.856 3.513 1968.12
49.129 -125.482 3.469 8782.24
49.129 -124.107 3.417 8856.13
49.129 -122.733 3.383 6504.10
49.129 -121.359 3.393 5210.68
49.129 -119.984 3.472 3531.68
49.129 -118.610 3.531 2425.20
49.129 -117.235 3.564 2145.51
49.129 -115.861 3.585 1897.17
49.129 -114.487 3.552 1825.14
49.129 -113.112 3.531 1836.01
49.129 -111.738 3.539 1599.41
49.129 -110.363 3.554 1149.85
49.129 -108.989 3.583 830.20
49.129 -107.615 3.606 620.38
49.129 -106.240 3.621 638.38
49.129 -104.866 3.631 377.63
49.129 -103.491 3.630 212.05
49.129 -102.117 3.620 201.77
49.129 -100.743 3.613 200.76
49.129 -99.368 3.613 199.76
49.129 -97.994 3.616 99.88
49.129 -96.619 3.624 100.88
49.129 -95.245 3.649 99.88
49.129 -93.871 3.677 100.88
49.129 -92.496 3.702 99.88
49.129 -91.122 3.732 99.88
49.129 -89.747 3.776 198.77
49.129 -88.373 3.804 284.66
49.129 -86.999 3.818 345.60
49.129 -85.624 3.834 370.59
49.129 -84.250 3.852 352.61
49.129 -82.875 3.854 200.03
49.129 -81.501 3.841 217.77
49.129 -80.127 3.814 294.70
49.129 -78.752 3.770 223.77
49.129 -77.378 3.713 35.96
49.129 -76.003 3.668 67.92
49.129 -74.629 3.643 95.89
49.129 -73.255 3.627 56.93
49.129 -71.880 3.607 0.00
49.129 -70.506 3.581 0.00
49.129 -69.131 3.558 0.00
49.129 -67.757 3.550 0.00
49.129 -66.383 3.551 0.00
49.129 -65.008 3.554 0.00
49.129 -63.634 3.557 0.00
49.129 -62.259 3.561 0.00
49.129 -60.885 3.576 0.00
50.028 -138.567 3.613 210.80
50.028 -137.167 3.618 158.83
50.028 -135.767 3.620 137.86
50.028 -134.367 3.616 334.65
50.028 -132.967 3.599 159.83
50.028 -131.567 3.563 203.77
50.028 -130.167 3.518 523.52
50.028 -128.767 3.495 1236.88
50.028 -127.368 3.456 10275.77
50.028 -125.968 3.393 11139.87
50.028 -124.568 3.379 7457.36
50.028 -123.168 3.378 5768.05
50.028 -121.768 3.405 4045.06
50.028 -120.368 3.466 2644.45
50.028 -118.968 3.514 2439.64
50.028 -117.568 3.538 2372.68
50.028 -116.168 3.566 2046.02
50.028 -114.768 3.601 1515.50
50.028 -113.368 3.611 1215.80
50.028 -111.968 3.601 782.23
50.028 -110.568 3.587 592.45
50.028 -109.168 3.578 271.76
50.028 -107.768 3.567 108.91
50.028 -106.368 3.564 14.99
50.028 -104.968 3.567 0.00
50.028 -103.568 3.568 0.00
50.028 -102.168 3.567 0.00
50.028 -100.768 3.577 0.00
50.028 -99.368 3.597 1.00
50.028 -97.968 3.618 100.88
50.028 -96.568 3.638 100.88
50.028 -95.168 3.673 99.88
50.028 -93.768 3.718 181.79
50.028 -92.368 3.745 265.69
50.028 -90.968 3.757 340.60
50.028 -89.568 3.774 407.55
50.028 -88.168 3.806 320.65
50.028 -86.769 3.826 219.91
50.028 -85.369 3.826 190.30
50.028 -83.969 3.810 232.27
50.028 -82.569 3.782 195.58
50.028 -81.169 3.744 77.93
50.028 -79.769 3.709 15.98
50.028 -78.369 3.672 96.89
50.028 -76.969 3.631 96.89
50.028 -75.569 3.598 28.97
50.028 -74.169 3.580 0.00
50.028 -72.769 3.569 0.00
50.028 -71.369 3.559 0.00
50.028 -69.969 3.552 0.00
50.028 -68.569 3.552 0.00
50.028 -67.169 3.559 0.00
50.028 -65.769 3.563 0.00
50.028 -64.369 3.566 0.00
50.028 -62.969 3.573 66.94
50.028 -61.569 3.585 124.88
50.028 -60.169 3.602 125.88
50.927 -139.320 3.638 263.76
50.927 -137.893 3.632 268.75
50.927 -136.466 3.606 285.70
50.927 -135.040 3.594 2.00
50.927 -133.613 3.583 129.85
50.927 -132.186 3.559 291.69
50.927 -130.759 3.534 742.34
50.927 -129.332 3.537 13104.86
50.927 -127.905 3.466 15458.09
50.927 -126.478 3.435 8394.33
50.927 -125.052 3.414 6118.14
50.927 -123.625 3.385 4969.13
50.927 -122.198 3.430 3408.66
50.927 -120.771 3.493 2620.44
50.927 -119.344 3.542 1973.04
50.927 -117.917 3.553 1314.71
50.927 -116.490 3.558 919.11
50.927 -115.064 3.581 586.46
50.927 -113.637 3.605 224.81
50.927 -112.210 3.626 151.87
50.927 -110.783 3.635 102.89
50.927 -109.356 3.623 78.92
50.927 -107.929 3.601 0.00
50.927 -106.502 3.591 0.00
50.927 -105.076 3.589 0.00
50.927 -103.649 3.593 0.00
50.927 -102.222 3.607 0.00
50.927 -100.795 3.637 0.00
50.927 -99.368 3.677 16.98
50.927 -97.941 3.710 103.88
50.927 -96.514 3.720 193.77
50.927 -95.088 3.734 273.68
50.927 -93.661 3.764 327.64
50.927 -92.234 3.798 244.74
50.927 -90.807 3.814 175.36
50.927 -89.380 3.810 126.84
50.927 -87.953 3.801 201.51
50.927 -86.526 3.783 215.35
50.927 -85.100 3.750 129.88
50.927 -83.673 3.713 19.98
50.927 -82.246 3.678 83.90
50.927 -80.819 3.646 97.89
50.927 -79.392 3.622 81.90
50.927 -77.965 3.598 0.00
50.927 -76.538 3.578 0.00
50.927 -75.112 3.565 0.00
50.927 -73.685 3.560 0.00
50.927 -72.258 3.556 0.00
50.927 -70.831 3.556 0.00
50.927 -69.404 3.559 0.00
50.927 -67.977 3.569 112.89
50.927 -66.550 3.583 115.89
50.927 -65.124 3.591 118.89
50.927 -63.697 3.594 119.89
50.927 -62.270 3.601 84.92
50.927 -60.843 3.611 127.88
50.927 -59.416 3.617 129.88
51.827 -140.113 3.618 515.52
51.827 -138.658 3.611 79.92
51.827 -137.203 3.592 21.97
51.827 -135.747 3.579 155.82
51.827 -134.292 3.558 167.84
51.827 -132.837 3.573 339.66
51.827 -131.382 3.664 17236.48
51.827 -129.927 3.730 21611.50
51.827 -128.472 3.724 7681.61
51.827 -127.016 3.679 4842.35
51.827 -125.561 3.644 3349.69
51.827 -124.106 3.643 2154.87
51.827 -122.651 3.686 908.10
51.827 -121.196 3.712 496.53
51.827 -119.741 3.710 167.85
51.827 -118.285 3.686 73.94
51.827 -116.830 3.660 0.00
51.827 -115.375 3.647 87.91
51.827 -113.920 3.649 71.92
51.827 -112.465 3.673 0.00
51.827 -111.010 3.708 0.00
51.827 -109.554 3.740 24.97
51.827 -108.099 3.765 103.89
51.827 -106.644 3.772 103.89
51.827 -105.189 3.767 95.90
51.827 -103.734 3.764 121.87
51.827 -102.279 3.765 206.78
51.827 -100.823 3.778 278.68
51.827 -99.368 3.800 394.56
51.827 -97.913 3.811 307.66
51.827 -96.458 3.817 216.77
51.827 -95.003 3.815 171.66
51.827 -93.548 3.816 129.79
51.827 -92.092 3.814 222.50
51.827 -90.637 3.794 217.97
51.827 -89.182 3.757 136.87
51.827 -87.727 3.722 108.88
51.827 -86.272 3.696 180.79
51.827 -84.817 3.664 190.78
51.827 -83.361 3.634 191.77
51.827 -81.906 3.607 108.88
51.827 -80.451 3.590 96.91
51.827 -78.996 3.585 97.91
51.827 -77.541 3.584 99.91
51.827 -76.085 3.582 101.90
51.827 -74.630 3.581 103.90
51.827 -73.175 3.582 105.90
51.827 -71.720 3.583 107.90
51.827 -70.265 3.584 108.90
51.827 -68.810 3.587 111.90
51.827 -67.354 3.593 1.00
51.827 -65.899 3.607 109.90
51.827 -64.444 3.615 120.89
51.827 -62.989 3.615 122.89
51.827 -61.534 3.606 121.89
51.827 -60.079 3.593 261.76
51.827 -58.623 3.594 267.75
52.726 -140.948 3.603 83.92
52.726 -139.463 3.600 91.89
52.726 -137.978 3.575 132.84
52.726 -136.493 3.545 187.82
52.726 -135.008 3.541 199.82
52.726 -133.523 3.602 111.88
52.726 -132.038 3.769 440.04
52.726 -130.553 4.030 1249.95
52.726 -129.068 4.139 1179.05
52.726 -127.583 4.100 1575.68
52.726 -126.098 3.984 1346.26
52.726 -124.613 3.920 1141.30
52.726 -123.128 3.923 595.25
52.726 -121.643 3.915 393.01
52.726 -120.158 3.892 395.57
52.726 -118.673 3.866 385.58
52.726 -117.188 3.841 298.67
52.726 -115.703 3.826 246.74
52.726 -114.218 3.814 333.64
52.726 -112.733 3.821 412.55
52.726 -111.248 3.845 423.54
52.726 -109.763 3.870 406.56
52.726 -108.278 3.891 408.56
52.726 -106.793 3.903 408.56
52.726 -105.308 3.914 419.55
52.726 -103.823 3.923 393.21
52.726 -102.338 3.936 338.53
52.726 -100.853 3.941 253.66
52.726 -99.368 3.932 194.73
52.726 -97.883 3.903 222.50
52.726 -96.398 3.856 224.70
52.726 -94.913 3.799 188.90
52.726 -93.428 3.748 92.91
52.726 -91.943 3.718 64.92
52.726 -90.458 3.692 100.88
52.726 -88.973 3.655 99.88
52.726 -87.488 3.623 98.88
52.726 -86.003 3.602 8.99
52.726 -84.518 3.585 0.00
52.726 -83.033 3.570 0.00
52.726 -81.548 3.561 0.00
52.726 -80.063 3.562 0.00
52.726 -78.578 3.575 52.55
52.726 -77.093 3.590 100.91
52.726 -75.608 3.597 101.91
52.726 -74.123 3.602 104.90
52.726 -72.638 3.605 106.90
52.726 -71.153 3.609 108.90
52.726 -69.668 3.614 110.90
52.726 -68.183 3.612 113.89
52.726 -66.698 3.603 115.89
52.726 -65.213 3.590 103.90
52.726 -63.728 3.585 245.77
52.726 -62.243 3.583 251.77
52.726 -60.758 3.579 231.78
52.726 -59.273 3.577 0.00
52.726 -57.788 3.583 0.00
53.625 -141.829 3.593 187.78
53.625 -140.313 3.582 58.93
53.625 -138.796 3.550 267.75
53.625 -137.280 3.536 145.86
53.625 -135.763 3.525 0.00
53.625 -134.247 3.545 111.88
53.625 -132.730 3.654 168.86
53.625 -131.214 3.876 638.35
53.625 -129.697 4.086 1254.49
53.625 -128.181 4.045 887.05
53.625 -126.665 3.893 953.00
53.625 -125.148 3.857 290.67
53.625 -123.632 3.888 176.81
53.625 -122.115 3.918 308.14
53.625 -120.599 3.929 310.57
53.625 -119.082 3.942 322.97
53.625 -117.566 3.954 413.67
53.625 -116.049 3.951 404.88
53.625 -114.533 3.949 325.17
53.625 -113.016 3.942 321.18
53.625 -111.500 3.927 314.18
53.625 -109.983 3.920 300.40
53.625 -108.467 3.918 221.49
53.625 -106.951 3.915 222.69
53.625 -105.434 3.911 224.48
53.625 -103.918 3.903 221.05
53.625 -102.401 3.893 194.81
53.625 -100.885 3.879 250.73
53.625 -99.368 3.851 235.73
53.625 -97.852 3.816 204.76
53.625 -96.335 3.777 130.85
53.625 -94.819 3.733 99.88
53.625 -93.302 3.686 100.88
53.625 -91.786 3.649 34.96
53.625 -90.269 3.623 0.00
53.625 -88.753 3.593 0.00
53.625 -87.237 3.569 0.00
53.625 -85.720 3.556 0.00
53.625 -84.204 3.552 0.00
53.625 -82.687 3.550 0.00
53.625 -81.171 3.550 0.00
53.625 -79.654 3.552 0.00
53.625 -78.138 3.561 0.00
53.625 -76.621 3.568 0.00
53.625 -75.105 3.571 0.00
53.625 -73.588 3.574 102.59
53.625 -72.072 3.581 215.80
53.625 -70.555 3.592 219.80
53.625 -69.039 3.602 223.79
53.625 -67.523 3.597 229.79
53.625 -66.006 3.580 235.78
53.625 -64.490 3.567 145.86
53.625 -62.973 3.567 0.00
53.625 -61.457 3.574 0.00
53.625 -59.940 3.579 0.00
53.625 -58.424 3.581 32.96
53.625 -56.907 3.581 141.83
54.525 -142.759 3.560 175.81
54.525 -141.209 3.549 317.70
54.525 -139.660 3.543 57.95
54.525 -138.110 3.548 0.00
54.525 -136.560 3.547 0.00
54.525 -135.011 3.527 111.88
54.525 -133.461 3.531 426.61
54.525 -131.911 3.607 617.41
54.525 -130.362 3.711 848.67
54.525 -128.812 3.714 876.32
54.525 -127.262 3.675 910.07
54.525 -125.713 3.704 289.66
54.525 -124.163 3.728 129.85
54.525 -122.613 3.723 94.89
54.525 -121.064 3.715 13.98
54.525 -119.514 3.723 0.00
54.525 -117.964 3.742 0.00
54.525 -116.415 3.757 64.92
54.525 -114.865 3.764 98.88
54.525 -113.315 3.755 98.88
54.525 -111.766 3.737 98.88
54.525 -110.216 3.724 131.85
54.525 -108.666 3.721 209.77
54.525 -107.117 3.722 137.84
54.525 -105.567 3.720 100.88
54.525 -104.017 3.713 100.88
54.525 -102.468 3.698 100.88
54.525 -100.918 3.674 56.93
54.525 -99.368 3.646 0.00
54.525 -97.819 3.638 0.00
54.525 -96.269 3.658 74.91
54.525 -94.719 3.673 103.88
54.525 -93.170 3.664 103.88
54.525 -91.620 3.647 103.88
54.525 -90.070 3.630 103.88
54.525 -88.520 3.608 5.99
54.525 -86.971 3.595 0.00
54.525 -85.421 3.590 0.00
54.525 -83.871 3.589 0.00
54.525 -82.322 3.590 0.00
54.525 -80.772 3.590 0.00
54.525 -79.222 3.590 0.00
54.525 -77.673 3.592 0.00
54.525 -76.123 3.594 0.00
54.525 -74.573 3.596 0.00
54.525 -73.024 3.602 0.00
54.525 -71.474 3.613 0.00
54.525 -69.924 3.625 0.00
54.525 -68.375 3.631 77.91
54.525 -66.825 3.610 61.18
54.525 -65.275 3.585 0.00
54.525 -63.726 3.575 0.00
54.525 -62.176 3.578 0.00
54.525 -60.626 3.586 99.88
54.525 -59.077 3.589 134.84
54.525 -57.527 3.579 105.88
54.525 -55.977 3.562 0.00
55.424 -143.742 3.532 495.54
55.424 -142.157 3.535 0.00
55.424 -140.572 3.546 0.00
55.424 -138.988 3.556 0.00
55.424 -137.403 3.565 0.00
55.424 -135.818 3.555 365.65
55.424 -134.233 3.519 186.84
55.424 -132.648 3.514 1017.98
55.424 -131.064 3.535 516.46
55.424 -129.479 3.557 680.29
55.424 -127.894 3.622 602.53
55.424 -126.309 3.701 375.33
55.424 -124.725 3.709 152.83
55.424 -123.140 3.664 96.89
55.424 -121.555 3.620 114.86
55.424 -119.970 3.595 95.89
55.424 -118.385 3.592 96.89
55.424 -116.801 3.596 2.00
55.424 -115.216 3.598 0.00
55.424 -113.631 3.593 0.00
55.424 -112.046 3.583 0.00
55.424 -110.462 3.577 0.00
55.424 -108.877 3.578 0.00
55.424 -107.292 3.582 72.92
55.424 -105.707 3.584 110.88
55.424 -104.123 3.582 5.99
55.424 -102.538 3.575 0.00
55.424 -100.953 3.561 0.00
55.424 -99.368 3.547 0.00
55.424 -97.783 3.548 0.00
55.424 -96.199 3.566 0.00
55.424 -94.614 3.584 0.00
55.424 -93.029 3.591 0.00
55.424 -91.444 3.593 0.00
55.424 -89.860 3.603 0.00
55.424 -88.275 3.626 96.89
55.424 -86.690 3.640 102.88
55.424 -85.105 3.647 102.88
55.424 -83.520 3.649 101.88
55.424 -81.936 3.649 100.88
55.424 -80.351 3.648 100.88
55.424 -78.766 3.651 99.88
55.424 -77.181 3.657 99.88
55.424 -75.597 3.666 97.88
55.424 -74.012 3.676 97.89
55.424 -72.427 3.683 107.87
55.424 -70.842 3.688 189.78
55.424 -69.257 3.681 185.78
55.424 -67.673 3.653 108.87
55.424 -66.088 3.618 88.90
55.424 -64.503 3.598 120.86
55.424 -62.918 3.592 123.85
55.424 -61.334 3.589 127.85
55.424 -59.749 3.579 30.96
55.424 -58.164 3.562 0.00
55.424 -56.579 3.544 223.79
55.424 -54.995 3.534 293.73
56.324 -144.782 3.537 49.95
56.324 -143.160 3.543 0.00
56.324 -141.538 3.554 0.00
56.324 -139.916 3.561 0.00
56.324 -138.294 3.568 163.85
56.324 -136.672 3.569 286.72
56.324 -135.050 3.544 306.73
56.324 -133.428 3.498 827.17
56.324 -131.806 3.480 639.30
56.324 -130.184 3.491 705.27
56.324 -128.563 3.594 210.77
56.324 -126.941 3.694 173.32
56.324 -125.319 3.727 238.17
56.324 -123.697 3.705 138.85
56.324 -122.075 3.663 117.87
56.324 -120.453 3.623 97.88
56.324 -118.831 3.598 41.95
56.324 -117.209 3.590 94.89
56.324 -115.587 3.585 97.88
56.324 -113.965 3.578 97.89
56.324 -112.343 3.569 44.95
56.324 -110.722 3.564 0.00
56.324 -109.100 3.564 0.00
56.324 -107.478 3.565 0.00
56.324 -105.856 3.565 0.00
56.324 -104.234 3.561 105.88
56.324 -102.612 3.557 95.89
56.324 -100.990 3.552 0.00
56.324 -99.368 3.547 0.00
56.324 -97.746 3.547 0.00
56.324 -96.124 3.550 0.00
56.324 -94.502 3.553 0.00
56.324 -92.881 3.553 0.00
56.324 -91.259 3.555 0.00
56.324 -89.637 3.565 0.00
56.324 -88.015 3.583 0.00
56.324 -86.393 3.598 0.00
56.324 -84.771 3.608 0.00
56.324 -83.149 3.613 0.00
56.324 -81.527 3.614 0.00
56.324 -79.905 3.615 0.00
56.324 -78.283 3.618 0.00
56.324 -76.661 3.626 64.92
56.324 -75.040 3.640 115.97
56.324 -73.418 3.655 196.77
56.324 -71.796 3.658 186.78
56.324 -70.174 3.652 107.87
56.324 -68.552 3.640 110.87
56.324 -66.930 3.616 113.87
56.324 -65.308 3.587 28.97
56.324 -63.686 3.572 0.00
56.324 -62.064 3.570 0.00
56.324 -60.442 3.568 0.00
56.324 -58.820 3.556 0.00
56.324 -57.199 3.538 265.57
56.324 -55.577 3.537 61.94
56.324 -53.955 3.542 0.00
57.223 -145.883 3.551 0.00
57.223 -144.222 3.554 0.00
57.223 -142.561 3.560 0.00
57.223 -140.899 3.562 103.90
57.223 -139.238 3.569 249.77
57.223 -137.577 3.585 172.83
57.223 -135.916 3.568 682.10
57.223 -134.254 3.494 565.35
57.223 -132.593 3.457 463.51
57.223 -130.932 3.469 673.28
57.223 -129.271 3.559 140.84
57.223 -127.609 3.642 90.91
57.223 -125.948 3.688 93.68
57.223 -124.287 3.712 239.02
57.223 -122.626 3.702 126.87
57.223 -120.964 3.673 99.89
57.223 -119.303 3.641 76.91
57.223 -117.642 3.622 98.88
57.223 -115.981 3.607 67.92
57.223 -114.319 3.597 0.00
57.223 -112.658 3.594 53.94
57.223 -110.997 3.592 98.88
57.223 -109.336 3.590 98.88
57.223 -107.674 3.589 99.88
57.223 -106.013 3.586 99.88
57.223 -104.352 3.581 35.96
57.223 -102.691 3.580 14.98
57.223 -101.029 3.580 111.87
57.223 -99.368 3.580 92.89
57.223 -97.707 3.579 0.00
57.223 -96.046 3.577 0.00
57.223 -94.384 3.574 0.00
57.223 -92.723 3.570 0.00
57.223 -91.062 3.569 0.00
57.223 -89.401 3.571 0.00
57.223 -87.739 3.576 0.00
57.223 -86.078 3.581 0.00
57.223 -84.417 3.586 71.92
57.223 -82.756 3.590 97.88
57.223 -81.094 3.592 95.89
57.223 -79.433 3.591 96.89
57.223 -77.772 3.588 94.89
57.223 -76.111 3.582 29.96
57.223 -74.449 3.581 0.00
57.223 -72.788 3.584 0.00
57.223 -71.127 3.582 0.00
57.223 -69.466 3.577 0.00
57.223 -67.805 3.572 0.00
57.223 -66.143 3.566 0.00
57.223 -64.482 3.557 0.00
57.223 -62.821 3.554 0.00
57.223 -61.160 3.556 0.00
57.223 -59.498 3.556 0.00
57.223 -57.837 3.553 0.00
57.223 -56.176 3.548 0.00
57.223 -54.515 3.549 0.00
57.223 -52.853 3.553 0.00
58.122 -147.051 3.562 0.00
58.122 -145.348 3.562 0.00
58.122 -143.645 3.560 78.93
58.122 -141.942 3.560 295.73
58.122 -140.239 3.583 0.00
58.122 -138.537 3.607 452.56
58.122 -136.834 3.566 507.48
58.122 -135.131 3.485 672.09
58.122 -133.428 3.443 622.28
58.122 -131.725 3.483 309.71
58.122 -130.022 3.550 124.85
58.122 -128.319 3.595 36.96
58.122 -126.616 3.628 71.93
58.122 -124.913 3.662 47.93
58.122 -123.210 3.694 243.92
58.122 -121.507 3.689 109.89
58.122 -119.804 3.672 97.90
58.122 -118.101 3.649 96.90
58.122 -116.398 3.623 30.96
58.122 -114.695 3.612 98.88
58.122 -112.992 3.607 100.88
58.122 -111.289 3.600 18.98
58.122 -109.586 3.594 0.00
58.122 -107.883 3.589 0.00
58.122 -106.180 3.584 0.00
58.122 -104.477 3.588 63.92
58.122 -102.774 3.595 99.88
58.122 -101.071 3.599 99.88
58.122 -99.368 3.600 118.86
58.122 -97.665 3.601 211.75
58.122 -95.962 3.600 210.75
58.122 -94.259 3.597 104.88
58.122 -92.556 3.594 99.88
58.122 -90.853 3.592 99.88
58.122 -89.150 3.591 98.88
58.122 -87.447 3.589 98.88
58.122 -85.744 3.584 97.88
58.122 -84.041 3.577 25.97
58.122 -82.339 3.572 0.00
58.122 -80.636 3.571 0.00
58.122 -78.933 3.569 0.00
58.122 -77.230 3.566 0.00
58.122 -75.527 3.559 0.00
58.122 -73.824 3.555 0.00
58.122 -72.121 3.554 0.00
58.122 -70.418 3.552 0.00
58.122 -68.715 3.551 0.00
58.122 -67.012 3.552 0.00
58.122 -65.309 3.553 0.00
58.122 -63.606 3.553 0.00
58.122 -61.903 3.554 0.00
58.122 -60.200 3.555 0.00
58.122 -58.497 3.556 0.00
58.122 -56.794 3.556 0.00
58.122 -55.091 3.555 0.00
58.122 -53.388 3.556 0.00
58.122 -51.685 3.560 0.00
59.022 -148.292 3.570 0.00
59.022 -146.545 3.571 86.37
59.022 -144.798 3.561 304.72
59.022 -143.050 3.573 0.00
59.022 -141.303 3.607 175.84
59.022 -139.556 3.619 598.39
59.022 -137.808 3.549 459.50
59.022 -136.061 3.483 364.62
59.022 -134.314 3.458 781.00
59.022 -132.567 3.511 119.88
59.022 -130.819 3.558 105.88
59.022 -129.072 3.571 0.00
59.022 -127.325 3.585 55.94
59.022 -125.577 3.611 53.95
59.022 -123.830 3.642 3.52
59.022 -122.083 3.677 211.82
59.022 -120.336 3.682 143.86
59.022 -118.588 3.668 71.92
59.022 -116.841 3.649 101.89
59.022 -115.094 3.627 79.92
59.022 -113.346 3.611 0.00
59.022 -111.599 3.608 80.90
59.022 -109.852 3.602 100.88
59.022 -108.105 3.594 100.88
59.022 -106.357 3.585 10.99
59.022 -104.610 3.586 0.00
59.022 -102.863 3.590 0.00
59.022 -101.115 3.589 0.00
59.022 -99.368 3.583 0.00
59.022 -97.621 3.580 0.00
59.022 -95.874 3.579 0.00
59.022 -94.126 3.578 55.24
59.022 -92.379 3.576 0.00
59.022 -90.632 3.575 0.00
59.022 -88.884 3.575 0.00
59.022 -87.137 3.574 0.00
59.022 -85.390 3.570 0.00
59.022 -83.643 3.563 0.00
59.022 -81.895 3.559 0.00
59.022 -80.148 3.557 0.00
59.022 -78.401 3.555 0.00
59.022 -76.654 3.555 0.00
59.022 -74.906 3.554 0.00
59.022 -73.159 3.553 0.00
59.022 -71.412 3.553 0.00
59.022 -69.664 3.554 0.00
59.022 -67.917 3.554 0.00
59.022 -66.170 3.554 0.00
59.022 -64.423 3.555 0.00
59.022 -62.675 3.556 0.00
59.022 -60.928 3.556 0.00
59.022 -59.181 3.556 0.00
59.022 -57.433 3.557 0.00
59.022 -55.686 3.557 0.00
59.022 -53.939 3.557 0.00
59.022 -52.192 3.557 0.00
59.022 -50.444 3.560 0.00
59.921 -149.612 3.572 44.66
59.921 -147.818 3.576 108.90
59.921 -146.023 3.575 0.00
59.921 -144.229 3.601 113.89
59.921 -142.434 3.631 497.51
59.921 -140.640 3.604 285.69
59.921 -138.845 3.546 503.66
59.921 -137.051 3.494 129.87
59.921 -135.257 3.489 384.62
59.921 -133.462 3.539 136.84
59.921 -131.668 3.566 91.91
59.921 -129.873 3.563 0.00
59.921 -128.079 3.564 0.00
59.921 -126.284 3.582 73.93
59.921 -124.490 3.602 36.96
59.921 -122.696 3.629 0.00
59.921 -120.901 3.662 159.85
59.921 -119.107 3.675 154.85
59.921 -117.312 3.666 105.89
59.921 -115.518 3.644 35.96
59.921 -113.724 3.628 102.89
59.921 -111.929 3.616 77.92
59.921 -110.135 3.606 0.00
59.921 -108.340 3.600 0.00
59.921 -106.546 3.598 89.89
59.921 -104.751 3.598 101.88
59.921 -102.957 3.595 101.88
59.921 -101.163 3.589 94.89
59.921 -99.368 3.581 0.00
59.921 -97.574 3.577 0.00
59.921 -95.779 3.577 0.00
59.921 -93.985 3.577 0.00
59.921 -92.191 3.576 0.00
59.921 -90.396 3.576 0.00
59.921 -88.602 3.577 0.00
59.921 -86.807 3.577 0.00
59.921 -85.013 3.577 0.00
59.921 -83.218 3.576 0.00
59.921 -81.424 3.574 0.00
59.921 -79.630 3.569 0.00
59.921 -77.835 3.559 0.00
59.921 -76.041 3.555 0.00
59.921 -74.246 3.555 0.00
59.921 -72.452 3.555 0.00
59.921 -70.657 3.556 0.00
59.921 -68.863 3.556 0.00
59.921 -67.069 3.556 0.00
59.921 -65.274 3.556 0.00
59.921 -63.480 3.556 0.00
59.921 -61.685 3.556 0.00
59.921 -59.891 3.556 0.00
59.921 -58.097 3.556 0.00
59.921 -56.302 3.556 0.00
59.921 -54.508 3.557 0.00
59.921 -52.713 3.556 0.00
59.921 -50.919 3.556 0.00
59.921 -49.124 3.557 0.00
60.820 -151.018 3.561 0.00
60.820 -149.173 3.565 0.00
60.820 -147.329 3.589 93.91
60.820 -145.484 3.625 404.61
60.820 -143.639 3.620 235.75
60.820 -141.795 3.576 481.48
60.820 -139.950 3.543 236.76
60.820 -138.106 3.511 208.81
60.820 -136.261 3.504 291.69
60.820 -134.416 3.550 130.85
60.820 -132.572 3.567 100.91
60.820 -130.727 3.561 0.00
60.820 -128.882 3.559 0.00
60.820 -127.038 3.567 0.00
60.820 -125.193 3.583 89.91
60.820 -123.348 3.596 20.98
60.820 -121.504 3.615 0.00
60.820 -119.659 3.646 100.91
60.820 -117.815 3.669 183.83
60.820 -115.970 3.663 91.90
60.820 -114.125 3.643 73.92
60.820 -112.281 3.624 24.97
60.820 -110.436 3.618 103.89
60.820 -108.591 3.611 93.90
60.820 -106.747 3.604 0.00
60.820 -104.902 3.599 0.00
60.820 -103.057 3.591 0.00
60.820 -101.213 3.587 6.99
60.820 -99.368 3.592 101.88
60.820 -97.524 3.594 101.88
60.820 -95.679 3.595 101.88
60.820 -93.834 3.595 101.88
60.820 -91.990 3.596 100.88
60.820 -90.145 3.597 100.88
60.820 -88.300 3.597 99.88
60.820 -86.456 3.598 99.88
60.820 -84.611 3.599 99.88
60.820 -82.766 3.599 98.88
60.820 -80.922 3.597 97.88
60.820 -79.077 3.587 94.79
60.820 -77.233 3.567 0.00
60.820 -75.388 3.556 0.00
60.820 -73.543 3.555 0.00
60.820 -71.699 3.555 0.00
60.820 -69.854 3.556 0.00
60.820 -68.009 3.556 0.00
60.820 -66.165 3.557 0.00
60.820 -64.320 3.557 0.00
60.820 -62.475 3.556 0.00
60.820 -60.631 3.556 0.00
60.820 -58.786 3.556 0.00
60.820 -56.942 3.556 0.00
60.820 -55.097 3.556 0.00
60.820 -53.252 3.557 0.00
60.820 -51.408 3.556 0.00
60.820 -49.563 3.555 0.00
60.820 -47.718 3.555 0.00
61.720 -152.518 3.561 0.00
61.720 -150.620 3.566 0.00
61.720 -148.722 3.597 227.30
61.720 -146.824 3.620 345.64
61.720 -144.926 3.591 149.82
61.720 -143.027 3.551 596.38
61.720 -141.129 3.531 0.00
61.720 -139.231 3.518 291.73
61.720 -137.333 3.509 218.74
61.720 -135.434 3.549 133.84
61.720 -133.536 3.564 33.97
61.720 -131.638 3.561 65.94
61.720 -129.740 3.557 0.00
61.720 -127.842 3.561 0.00
61.720 -125.943 3.571 0.00
61.720 -124.045 3.584 106.89
61.720 -122.147 3.587 5.99
61.720 -120.249 3.601 0.00
61.720 -118.350 3.631 34.97
61.720 -116.452 3.663 219.79
61.720 -114.554 3.661 69.93
61.720 -112.656 3.646 106.89
61.720 -110.758 3.624 36.96
61.720 -108.859 3.610 9.99
61.720 -106.961 3.612 103.89
61.720 -105.063 3.611 104.89
61.720 -103.165 3.601 34.96
61.720 -101.266 3.596 0.00
61.720 -99.368 3.595 0.00
61.720 -97.470 3.588 0.00
61.720 -95.572 3.580 0.00
61.720 -93.674 3.577 0.00
61.720 -91.775 3.577 0.00
61.720 -89.877 3.576 0.00
61.720 -87.979 3.573 0.00
61.720 -86.081 3.572 0.00
61.720 -84.182 3.573 0.00
61.720 -82.284 3.574 0.00
61.720 -80.386 3.574 0.00
61.720 -78.488 3.568 0.00
61.720 -76.590 3.557 0.00
61.720 -74.691 3.554 0.00
61.720 -72.793 3.557 0.00
61.720 -70.895 3.558 0.00
61.720 -68.997 3.555 0.00
61.720 -67.098 3.555 0.00
61.720 -65.200 3.556 0.00
61.720 -63.302 3.556 0.00
61.720 -61.404 3.556 0.00
61.720 -59.505 3.556 0.00
61.720 -57.607 3.556 0.00
61.720 -55.709 3.556 0.00
61.720 -53.811 3.557 0.00
61.720 -51.913 3.556 0.00
61.720 -50.014 3.555 0.00
61.720 -48.116 3.554 0.00
61.720 -46.218 3.559 0.00
62.619 -154.123 3.579 0.00
62.619 -152.167 3.584 80.83
62.619 -150.212 3.596 296.68
62.619 -148.256 3.588 96.89
62.619 -146.301 3.564 321.64
62.619 -144.345 3.531 359.65
62.619 -142.390 3.525 151.86
62.619 -140.434 3.523 151.86
62.619 -138.479 3.516 351.59
62.619 -136.523 3.545 4.99
62.619 -134.567 3.560 0.00
62.619 -132.612 3.562 99.91
62.619 -130.656 3.558 0.00
62.619 -128.701 3.557 0.00
62.619 -126.745 3.563 0.00
62.619 -124.790 3.574 0.00
62.619 -122.834 3.583 112.88
62.619 -120.879 3.580 0.00
62.619 -118.923 3.589 0.00
62.619 -116.968 3.618 0.00
62.619 -115.012 3.655 181.83
62.619 -113.057 3.664 122.89
62.619 -111.101 3.648 69.93
62.619 -109.146 3.625 107.89
62.619 -107.190 3.608 8.99
62.619 -105.235 3.602 0.00
62.619 -103.279 3.606 69.93
62.619 -101.324 3.613 103.90
62.619 -99.368 3.612 104.90
62.619 -97.413 3.601 34.97
62.619 -95.457 3.591 0.00
62.619 -93.502 3.587 0.00
62.619 -91.546 3.584 0.00
62.619 -89.591 3.577 0.00
62.619 -87.635 3.565 0.00
62.619 -85.680 3.557 0.00
62.619 -83.724 3.555 0.00
62.619 -81.769 3.556 0.00
62.619 -79.813 3.557 0.00
62.619 -77.858 3.556 0.00
62.619 -75.902 3.557 0.00
62.619 -73.946 3.564 0.00
62.619 -71.991 3.574 0.00
62.619 -70.035 3.571 0.00
62.619 -68.080 3.561 0.00
62.619 -66.124 3.556 0.00
62.619 -64.169 3.556 0.00
62.619 -62.213 3.556 0.00
62.619 -60.258 3.556 0.00
62.619 -58.302 3.556 0.00
62.619 -56.347 3.556 0.00
62.619 -54.391 3.556 0.00
62.619 -52.436 3.556 0.00
62.619 -50.480 3.555 0.00
62.619 -48.525 3.554 0.00
62.619 -46.569 3.557 0.00
62.619 -44.614 3.571 0.00
63.518 -155.841 3.607 75.91
63.518 -153.824 3.607 158.81
63.518 -151.807 3.583 0.00
63.518 -149.790 3.565 181.85
63.518 -147.773 3.548 221.57
63.518 -145.757 3.522 253.75
63.518 -143.740 3.526 317.70
63.518 -141.723 3.530 0.00
63.518 -139.706 3.526 349.59
63.518 -137.689 3.545 11.99
63.518 -135.672 3.558 0.00
63.518 -133.655 3.562 55.95
63.518 -131.638 3.560 44.96
63.518 -129.622 3.556 0.00
63.518 -127.605 3.556 0.00
63.518 -125.588 3.565 0.00
63.518 -123.571 3.577 7.99
63.518 -121.554 3.582 105.89
63.518 -119.537 3.574 0.00
63.518 -117.520 3.579 0.00
63.518 -115.503 3.605 0.00
63.518 -113.486 3.642 98.91
63.518 -111.470 3.664 212.80
63.518 -109.453 3.649 5.99
63.518 -107.436 3.631 98.90
63.518 -105.419 3.611 105.89
63.518 -103.402 3.596 0.00
63.518 -101.385 3.594 0.00
63.518 -99.368 3.597 0.00
63.518 -97.351 3.607 69.93
63.518 -95.334 3.615 104.90
63.518 -93.318 3.617 103.90
63.518 -91.301 3.616 104.90
63.518 -89.284 3.609 102.90
63.518 -87.267 3.595 6.99
63.518 -85.250 3.587 0.00
63.518 -83.233 3.584 0.00
63.518 -81.216 3.583 0.00
63.518 -79.199 3.583 0.00
63.518 -77.182 3.584 0.00
63.518 -75.166 3.587 0.00
63.518 -73.149 3.594 5.00
63.518 -71.132 3.601 94.91
63.518 -69.115 3.588 61.15
63.518 -67.098 3.567 0.00
63.518 -65.081 3.558 0.00
63.518 -63.064 3.556 0.00
63.518 -61.047 3.556 0.00
63.518 -59.030 3.556 0.00
63.518 -57.014 3.556 0.00
63.518 -54.997 3.556 0.00
63.518 -52.980 3.556 0.00
63.518 -50.963 3.556 0.00
63.518 -48.946 3.556 0.00
63.518 -46.929 3.560 0.00
63.518 -44.912 3.573 0.00
63.518 -42.895 3.587 15.98
64.418 -157.686 3.612 264.69
64.418 -155.603 3.600 0.00
64.418 -153.520 3.569 0.00
64.418 -151.437 3.553 28.12
64.418 -149.355 3.542 0.00
64.418 -147.272 3.528 471.78
64.418 -145.189 3.536 121.89
64.418 -143.106 3.544 35.96
64.418 -141.023 3.541 210.71
64.418 -138.941 3.550 11.81
64.418 -136.858 3.557 0.00
64.418 -134.775 3.560 0.00
64.418 -132.692 3.562 99.91
64.418 -130.610 3.558 0.00
64.418 -128.527 3.554 0.00
64.418 -126.444 3.557 0.00
64.418 -124.361 3.567 0.00
64.418 -122.279 3.580 20.98
64.418 -120.196 3.582 93.90
64.418 -118.113 3.571 0.00
64.418 -116.030 3.570 0.00
64.418 -113.948 3.589 0.00
64.418 -111.865 3.623 8.99
64.418 -109.782 3.660 216.80
64.418 -107.699 3.661 109.90
64.418 -105.616 3.640 2.00
64.418 -103.534 3.618 108.87
64.418 -101.451 3.598 107.87
64.418 -99.368 3.585 12.98
64.418 -97.285 3.587 0.00
64.418 -95.203 3.590 0.00
64.418 -93.120 3.590 0.00
64.418 -91.037 3.591 0.00
64.418 -88.954 3.597 0.00
64.418 -86.872 3.610 95.91
64.418 -84.789 3.617 101.91
64.418 -82.706 3.621 101.91
64.418 -80.623 3.621 99.91
64.418 -78.541 3.621 99.91
64.418 -76.458 3.619 97.91
64.418 -74.375 3.617 97.91
64.418 -72.292 3.609 90.92
64.418 -70.210 3.591 0.00
64.418 -68.127 3.575 0.00
64.418 -66.044 3.561 0.00
64.418 -63.961 3.555 0.00
64.418 -61.878 3.556 0.00
64.418 -59.796 3.556 0.00
64.418 -57.713 3.556 0.00
64.418 -55.630 3.556 0.00
64.418 -53.547 3.556 0.00
64.418 -51.465 3.556 0.00
64.418 -49.382 3.556 0.00
64.418 -47.299 3.558 0.00
64.418 -45.216 3.568 0.00
64.418 -43.134 3.592 146.86
64.418 -41.051 3.596 136.84
65.317 -159.670 3.582 0.00
65.317 -157.516 3.573 0.00
65.317 -155.363 3.558 0.00
65.317 -153.209 3.553 0.00
65.317 -151.055 3.551 0.00
65.317 -148.902 3.546 0.00
65.317 -146.748 3.552 0.00
65.317 -144.595 3.561 151.82
65.317 -142.441 3.555 0.00
65.317 -140.287 3.555 0.00
65.317 -138.134 3.557 0.00
65.317 -135.980 3.559 0.00
65.317 -133.826 3.561 71.93
65.317 -131.673 3.561 27.97
65.317 -129.519 3.556 0.00
65.317 -127.365 3.554 0.00
65.317 -125.212 3.558 0.00
65.317 -123.058 3.569 0.00
65.317 -120.905 3.583 33.96
65.317 -118.751 3.583 81.91
65.317 -116.597 3.568 0.00
65.317 -114.444 3.561 0.00
65.317 -112.290 3.575 0.00
65.317 -110.136 3.609 0.00
65.317 -107.983 3.647 113.90
65.317 -105.829 3.666 223.79
65.317 -103.675 3.651 20.98
65.317 -101.522 3.628 0.00
65.317 -99.368 3.608 95.89
65.317 -97.215 3.594 108.87
65.317 -95.061 3.583 70.92
65.317 -92.907 3.576 0.00
65.317 -90.754 3.576 0.00
65.317 -88.600 3.579 0.00
65.317 -86.446 3.583 0.00
65.317 -84.293 3.585 0.00
65.317 -82.139 3.585 0.00
65.317 -79.985 3.585 0.00
65.317 -77.832 3.585 0.00
65.317 -75.678 3.585 0.00
65.317 -73.525 3.583 0.00
65.317 -71.371 3.576 0.00
65.317 -69.217 3.565 0.00
65.317 -67.064 3.557 0.00
