32.940 -110.085 2.904 0.00
32.940 -109.013 2.902 0.00
32.940 -107.941 2.901 0.00
32.940 -106.870 2.897 2.00
32.940 -105.798 2.846 117.88
32.940 -104.726 2.708 655.27
32.940 -103.655 2.577 2569.90
32.940 -102.583 2.601 1308.02
32.940 -101.511 2.692 702.69
32.940 -100.440 2.758 697.29
32.940 -99.368 2.774 1265.20
32.940 -98.297 2.753 1503.83
32.940 -97.225 2.725 2451.36
32.940 -96.153 2.683 853.10
32.940 -95.082 2.672 687.06
32.940 -94.010 2.728 185.66
32.940 -92.938 2.824 113.01
32.940 -91.867 2.915 0.00
32.940 -90.795 2.930 0.00
32.940 -89.723 2.896 3.05
32.940 -88.652 2.879 189.38
32.940 -87.580 2.874 153.44
32.940 -86.509 2.874 449.70
32.940 -85.437 2.897 222.52
32.940 -84.365 2.923 209.85
32.940 -83.294 2.954 474.25
32.940 -82.222 2.966 2984.62
32.940 -81.150 2.937 258.62
32.940 -80.079 2.908 22.47
32.940 -79.007 2.908 182.44
32.940 -77.935 2.906 0.00
32.940 -76.864 2.901 0.00
32.940 -75.792 2.902 0.00
32.940 -74.721 2.904 0.00
32.940 -73.649 2.905 0.00
32.940 -72.577 2.905 0.00
32.940 -71.506 2.904 0.00
32.940 -70.434 2.904 0.00
32.940 -69.362 2.904 0.00
33.839 -129.686 2.904 0.00
33.839 -128.603 2.904 0.00
33.839 -127.521 2.904 0.00
33.839 -126.438 2.904 0.00
33.839 -125.355 2.904 0.00
33.839 -124.272 2.904 0.00
33.839 -123.189 2.904 0.00
33.839 -122.107 2.904 0.00
33.839 -121.024 2.904 0.00
33.839 -119.941 2.905 0.00
33.839 -118.858 2.905 0.00
33.839 -117.775 2.904 0.00
33.839 -116.693 2.905 0.00
33.839 -115.610 2.905 0.00
33.839 -114.527 2.905 0.00
33.839 -113.444 2.905 0.00
33.839 -112.362 2.905 0.00
33.839 -111.279 2.903 0.00
33.839 -110.196 2.898 0.00
33.839 -109.113 2.893 0.00
33.839 -108.030 2.892 94.90
33.839 -106.948 2.895 116.88
33.839 -105.865 2.857 46.61
33.839 -104.782 2.726 422.09
33.839 -103.699 2.599 1412.46
33.839 -102.617 2.569 942.77
33.839 -101.534 2.609 1431.95
33.839 -100.451 2.659 1284.21
33.839 -99.368 2.665 1712.69
33.839 -98.285 2.624 1321.75
33.839 -97.203 2.620 2441.65
33.839 -96.120 2.572 1503.89
33.839 -95.037 2.470 2406.65
33.839 -93.954 2.453 1717.52
33.839 -92.872 2.570 1510.63
33.839 -91.789 2.761 119.86
33.839 -90.706 2.871 45.07
33.839 -89.623 2.867 626.56
33.839 -88.540 2.870 2159.83
33.839 -87.458 2.867 2417.43
33.839 -86.375 2.850 1213.33
33.839 -85.292 2.870 547.04
33.839 -84.209 2.930 2727.10
33.839 -83.126 3.021 6452.87
33.839 -82.044 3.057 8524.59
33.839 -80.961 3.017 1803.95
33.839 -79.878 2.965 1349.96
33.839 -78.795 2.956 975.01
33.839 -77.713 2.933 0.00
33.839 -76.630 2.907 0.00
33.839 -75.547 2.902 0.00
33.839 -74.464 2.903 0.00
33.839 -73.381 2.904 0.00
33.839 -72.299 2.905 0.00
33.839 -71.216 2.904 0.00
33.839 -70.133 2.904 0.00
33.839 -69.050 2.904 0.00
34.739 -130.012 2.904 0.00
34.739 -128.918 2.904 0.00
34.739 -127.823 2.904 0.00
34.739 -126.729 2.904 0.00
34.739 -125.635 2.904 0.00
34.739 -124.540 2.904 0.00
34.739 -123.446 2.904 0.00
34.739 -122.351 2.904 0.00
34.739 -121.257 2.905 0.00
34.739 -120.162 2.905 0.00
34.739 -119.068 2.904 0.00
34.739 -117.974 2.904 0.00
34.739 -116.879 2.904 0.00
34.739 -115.785 2.905 0.00
34.739 -114.690 2.905 0.00
34.739 -113.596 2.905 0.00
34.739 -112.501 2.903 0.00
34.739 -111.407 2.898 0.00
34.739 -110.313 2.889 77.92
34.739 -109.218 2.886 118.88
34.739 -108.124 2.894 22.98
34.739 -107.029 2.905 0.00
34.739 -105.935 2.888 38.62
34.739 -104.840 2.794 424.40
34.739 -103.746 2.681 1077.11
34.739 -102.651 2.604 1180.05
34.739 -101.557 2.604 1733.99
34.739 -100.463 2.612 1925.82
34.739 -99.368 2.549 1658.23
34.739 -98.274 2.480 2047.03
34.739 -97.179 2.502 3032.43
34.739 -96.085 2.524 4874.12
34.739 -94.990 2.403 3767.84
34.739 -93.896 2.287 5198.13
34.739 -92.802 2.374 5834.80
34.739 -91.707 2.569 1644.59
34.739 -90.613 2.743 422.74
34.739 -89.518 2.812 1958.51
34.739 -88.424 2.923 10129.36
34.739 -87.329 2.961 4441.80
34.739 -86.235 2.879 4188.69
34.739 -85.141 2.826 4633.31
34.739 -84.046 2.885 7302.88
34.739 -82.952 3.023 11582.72
34.739 -81.857 3.120 10359.55
34.739 -80.763 3.120 6385.18
34.739 -79.668 3.086 6565.70
34.739 -78.574 3.062 3829.56
34.739 -77.480 2.991 1580.20
34.739 -76.385 2.922 0.00
34.739 -75.291 2.903 0.00
34.739 -74.196 2.904 0.00
34.739 -73.102 2.904 0.00
34.739 -72.007 2.905 0.00
34.739 -70.913 2.904 0.00
34.739 -69.818 2.904 0.00
34.739 -68.724 2.904 0.00
35.638 -130.353 2.904 0.00
35.638 -129.247 2.904 0.00
35.638 -128.140 2.904 0.00
35.638 -127.034 2.904 0.00
35.638 -125.927 2.904 0.00
35.638 -124.820 2.904 0.00
35.638 -123.714 2.904 0.00
35.638 -122.607 2.904 0.00
35.638 -121.500 2.905 0.00
35.638 -120.394 2.904 0.00
35.638 -119.287 2.904 0.00
35.638 -118.181 2.903 47.32
35.638 -117.074 2.904 0.00
35.638 -115.967 2.904 0.00
35.638 -114.861 2.905 0.00
35.638 -113.754 2.904 0.00
35.638 -112.648 2.903 0.00
35.638 -111.541 2.897 42.79
35.638 -110.434 2.893 39.96
35.638 -109.328 2.896 0.00
35.638 -108.221 2.902 0.00
35.638 -107.115 2.910 0.00
35.638 -106.008 2.898 0.00
35.638 -104.901 2.816 367.61
35.638 -103.795 2.691 828.60
35.638 -102.688 2.589 1697.97
35.638 -101.581 2.571 3052.23
35.638 -100.475 2.532 1814.67
35.638 -99.368 2.462 994.26
35.638 -98.262 2.385 1812.66
35.638 -97.155 2.400 11386.27
35.638 -96.048 2.581 22637.49
35.638 -94.942 2.638 10037.67
35.638 -93.835 2.509 10579.01
35.638 -92.729 2.542 10323.83
35.638 -91.622 2.645 9019.20
35.638 -90.515 2.745 2075.90
35.638 -89.409 2.795 3356.03
35.638 -88.302 2.967 12993.66
35.638 -87.195 3.114 9684.49
35.638 -86.089 3.011 4061.72
35.638 -84.982 2.867 3557.09
35.638 -83.876 2.863 7737.70
35.638 -82.769 2.959 8831.89
35.638 -81.662 3.063 9105.88
35.638 -80.556 3.120 13391.83
35.638 -79.449 3.154 5972.65
35.638 -78.343 3.146 6444.71
35.638 -77.236 3.016 1103.94
35.638 -76.129 2.922 3.63
35.638 -75.023 2.900 0.00
35.638 -73.916 2.903 0.00
35.638 -72.809 2.904 0.00
35.638 -71.703 2.905 0.00
35.638 -70.596 2.904 0.00
35.638 -69.490 2.904 0.00
35.638 -68.383 2.904 0.00
36.538 -130.710 2.904 0.00
36.538 -129.591 2.904 0.00
36.538 -128.471 2.904 0.00
36.538 -127.352 2.904 0.00
36.538 -126.233 2.904 0.00
36.538 -125.113 2.904 0.00
36.538 -123.994 2.904 0.00
36.538 -122.875 2.904 0.00
36.538 -121.755 2.905 0.00
36.538 -120.636 2.904 0.00
36.538 -119.516 2.904 0.00
36.538 -118.397 2.902 101.97
36.538 -117.278 2.903 0.00
36.538 -116.158 2.904 0.00
36.538 -115.039 2.905 0.00
36.538 -113.920 2.905 0.00
36.538 -112.800 2.904 0.00
36.538 -111.681 2.902 0.00
36.538 -110.562 2.901 0.00
36.538 -109.442 2.903 0.00
36.538 -108.323 2.907 0.00
36.538 -107.204 2.912 0.24
36.538 -106.084 2.900 2.08
36.538 -104.965 2.814 383.88
36.538 -103.846 2.672 2094.87
36.538 -102.726 2.560 4393.03
36.538 -101.607 2.507 3311.14
36.538 -100.488 2.470 1818.07
36.538 -99.368 2.431 1514.72
36.538 -98.249 2.409 3657.72
36.538 -97.130 2.478 12042.64
36.538 -96.010 2.685 28525.89
36.538 -94.891 2.977 30972.15
36.538 -93.771 3.002 28215.75
36.538 -92.652 3.011 22967.96
36.538 -91.533 2.996 23274.29
36.538 -90.413 2.955 15888.06
36.538 -89.294 2.865 9596.58
36.538 -88.175 2.965 17571.34
36.538 -87.055 3.125 13194.93
36.538 -85.936 2.983 5627.23
36.538 -84.817 2.785 10506.63
36.538 -83.697 2.716 8366.27
36.538 -82.578 2.720 9406.49
36.538 -81.459 2.736 8108.65
36.538 -80.339 2.812 6518.50
36.538 -79.220 2.909 6996.44
36.538 -78.101 2.979 1763.60
36.538 -76.981 2.958 353.95
36.538 -75.862 2.914 0.00
36.538 -74.743 2.902 0.00
36.538 -73.623 2.903 0.00
36.538 -72.504 2.905 0.00
36.538 -71.384 2.905 0.00
36.538 -70.265 2.904 0.00
36.538 -69.146 2.904 0.00
36.538 -68.026 2.904 0.00
37.437 -131.083 2.904 0.00
37.437 -129.950 2.904 0.00
37.437 -128.817 2.904 0.00
37.437 -127.685 2.904 0.00
37.437 -126.552 2.904 0.00
37.437 -125.419 2.904 0.00
37.437 -124.287 2.904 0.00
37.437 -123.154 2.904 0.00
37.437 -122.021 2.905 0.00
37.437 -120.889 2.904 0.00
37.437 -119.756 2.904 0.00
37.437 -118.623 2.903 51.42
37.437 -117.491 2.903 52.62
37.437 -116.358 2.904 0.00
37.437 -115.225 2.905 0.00
37.437 -114.093 2.905 0.00
37.437 -112.960 2.905 0.00
37.437 -111.827 2.904 0.00
37.437 -110.695 2.904 0.00
37.437 -109.562 2.905 0.00
37.437 -108.429 2.906 0.00
37.437 -107.297 2.912 0.00
37.437 -106.164 2.909 0.82
37.437 -105.032 2.851 9.07
37.437 -103.899 2.728 952.45
37.437 -102.766 2.616 6003.35
37.437 -101.634 2.539 6120.17
37.437 -100.501 2.502 6697.08
37.437 -99.368 2.494 6533.24
37.437 -98.236 2.515 8120.03
37.437 -97.103 2.633 14017.65
37.437 -95.970 2.838 25511.84
37.437 -94.838 3.039 35565.32
37.437 -93.705 3.097 32123.19
37.437 -92.572 3.094 32570.67
37.437 -91.440 3.040 38970.44
37.437 -90.307 3.043 33639.96
37.437 -89.174 2.895 27584.42
37.437 -88.042 2.839 22102.28
37.437 -86.909 2.840 11652.34
37.437 -85.776 2.745 8714.05
37.437 -84.644 2.628 6400.92
37.437 -83.511 2.549 6442.25
37.437 -82.378 2.477 5066.36
37.437 -81.246 2.431 5554.51
37.437 -80.113 2.487 5568.83
37.437 -78.980 2.667 2428.36
37.437 -77.848 2.862 634.84
37.437 -76.715 2.955 429.64
37.437 -75.582 2.934 0.00
37.437 -74.450 2.907 0.00
37.437 -73.317 2.902 0.00
37.437 -72.184 2.904 0.00
37.437 -71.052 2.905 0.00
37.437 -69.919 2.905 0.00
37.437 -68.786 2.904 0.00
37.437 -67.654 2.904 0.00
38.336 -131.472 2.904 0.00
38.336 -130.326 2.904 0.00
38.336 -129.179 2.904 0.00
38.336 -128.033 2.904 0.00
38.336 -126.886 2.904 0.00
38.336 -125.740 2.904 0.00
38.336 -124.593 2.904 0.00
38.336 -123.446 2.904 0.00
38.336 -122.300 2.905 0.00
38.336 -121.153 2.905 0.00
38.336 -120.007 2.904 0.00
38.336 -118.860 2.904 0.00
38.336 -117.713 2.903 37.99
38.336 -116.567 2.904 0.00
38.336 -115.420 2.905 0.00
38.336 -114.274 2.905 0.00
38.336 -113.127 2.905 0.00
38.336 -111.981 2.905 0.00
38.336 -110.834 2.905 0.00
38.336 -109.687 2.904 0.00
38.336 -108.541 2.904 0.00
38.336 -107.394 2.909 0.00
38.336 -106.248 2.921 1.82
38.336 -105.101 2.907 0.46
38.336 -103.955 2.827 31.86
38.336 -102.808 2.720 369.02
38.336 -101.661 2.609 1579.64
38.336 -100.515 2.512 3933.29
38.336 -99.368 2.467 7372.69
38.336 -98.222 2.505 6648.54
38.336 -97.075 2.650 12153.48
38.336 -95.928 2.851 15417.06
38.336 -94.782 2.999 23255.46
38.336 -93.635 3.047 33049.63
38.336 -92.489 3.070 29029.75
38.336 -91.342 3.061 38623.12
38.336 -90.196 2.983 34891.61
38.336 -89.049 2.760 29315.41
38.336 -87.902 2.587 15609.27
38.336 -86.756 2.513 10808.89
38.336 -85.609 2.528 12789.25
38.336 -84.463 2.562 8819.31
38.336 -83.316 2.518 5500.60
38.336 -82.170 2.379 5444.58
38.336 -81.023 2.322 2884.18
38.336 -79.876 2.447 4197.60
38.336 -78.730 2.672 640.76
38.336 -77.583 2.878 245.86
38.336 -76.437 2.981 431.64
38.336 -75.290 2.944 0.00
38.336 -74.143 2.907 0.00
38.336 -72.997 2.900 0.00
38.336 -71.850 2.902 0.00
38.336 -70.704 2.904 0.00
38.336 -69.557 2.905 0.00
38.336 -68.411 2.905 0.00
38.336 -67.264 2.904 0.00
39.236 -131.880 2.904 0.00
39.236 -130.719 2.904 0.00
39.236 -129.558 2.904 0.00
39.236 -128.397 2.904 0.00
39.236 -127.235 2.904 0.00
39.236 -126.074 2.904 0.00
39.236 -124.913 2.904 0.00
39.236 -123.752 2.904 0.00
39.236 -122.591 2.904 0.00
39.236 -121.430 2.905 0.00
39.236 -120.269 2.905 0.00
39.236 -119.107 2.904 0.00
39.236 -117.946 2.904 0.00
39.236 -116.785 2.905 0.00
39.236 -115.624 2.905 0.00
39.236 -114.463 2.904 0.00
39.236 -113.302 2.904 0.00
39.236 -112.141 2.905 0.00
39.236 -110.980 2.905 0.00
39.236 -109.818 2.905 0.00
39.236 -108.657 2.904 0.00
39.236 -107.496 2.903 0.00
39.236 -106.335 2.912 0.00
39.236 -105.174 2.929 0.00
39.236 -104.013 2.924 0.00
39.236 -102.852 2.887 0.00
39.236 -101.690 2.805 1.14
39.236 -100.529 2.674 183.18
39.236 -99.368 2.558 2819.46
39.236 -98.207 2.529 1676.87
39.236 -97.046 2.585 4117.72
39.236 -95.885 2.717 6985.81
39.236 -94.724 2.898 13038.90
39.236 -93.563 2.988 27331.74
39.236 -92.401 3.025 34291.56
39.236 -91.240 3.004 35895.47
39.236 -90.079 2.871 19426.25
39.236 -88.918 2.637 19722.00
39.236 -87.757 2.453 18429.88
39.236 -86.596 2.429 7725.80
39.236 -85.435 2.546 8334.11
39.236 -84.273 2.675 9313.72
39.236 -83.112 2.593 4384.59
39.236 -81.951 2.412 2636.55
39.236 -80.790 2.406 1989.26
39.236 -79.629 2.587 1387.64
39.236 -78.468 2.762 1059.91
39.236 -77.307 2.888 40.15
39.236 -76.145 2.946 431.64
39.236 -74.984 2.922 0.24
39.236 -73.823 2.906 0.00
39.236 -72.662 2.903 0.00
39.236 -71.501 2.900 0.00
39.236 -70.340 2.901 0.00
39.236 -69.179 2.903 0.00
39.236 -68.018 2.905 0.00
39.236 -66.856 2.905 0.00
40.135 -132.306 2.904 0.00
40.135 -131.130 2.904 0.00
40.135 -129.954 2.904 0.00
40.135 -128.777 2.904 0.00
40.135 -127.601 2.904 0.00
40.135 -126.424 2.904 0.00
40.135 -125.248 2.904 0.00
40.135 -124.072 2.904 0.00
40.135 -122.895 2.904 0.00
40.135 -121.719 2.904 0.00
40.135 -120.543 2.905 0.00
40.135 -119.366 2.905 0.00
40.135 -118.190 2.905 0.00
40.135 -117.014 2.905 0.83
40.135 -115.837 2.904 0.00
40.135 -114.661 2.903 0.00
40.135 -113.484 2.903 0.00
40.135 -112.308 2.904 1.84
40.135 -111.132 2.905 1.94
40.135 -109.955 2.905 1.96
40.135 -108.779 2.905 1.96
40.135 -107.603 2.903 1.94
40.135 -106.426 2.903 1.96
40.135 -105.250 2.910 0.32
40.135 -104.074 2.925 0.00
40.135 -102.897 2.941 0.00
40.135 -101.721 2.938 0.00
40.135 -100.545 2.874 0.00
40.135 -99.368 2.789 348.21
40.135 -98.192 2.725 706.48
40.135 -97.015 2.680 666.78
40.135 -95.839 2.685 2893.56
40.135 -94.663 2.809 6485.88
40.135 -93.486 2.911 17110.73
40.135 -92.310 2.918 21986.00
40.135 -91.134 2.886 22221.88
40.135 -89.957 2.753 10706.74
40.135 -88.781 2.567 4362.44
40.135 -87.605 2.501 5891.72
40.135 -86.428 2.581 3488.69
40.135 -85.252 2.771 12827.17
40.135 -84.076 2.888 11430.27
40.135 -82.899 2.737 4513.86
40.135 -81.723 2.555 4541.57
40.135 -80.546 2.606 171.27
40.135 -79.370 2.743 260.33
40.135 -78.194 2.802 818.10
40.135 -77.017 2.818 2052.20
40.135 -75.841 2.853 2767.46
40.135 -74.665 2.878 2063.05
40.135 -73.488 2.915 375.71
40.135 -72.312 2.924 0.00
40.135 -71.136 2.909 0.00
40.135 -69.959 2.902 0.00
40.135 -68.783 2.901 0.00
40.135 -67.607 2.903 0.00
40.135 -66.430 2.905 0.00
41.034 -132.752 2.905 0.00
41.034 -131.560 2.904 0.00
41.034 -130.368 2.904 0.00
41.034 -129.175 2.904 0.00
41.034 -127.983 2.904 0.00
41.034 -126.791 2.904 0.00
41.034 -125.598 2.904 0.00
41.034 -124.406 2.904 0.00
41.034 -123.214 2.904 0.00
41.034 -122.022 2.904 0.00
41.034 -120.829 2.904 0.00
41.034 -119.637 2.905 0.00
41.034 -118.445 2.905 0.00
41.034 -117.252 2.904 0.83
41.034 -116.060 2.903 4.70
41.034 -114.868 2.900 90.60
41.034 -113.676 2.899 62.01
41.034 -112.483 2.901 0.00
41.034 -111.291 2.903 0.00
41.034 -110.099 2.904 0.00
41.034 -108.906 2.905 0.00
41.034 -107.714 2.905 0.00
41.034 -106.522 2.903 0.00
41.034 -105.330 2.902 0.00
41.034 -104.137 2.905 0.00
41.034 -102.945 2.914 0.00
41.034 -101.753 2.931 0.00
41.034 -100.560 2.928 0.00
41.034 -99.368 2.911 0.00
41.034 -98.176 2.887 140.86
41.034 -96.984 2.810 263.97
41.034 -95.791 2.720 1510.03
41.034 -94.599 2.730 2482.15
41.034 -93.407 2.805 6558.58
41.034 -92.215 2.842 17089.40
41.034 -91.022 2.810 17253.79
41.034 -89.830 2.714 7787.30
41.034 -88.638 2.629 6381.58
41.034 -87.445 2.691 3490.72
41.034 -86.253 2.794 7560.08
41.034 -85.061 2.923 11940.97
41.034 -83.869 2.979 5860.56
41.034 -82.676 2.893 5301.46
41.034 -81.484 2.796 1543.84
41.034 -80.292 2.797 462.06
41.034 -79.099 2.818 128.00
41.034 -77.907 2.778 541.81
41.034 -76.715 2.762 1090.42
41.034 -75.523 2.788 1602.02
41.034 -74.330 2.852 3117.07
41.034 -73.138 2.943 4047.50
41.034 -71.946 2.965 1065.18
41.034 -70.753 2.938 76.79
41.034 -69.561 2.908 0.00
41.034 -68.369 2.900 0.00
41.034 -67.177 2.903 0.00
41.034 -65.984 2.905 0.00
41.934 -133.219 2.905 0.00
41.934 -132.010 2.904 0.00
41.934 -130.801 2.904 0.00
41.934 -129.592 2.904 0.00
41.934 -128.383 2.904 0.00
41.934 -127.174 2.904 0.00
41.934 -125.965 2.904 0.00
41.934 -124.756 2.904 0.00
41.934 -123.547 2.904 0.00
41.934 -122.338 2.904 0.00
41.934 -121.129 2.904 0.00
41.934 -119.920 2.904 0.00
41.934 -118.711 2.905 0.51
41.934 -117.502 2.905 2.21
41.934 -116.293 2.904 0.24
41.934 -115.085 2.901 1.22
41.934 -113.876 2.899 51.79
41.934 -112.667 2.898 110.41
41.934 -111.458 2.900 22.03
41.934 -110.249 2.903 2.18
41.934 -109.040 2.904 0.00
41.934 -107.831 2.905 0.00
41.934 -106.622 2.905 0.00
41.934 -105.413 2.904 0.00
41.934 -104.204 2.903 0.00
41.934 -102.995 2.902 0.00
41.934 -101.786 2.906 0.00
41.934 -100.577 2.909 0.00
41.934 -99.368 2.906 459.86
41.934 -98.159 2.918 38.03
41.934 -96.950 2.885 545.45
41.934 -95.741 2.785 1466.17
41.934 -94.532 2.714 2124.07
41.934 -93.323 2.769 856.31
41.934 -92.115 2.851 7271.61
41.934 -90.906 2.885 28106.23
41.934 -89.697 2.839 9355.26
41.934 -88.488 2.812 8175.39
41.934 -87.279 2.812 11577.42
41.934 -86.070 2.752 12528.56
41.934 -84.861 2.749 9284.95
41.934 -83.652 2.844 7832.85
41.934 -82.443 2.954 9839.58
41.934 -81.234 2.976 4873.15
41.934 -80.025 2.945 3884.27
41.934 -78.816 2.863 3012.79
41.934 -77.607 2.780 991.61
41.934 -76.398 2.773 160.48
41.934 -75.189 2.792 1305.15
41.934 -73.980 2.856 2952.58
41.934 -72.771 2.966 5850.00
41.934 -71.562 3.022 10678.18
41.934 -70.353 2.970 13354.13
41.934 -69.145 2.930 0.00
41.934 -67.936 2.898 0.00
41.934 -66.727 2.896 0.00
41.934 -65.518 2.904 0.00
42.833 -133.707 2.905 0.00
42.833 -132.481 2.905 0.00
42.833 -131.254 2.904 0.00
42.833 -130.028 2.904 0.00
42.833 -128.802 2.904 0.00
42.833 -127.575 2.904 0.00
42.833 -126.349 2.904 0.00
42.833 -125.122 2.904 0.00
42.833 -123.896 2.904 0.00
42.833 -122.670 2.904 0.00
42.833 -121.443 2.904 0.00
42.833 -120.217 2.904 0.00
42.833 -118.990 2.905 0.17
42.833 -117.764 2.905 0.00
42.833 -116.538 2.905 0.00
42.833 -115.311 2.904 0.00
42.833 -114.085 2.902 0.00
42.833 -112.858 2.901 1.48
42.833 -111.632 2.900 80.56
42.833 -110.406 2.903 1.85
42.833 -109.179 2.904 0.00
42.833 -107.953 2.905 0.00
42.833 -106.727 2.905 0.00
42.833 -105.500 2.905 0.00
42.833 -104.274 2.904 0.00
42.833 -103.047 2.904 0.00
42.833 -101.821 2.903 0.00
42.833 -100.595 2.900 0.00
42.833 -99.368 2.895 59.24
42.833 -98.142 2.904 1309.28
42.833 -96.915 2.900 1546.95
42.833 -95.689 2.827 1841.14
42.833 -94.463 2.730 2167.44
42.833 -93.236 2.755 897.01
42.833 -92.010 2.858 2680.55
42.833 -90.783 3.003 23708.61
42.833 -89.557 3.001 13817.88
42.833 -88.331 2.923 10266.49
42.833 -87.104 2.721 9898.73
42.833 -85.878 2.459 6234.55
42.833 -84.652 2.343 6706.11
42.833 -83.425 2.502 9833.92
42.833 -82.199 2.857 10991.75
42.833 -80.972 3.048 13612.46
42.833 -79.746 3.106 11132.38
42.833 -78.520 3.033 12058.57
42.833 -77.293 2.908 14547.40
42.833 -76.067 2.879 14477.05
42.833 -74.840 2.920 11686.05
42.833 -73.614 2.970 12320.16
42.833 -72.388 3.043 13874.65
42.833 -71.161 3.073 12831.86
42.833 -69.935 3.028 5412.91
42.833 -68.708 2.967 377.79
42.833 -67.482 2.917 0.00
42.833 -66.256 2.895 0.00
42.833 -65.029 2.899 0.00
43.732 -134.219 2.905 0.00
43.732 -132.974 2.905 0.00
43.732 -131.729 2.905 0.00
43.732 -130.485 2.904 0.00
43.732 -129.240 2.904 0.00
43.732 -127.995 2.904 0.00
43.732 -126.751 2.904 0.00
43.732 -125.506 2.904 0.00
43.732 -124.261 2.904 0.00
43.732 -123.017 2.904 0.00
43.732 -121.772 2.904 0.00
43.732 -120.527 2.904 0.00
43.732 -119.283 2.904 0.00
43.732 -118.038 2.905 0.00
43.732 -116.793 2.905 0.00
43.732 -115.549 2.905 0.00
43.732 -114.304 2.905 0.00
43.732 -113.059 2.904 0.00
43.732 -111.815 2.903 0.00
43.732 -110.570 2.904 0.00
43.732 -109.325 2.905 0.00
43.732 -108.081 2.905 0.00
43.732 -106.836 2.904 0.00
43.732 -105.591 2.904 0.00
43.732 -104.347 2.905 0.00
43.732 -103.102 2.905 0.00
43.732 -101.858 2.904 0.00
43.732 -100.613 2.900 0.00
43.732 -99.368 2.899 682.77
43.732 -98.124 2.919 1914.46
43.732 -96.879 2.943 4009.69
43.732 -95.634 2.906 1519.59
43.732 -94.390 2.786 3806.58
43.732 -93.145 2.758 1063.67
43.732 -91.900 2.875 2382.54
43.732 -90.656 3.120 23392.83
43.732 -89.411 3.185 23217.54
43.732 -88.166 3.040 20746.07
43.732 -86.922 2.696 13042.75
43.732 -85.677 2.246 17175.90
43.732 -84.432 2.078 11319.24
43.732 -83.188 2.248 9672.21
43.732 -81.943 2.678 8802.78
43.732 -80.698 3.015 19132.95
43.732 -79.454 3.159 19509.70
43.732 -78.209 3.160 18706.64
43.732 -76.964 3.087 23366.35
43.732 -75.720 3.103 24632.13
43.732 -74.475 3.133 29648.30
43.732 -73.230 3.077 28774.27
43.732 -71.986 3.045 20118.78
43.732 -70.741 3.059 16239.56
43.732 -69.496 3.076 9256.32
43.732 -68.252 3.035 1586.67
43.732 -67.007 2.942 0.00
43.732 -65.763 2.901 0.00
43.732 -64.518 2.900 0.00
44.632 -134.754 2.904 0.00
44.632 -133.490 2.904 0.00
44.632 -132.227 2.904 0.00
44.632 -130.963 2.904 0.00
44.632 -129.699 2.904 0.00
44.632 -128.435 2.904 0.00
44.632 -127.172 2.904 0.00
44.632 -125.908 2.904 0.00
44.632 -124.644 2.904 0.00
44.632 -123.380 2.904 0.00
44.632 -122.116 2.904 0.00
44.632 -120.853 2.904 0.00
44.632 -119.589 2.904 0.00
44.632 -118.325 2.904 0.00
44.632 -117.061 2.904 0.00
44.632 -115.797 2.905 0.00
44.632 -114.534 2.905 0.00
44.632 -113.270 2.905 0.00
44.632 -112.006 2.904 0.00
44.632 -110.742 2.905 0.00
44.632 -109.479 2.905 0.00
44.632 -108.215 2.905 0.00
44.632 -106.951 2.904 0.00
44.632 -105.687 2.904 0.00
44.632 -104.423 2.905 0.00
44.632 -103.160 2.905 0.00
44.632 -101.896 2.904 0.00
44.632 -100.632 2.900 0.00
44.632 -99.368 2.909 187.40
44.632 -98.104 2.963 1144.88
44.632 -96.841 3.023 3824.49
44.632 -95.577 3.036 3803.82
44.632 -94.313 2.904 2151.09
44.632 -93.049 2.793 808.70
44.632 -91.785 2.873 1918.85
44.632 -90.522 3.136 15390.89
44.632 -89.258 3.278 22430.74
44.632 -87.994 3.150 21483.29
44.632 -86.730 2.812 10496.37
44.632 -85.467 2.367 7015.35
44.632 -84.203 2.197 6456.07
44.632 -82.939 2.368 5778.69
44.632 -81.675 2.748 5573.52
44.632 -80.411 3.104 10451.55
44.632 -79.148 3.240 16459.73
44.632 -77.884 3.225 22927.67
44.632 -76.620 3.206 22451.30
44.632 -75.356 3.188 23872.75
44.632 -74.092 3.130 24588.06
44.632 -72.829 3.031 18762.91
44.632 -71.565 2.996 17020.74
44.632 -70.301 3.063 17371.24
44.632 -69.037 3.134 13070.53
44.632 -67.773 3.071 12095.55
44.632 -66.510 2.962 0.00
44.632 -65.246 2.907 0.00
44.632 -63.982 2.901 0.00
45.531 -135.316 2.904 0.00
45.531 -134.032 2.904 0.00
45.531 -132.748 2.904 0.00
45.531 -131.464 2.904 0.00
45.531 -130.180 2.904 0.00
45.531 -128.897 2.904 0.00
45.531 -127.613 2.904 0.00
45.531 -126.329 2.904 0.00
45.531 -125.045 2.904 0.00
45.531 -123.761 2.904 0.00
45.531 -122.477 2.904 0.00
45.531 -121.193 2.904 0.00
45.531 -119.910 2.904 0.00
45.531 -118.626 2.904 0.00
45.531 -117.342 2.904 0.00
45.531 -116.058 2.904 0.00
45.531 -114.774 2.905 0.00
45.531 -113.490 2.905 0.00
45.531 -112.207 2.905 0.00
45.531 -110.923 2.905 0.00
45.531 -109.639 2.905 0.00
45.531 -108.355 2.904 0.00
45.531 -107.071 2.904 0.00
45.531 -105.787 2.904 0.00
45.531 -104.504 2.905 0.00
45.531 -103.220 2.905 0.00
45.531 -101.936 2.903 0.00
45.531 -100.652 2.900 0.00
45.531 -99.368 2.915 162.43
45.531 -98.084 2.981 575.89
45.531 -96.801 3.059 2849.32
45.531 -95.517 3.084 6318.52
45.531 -94.233 2.955 2931.95
45.531 -92.949 2.806 2419.33
45.531 -91.665 2.843 3810.44
45.531 -90.381 3.076 7814.93
45.531 -89.097 3.202 16696.91
45.531 -87.814 3.112 12135.95
45.531 -86.530 2.868 6633.73
45.531 -85.246 2.647 8733.07
45.531 -83.962 2.637 8945.86
45.531 -82.678 2.813 10525.89
45.531 -81.394 3.017 6352.45
45.531 -80.111 3.166 8587.09
45.531 -78.827 3.221 14822.43
45.531 -77.543 3.186 18357.67
45.531 -76.259 3.151 23775.41
45.531 -74.975 3.103 20846.11
45.531 -73.691 2.986 18544.96
45.531 -72.408 2.854 12443.76
45.531 -71.124 2.909 9177.71
45.531 -69.840 3.022 11062.20
45.531 -68.556 3.085 6804.42
45.531 -67.272 3.027 1951.36
45.531 -65.988 2.937 9.17
45.531 -64.705 2.901 24.53
45.531 -63.421 2.899 0.00
46.431 -135.904 2.904 0.00
46.431 -134.600 2.905 0.00
46.431 -133.295 2.905 0.00
46.431 -131.990 2.904 0.00
46.431 -130.685 2.904 0.00
46.431 -129.380 2.904 0.00
46.431 -128.075 2.904 0.00
46.431 -126.770 2.904 0.00
46.431 -125.466 2.904 0.00
46.431 -124.161 2.904 0.00
46.431 -122.856 2.904 0.00
46.431 -121.551 2.904 0.00
46.431 -120.246 2.904 0.00
46.431 -118.941 2.904 0.00
46.431 -117.636 2.904 0.00
46.431 -116.331 2.904 0.00
46.431 -115.027 2.904 0.00
46.431 -113.722 2.904 0.00
46.431 -112.417 2.904 0.00
46.431 -111.112 2.904 0.00
46.431 -109.807 2.904 0.00
46.431 -108.502 2.904 0.00
46.431 -107.197 2.904 0.00
46.431 -105.893 2.904 0.00
46.431 -104.588 2.905 0.00
46.431 -103.283 2.905 0.00
46.431 -101.978 2.903 0.00
46.431 -100.673 2.899 0.00
46.431 -99.368 2.911 35.08
46.431 -98.063 2.976 741.32
46.431 -96.758 3.073 2805.37
46.431 -95.454 3.105 4493.18
46.431 -94.149 3.050 3737.31
46.431 -92.844 2.928 2232.50
46.431 -91.539 2.901 1157.99
46.431 -90.234 3.007 2320.40
46.431 -88.929 3.044 2195.25
46.431 -87.624 2.967 5623.57
46.431 -86.320 2.800 3460.66
46.431 -85.015 2.719 6272.73
46.431 -83.710 2.847 5904.38
46.431 -82.405 3.061 5241.19
46.431 -81.100 3.161 7721.90
46.431 -79.795 3.165 15417.55
46.431 -78.490 3.201 13916.43
46.431 -77.185 3.174 15360.66
46.431 -75.881 3.150 17442.56
46.431 -74.576 3.117 14982.16
46.431 -73.271 3.009 13456.00
46.431 -71.966 2.854 6877.89
46.431 -70.661 2.867 5570.17
46.431 -69.356 2.957 6278.96
46.431 -68.051 3.032 5165.25
46.431 -66.747 2.969 93.11
46.431 -65.442 2.908 89.10
46.431 -64.137 2.893 0.00
46.431 -62.832 2.900 0.00
47.330 -136.522 2.905 0.00
47.330 -135.195 2.905 0.00
47.330 -133.868 2.905 0.00
47.330 -132.541 2.904 0.00
47.330 -131.214 2.904 0.00
47.330 -129.887 2.904 0.00
47.330 -128.561 2.904 0.00
47.330 -127.234 2.904 0.00
47.330 -125.907 2.904 0.00
47.330 -124.580 2.904 0.00
47.330 -123.253 2.904 0.00
47.330 -121.926 2.904 0.00
47.330 -120.599 2.904 0.00
47.330 -119.272 2.904 0.00
47.330 -117.945 2.904 0.00
47.330 -116.618 2.904 0.00
47.330 -115.291 2.904 0.00
47.330 -113.964 2.904 0.00
47.330 -112.637 2.904 0.00
47.330 -111.311 2.904 0.00
47.330 -109.984 2.904 0.00
47.330 -108.657 2.904 0.00
47.330 -107.330 2.904 0.00
47.330 -106.003 2.904 0.00
47.330 -104.676 2.905 0.00
47.330 -103.349 2.905 0.00
47.330 -102.022 2.902 0.00
47.330 -100.695 2.898 0.00
47.330 -99.368 2.911 6.94
47.330 -98.041 2.980 1053.76
47.330 -96.714 3.105 2772.24
47.330 -95.387 3.172 4245.20
47.330 -94.061 3.176 5489.89
47.330 -92.734 3.104 2832.95
47.330 -91.407 3.007 2607.70
47.330 -90.080 2.979 702.79
47.330 -88.753 2.963 129.80
47.330 -87.426 2.916 98.19
47.330 -86.099 2.848 7.34
47.330 -84.772 2.836 5.21
47.330 -83.445 2.922 741.38
47.330 -82.118 3.048 1206.46
47.330 -80.791 3.109 1366.07
47.330 -79.464 3.116 2056.13
47.330 -78.137 3.160 3039.89
47.330 -76.811 3.157 8848.31
47.330 -75.484 3.124 5335.92
47.330 -74.157 3.098 3858.96
47.330 -72.830 3.054 4036.65
47.330 -71.503 2.970 3193.92
47.330 -70.176 2.930 3447.56
47.330 -68.849 2.934 537.00
47.330 -67.522 2.948 147.17
47.330 -66.195 2.916 0.00
47.330 -64.868 2.894 0.00
47.330 -63.541 2.897 0.00
47.330 -62.214 2.904 0.00
48.229 -137.170 2.905 0.00
48.229 -135.820 2.905 0.00
48.229 -134.470 2.904 0.00
48.229 -133.120 2.904 0.00
48.229 -131.770 2.904 0.00
48.229 -130.420 2.904 0.00
48.229 -129.070 2.904 0.00
48.229 -127.720 2.904 0.00
48.229 -126.370 2.904 0.00
48.229 -125.020 2.904 0.00
48.229 -123.670 2.904 0.00
48.229 -122.320 2.904 0.00
48.229 -120.969 2.904 0.00
48.229 -119.619 2.904 0.00
48.229 -118.269 2.904 0.00
48.229 -116.919 2.904 0.00
48.229 -115.569 2.904 0.00
48.229 -114.219 2.904 0.00
48.229 -112.869 2.904 0.00
48.229 -111.519 2.904 0.00
48.229 -110.169 2.904 0.00
48.229 -108.819 2.904 0.00
48.229 -107.469 2.904 0.00
48.229 -106.119 2.905 0.00
48.229 -104.769 2.905 0.00
48.229 -103.418 2.904 0.00
48.229 -102.068 2.902 0.00
48.229 -100.718 2.900 0.00
48.229 -99.368 2.918 0.00
48.229 -98.018 2.984 971.49
48.229 -96.668 3.104 2963.48
48.229 -95.318 3.185 5952.10
48.229 -93.968 3.211 7705.67
48.229 -92.618 3.165 3018.96
48.229 -91.268 3.058 1986.70
48.229 -89.918 2.973 1336.36
48.229 -88.568 2.933 142.18
48.229 -87.217 2.908 0.00
48.229 -85.867 2.893 0.00
48.229 -84.517 2.894 0.00
48.229 -83.167 2.913 0.00
48.229 -81.817 2.941 0.00
48.229 -80.467 2.962 0.00
48.229 -79.117 2.967 0.00
48.229 -77.767 2.990 0.00
48.229 -76.417 2.994 0.00
48.229 -75.067 2.983 0.00
48.229 -73.717 2.990 0.00
48.229 -72.367 2.983 0.00
48.229 -71.017 2.953 0.00
48.229 -69.666 2.927 11.63
48.229 -68.316 2.913 0.00
48.229 -66.966 2.907 0.00
48.229 -65.616 2.898 0.00
48.229 -64.266 2.898 0.00
48.229 -62.916 2.904 0.00
48.229 -61.566 2.906 0.00
49.129 -137.851 2.905 0.00
49.129 -136.477 2.904 0.00
49.129 -135.103 2.904 0.00
49.129 -133.728 2.904 0.00
49.129 -132.354 2.904 0.00
49.129 -130.979 2.904 0.00
49.129 -129.605 2.904 0.00
49.129 -128.231 2.904 0.00
49.129 -126.856 2.904 0.00
49.129 -125.482 2.904 0.00
49.129 -124.107 2.904 0.00
49.129 -122.733 2.904 0.00
49.129 -121.359 2.904 0.00
49.129 -119.984 2.904 0.00
49.129 -118.610 2.904 0.00
49.129 -117.235 2.904 0.00
49.129 -115.861 2.904 0.00
49.129 -114.487 2.904 0.00
49.129 -113.112 2.904 0.00
49.129 -111.738 2.904 0.00
49.129 -110.363 2.904 0.00
49.129 -108.989 2.904 0.00
49.129 -107.615 2.904 0.00
49.129 -106.240 2.904 0.00
49.129 -104.866 2.905 0.00
49.129 -103.491 2.904 0.00
49.129 -102.117 2.903 0.00
49.129 -100.743 2.903 0.00
49.129 -99.368 2.914 0.00
49.129 -97.994 2.956 1573.51
49.129 -96.619 3.035 1474.33
49.129 -95.245 3.083 2774.89
49.129 -93.871 3.078 188.18
49.129 -92.496 3.031 0.00
49.129 -91.122 2.972 0.00
49.129 -89.747 2.933 30.98
49.129 -88.373 2.912 74.96
49.129 -86.999 2.904 0.00
49.129 -85.624 2.904 0.00
49.129 -84.250 2.906 0.00
49.129 -82.875 2.903 0.00
49.129 -81.501 2.897 0.00
49.129 -80.127 2.893 0.00
49.129 -78.752 2.889 0.00
49.129 -77.378 2.894 0.00
49.129 -76.003 2.893 0.00
49.129 -74.629 2.891 0.00
49.129 -73.255 2.896 0.00
49.129 -71.880 2.903 0.00
49.129 -70.506 2.906 0.00
49.129 -69.131 2.903 11.63
49.129 -67.757 2.899 0.00
49.129 -66.383 2.899 0.00
49.129 -65.008 2.901 0.00
49.129 -63.634 2.904 0.00
49.129 -62.259 2.905 0.00
49.129 -60.885 2.905 0.00
50.028 -138.567 2.904 0.00
50.028 -137.167 2.904 0.00
50.028 -135.767 2.904 0.00
50.028 -134.367 2.904 0.00
50.028 -132.967 2.904 0.00
50.028 -131.567 2.904 0.00
50.028 -130.167 2.904 0.00
50.028 -128.767 2.904 0.00
50.028 -127.368 2.904 0.00
50.028 -125.968 2.904 0.00
50.028 -124.568 2.904 0.00
50.028 -123.168 2.904 0.00
50.028 -121.768 2.904 0.00
50.028 -120.368 2.904 0.00
50.028 -118.968 2.904 0.00
50.028 -117.568 2.904 0.00
50.028 -116.168 2.904 0.00
50.028 -114.768 2.904 0.00
50.028 -113.368 2.904 0.00
50.028 -111.968 2.904 0.00
50.028 -110.568 2.904 0.00
50.028 -109.168 2.904 0.00
50.028 -107.768 2.904 0.00
50.028 -106.368 2.904 0.00
50.028 -104.968 2.905 0.00
50.028 -103.568 2.904 0.00
50.028 -102.168 2.904 0.00
50.028 -100.768 2.903 0.00
50.028 -99.368 2.906 0.00
50.028 -97.968 2.918 0.00
50.028 -96.568 2.940 0.00
50.028 -95.168 2.948 0.00
50.028 -93.768 2.933 0.00
50.028 -92.368 2.906 0.00
50.028 -90.968 2.900 0.00
50.028 -89.568 2.907 107.95
50.028 -88.168 2.903 0.00
50.028 -86.769 2.902 0.00
50.028 -85.369 2.905 0.00
50.028 -83.969 2.906 0.00
50.028 -82.569 2.904 0.00
50.028 -81.169 2.900 0.00
50.028 -79.769 2.897 0.00
50.028 -78.369 2.894 0.00
50.028 -76.969 2.893 0.00
50.028 -75.569 2.893 0.00
50.028 -74.169 2.892 0.00
50.028 -72.769 2.891 0.00
50.028 -71.369 2.896 0.00
50.028 -69.969 2.899 0.00
50.028 -68.569 2.901 11.63
50.028 -67.169 2.902 0.00
50.028 -65.769 2.903 0.00
50.028 -64.369 2.905 0.00
50.028 -62.969 2.905 0.00
50.028 -61.569 2.905 0.00
50.028 -60.169 2.904 0.00
50.927 -139.320 2.904 0.00
50.927 -137.893 2.904 0.00
50.927 -136.466 2.904 0.00
50.927 -135.040 2.904 0.00
50.927 -133.613 2.904 0.00
50.927 -132.186 2.904 0.00
50.927 -130.759 2.904 0.00
50.927 -129.332 2.904 0.00
50.927 -127.905 2.904 0.00
50.927 -126.478 2.904 0.00
50.927 -125.052 2.904 0.00
50.927 -123.625 2.904 0.00
50.927 -122.198 2.904 0.00
50.927 -120.771 2.904 0.00
50.927 -119.344 2.904 0.00
50.927 -117.917 2.904 0.00
50.927 -116.490 2.904 0.00
50.927 -115.064 2.904 0.00
50.927 -113.637 2.904 0.00
50.927 -112.210 2.904 0.00
50.927 -110.783 2.904 0.00
50.927 -109.356 2.904 0.00
50.927 -107.929 2.904 0.00
50.927 -106.502 2.904 0.00
50.927 -105.076 2.905 0.00
50.927 -103.649 2.905 0.00
50.927 -102.222 2.904 0.00
50.927 -100.795 2.903 0.00
50.927 -99.368 2.902 0.00
50.927 -97.941 2.902 0.00
50.927 -96.514 2.902 0.00
50.927 -95.088 2.898 0.00
50.927 -93.661 2.892 0.00
50.927 -92.234 2.888 0.00
50.927 -90.807 2.899 38.98
50.927 -89.380 2.908 67.96
50.927 -87.953 2.905 0.00
50.927 -86.526 2.904 0.00
50.927 -85.100 2.905 0.00
50.927 -83.673 2.905 0.00
50.927 -82.246 2.904 0.00
50.927 -80.819 2.905 0.00
50.927 -79.392 2.905 0.00
50.927 -77.965 2.904 0.00
50.927 -76.538 2.904 0.00
50.927 -75.112 2.904 0.00
50.927 -73.685 2.904 0.00
50.927 -72.258 2.904 0.00
50.927 -70.831 2.904 0.00
50.927 -69.404 2.904 0.00
50.927 -67.977 2.905 11.63
50.927 -66.550 2.905 0.00
50.927 -65.124 2.905 0.00
50.927 -63.697 2.905 0.00
50.927 -62.270 2.905 0.00
50.927 -60.843 2.904 0.00
50.927 -59.416 2.904 0.00
51.827 -140.113 2.904 0.00
51.827 -138.658 2.904 0.00
51.827 -137.203 2.904 0.00
51.827 -135.747 2.904 0.00
51.827 -134.292 2.904 0.00
51.827 -132.837 2.904 0.00
51.827 -131.382 2.904 0.00
51.827 -129.927 2.904 0.00
51.827 -128.472 2.904 0.00
51.827 -127.016 2.904 0.00
51.827 -125.561 2.904 0.00
51.827 -124.106 2.904 0.00
51.827 -122.651 2.904 0.00
51.827 -121.196 2.904 0.00
51.827 -119.741 2.904 0.00
51.827 -118.285 2.904 0.00
51.827 -116.830 2.904 0.00
51.827 -115.375 2.904 0.00
51.827 -113.920 2.904 0.00
51.827 -112.465 2.904 0.00
51.827 -111.010 2.904 0.00
51.827 -109.554 2.904 0.00
51.827 -108.099 2.904 0.00
51.827 -106.644 2.904 0.00
51.827 -105.189 2.904 0.00
51.827 -103.734 2.905 0.00
51.827 -102.279 2.905 0.00
51.827 -100.823 2.904 0.00
51.827 -99.368 2.903 0.00
51.827 -97.913 2.902 0.00
51.827 -96.458 2.900 0.00
51.827 -95.003 2.900 0.00
51.827 -93.548 2.900 0.00
51.827 -92.092 2.902 0.00
51.827 -90.637 2.906 14.27
51.827 -89.182 2.907 0.00
51.827 -87.727 2.905 0.00
51.827 -86.272 2.904 0.00
51.827 -84.817 2.905 0.00
51.827 -83.361 2.904 0.00
51.827 -81.906 2.905 0.00
51.827 -80.451 2.905 0.00
51.827 -78.996 2.905 0.00
51.827 -77.541 2.905 0.00
51.827 -76.085 2.905 0.00
51.827 -74.630 2.905 0.00
51.827 -73.175 2.905 0.00
51.827 -71.720 2.905 0.00
51.827 -70.265 2.905 0.00
51.827 -68.810 2.905 10.28
51.827 -67.354 2.905 1.36
51.827 -65.899 2.905 0.00
51.827 -64.444 2.905 0.00
51.827 -62.989 2.904 0.00
51.827 -61.534 2.904 0.00
51.827 -60.079 2.904 0.00
51.827 -58.623 2.904 0.00
52.726 -140.948 2.904 0.00
52.726 -139.463 2.904 0.00
52.726 -137.978 2.904 0.00
52.726 -136.493 2.904 0.00
52.726 -135.008 2.904 0.00
52.726 -133.523 2.904 0.00
52.726 -132.038 2.904 0.00
52.726 -130.553 2.904 0.00
52.726 -129.068 2.904 0.00
52.726 -127.583 2.904 0.00
52.726 -126.098 2.904 0.00
52.726 -124.613 2.904 0.00
52.726 -123.128 2.904 0.00
52.726 -121.643 2.904 0.00
52.726 -120.158 2.904 0.00
52.726 -118.673 2.904 0.00
52.726 -117.188 2.904 0.00
52.726 -115.703 2.904 0.00
52.726 -114.218 2.904 0.00
52.726 -112.733 2.904 0.00
52.726 -111.248 2.904 0.00
52.726 -109.763 2.904 0.00
52.726 -108.278 2.904 0.00
52.726 -106.793 2.904 0.00
52.726 -105.308 2.904 0.00
52.726 -103.823 2.904 0.00
52.726 -102.338 2.905 0.00
52.726 -100.853 2.905 0.00
52.726 -99.368 2.905 0.00
52.726 -97.883 2.904 0.00
52.726 -96.398 2.904 0.00
52.726 -94.913 2.904 0.00
52.726 -93.428 2.905 0.00
52.726 -91.943 2.905 0.00
52.726 -90.458 2.905 0.00
52.726 -88.973 2.905 0.00
52.726 -87.488 2.904 0.00
52.726 -86.003 2.904 0.00
52.726 -84.518 2.904 0.00
52.726 -83.033 2.904 0.00
52.726 -81.548 2.904 0.00
52.726 -80.063 2.904 0.00
52.726 -78.578 2.904 0.00
52.726 -77.093 2.905 0.00
52.726 -75.608 2.905 0.00
52.726 -74.123 2.905 0.00
52.726 -72.638 2.905 0.00
52.726 -71.153 2.905 0.00
52.726 -69.668 2.905 0.00
52.726 -68.183 2.905 11.75
52.726 -66.698 2.905 0.00
52.726 -65.213 2.904 0.00
52.726 -63.728 2.904 0.00
52.726 -62.243 2.904 0.00
52.726 -60.758 2.904 0.00
52.726 -59.273 2.904 0.00
52.726 -57.788 2.904 0.00
53.625 -141.829 2.904 0.00
53.625 -140.313 2.904 0.00
53.625 -138.796 2.904 0.00
53.625 -137.280 2.904 0.00
53.625 -135.763 2.904 0.00
53.625 -134.247 2.904 0.00
53.625 -132.730 2.904 0.00
53.625 -131.214 2.904 0.00
53.625 -129.697 2.904 0.00
53.625 -128.181 2.904 0.00
53.625 -126.665 2.904 0.00
53.625 -125.148 2.904 0.00
53.625 -123.632 2.904 0.00
53.625 -122.115 2.904 0.00
53.625 -120.599 2.904 0.00
53.625 -119.082 2.904 0.00
53.625 -117.566 2.904 0.00
53.625 -116.049 2.904 0.00
53.625 -114.533 2.904 0.00
53.625 -113.016 2.904 0.00
53.625 -111.500 2.904 0.00
53.625 -109.983 2.904 0.00
53.625 -108.467 2.904 0.00
53.625 -106.951 2.904 0.00
53.625 -105.434 2.904 0.00
53.625 -103.918 2.904 0.00
53.625 -102.401 2.904 0.00
53.625 -100.885 2.905 0.00
53.625 -99.368 2.905 0.00
53.625 -97.852 2.905 0.00
53.625 -96.335 2.905 0.00
53.625 -94.819 2.905 0.00
53.625 -93.302 2.905 0.00
53.625 -91.786 2.905 0.00
53.625 -90.269 2.904 0.00
53.625 -88.753 2.904 0.00
53.625 -87.237 2.904 0.00
53.625 -85.720 2.905 0.00
53.625 -84.204 2.904 0.00
53.625 -82.687 2.904 0.00
53.625 -81.171 2.904 0.00
53.625 -79.654 2.904 0.00
53.625 -78.138 2.904 0.00
53.625 -76.621 2.904 0.00
53.625 -75.105 2.904 0.00
53.625 -73.588 2.904 0.00
53.625 -72.072 2.904 0.00
53.625 -70.555 2.904 0.00
53.625 -69.039 2.905 0.00
53.625 -67.523 2.905 11.63
53.625 -66.006 2.905 0.00
53.625 -64.490 2.904 0.00
53.625 -62.973 2.904 0.00
53.625 -61.457 2.904 0.00
53.625 -59.940 2.904 0.00
53.625 -58.424 2.904 0.00
53.625 -56.907 2.904 0.00
54.525 -142.759 2.904 0.00
54.525 -141.209 2.904 0.00
54.525 -139.660 2.904 0.00
54.525 -138.110 2.904 0.00
54.525 -136.560 2.904 0.00
54.525 -135.011 2.904 0.00
54.525 -133.461 2.904 0.00
54.525 -131.911 2.904 0.00
54.525 -130.362 2.904 0.00
54.525 -128.812 2.904 0.00
54.525 -127.262 2.904 0.00
54.525 -125.713 2.904 0.00
54.525 -124.163 2.904 0.00
54.525 -122.613 2.904 0.00
54.525 -121.064 2.904 0.00
54.525 -119.514 2.904 0.00
54.525 -117.964 2.904 0.00
54.525 -116.415 2.904 0.00
54.525 -114.865 2.904 0.00
54.525 -113.315 2.904 0.00
54.525 -111.766 2.904 0.00
54.525 -110.216 2.904 0.00
54.525 -108.666 2.904 0.00
54.525 -107.117 2.904 0.00
54.525 -105.567 2.904 0.00
54.525 -104.017 2.904 0.00
54.525 -102.468 2.904 0.00
54.525 -100.918 2.904 0.00
54.525 -99.368 2.904 0.00
54.525 -97.819 2.904 0.00
54.525 -96.269 2.905 0.00
54.525 -94.719 2.905 0.00
54.525 -93.170 2.904 0.00
54.525 -91.620 2.904 0.00
54.525 -90.070 2.904 0.00
54.525 -88.520 2.904 0.00
54.525 -86.971 2.904 0.00
54.525 -85.421 2.904 0.00
54.525 -83.871 2.904 0.00
54.525 -82.322 2.904 0.00
54.525 -80.772 2.904 0.00
54.525 -79.222 2.904 0.00
54.525 -77.673 2.904 0.00
54.525 -76.123 2.904 0.00
54.525 -74.573 2.904 0.00
54.525 -73.024 2.904 0.00
54.525 -71.474 2.904 0.00
54.525 -69.924 2.904 0.00
54.525 -68.375 2.905 0.00
54.525 -66.825 2.905 9.82
54.525 -65.275 2.905 0.00
54.525 -63.726 2.904 0.00
54.525 -62.176 2.904 0.00
54.525 -60.626 2.904 0.00
54.525 -59.077 2.904 0.00
54.525 -57.527 2.904 0.00
54.525 -55.977 2.904 0.00
55.424 -143.742 2.904 0.00
55.424 -142.157 2.904 0.00
55.424 -140.572 2.904 0.00
55.424 -138.988 2.904 0.00
55.424 -137.403 2.904 0.00
55.424 -135.818 2.904 0.00
55.424 -134.233 2.904 0.00
55.424 -132.648 2.904 0.00
55.424 -131.064 2.904 0.00
55.424 -129.479 2.904 0.00
55.424 -127.894 2.904 0.00
55.424 -126.309 2.904 0.00
55.424 -124.725 2.904 0.00
55.424 -123.140 2.904 0.00
55.424 -121.555 2.904 0.00
55.424 -119.970 2.904 0.00
55.424 -118.385 2.904 0.00
55.424 -116.801 2.904 0.00
55.424 -115.216 2.904 0.00
55.424 -113.631 2.904 0.00
55.424 -112.046 2.904 0.00
55.424 -110.462 2.904 0.00
55.424 -108.877 2.904 0.00
55.424 -107.292 2.904 0.00
55.424 -105.707 2.904 0.00
55.424 -104.123 2.904 0.00
55.424 -102.538 2.904 0.00
55.424 -100.953 2.904 0.00
55.424 -99.368 2.904 0.00
55.424 -97.783 2.904 0.00
55.424 -96.199 2.904 0.00
55.424 -94.614 2.904 0.00
55.424 -93.029 2.904 0.00
55.424 -91.444 2.904 0.00
55.424 -89.860 2.904 0.00
55.424 -88.275 2.904 0.00
55.424 -86.690 2.904 0.00
55.424 -85.105 2.904 0.00
55.424 -83.520 2.904 0.00
55.424 -81.936 2.904 0.00
55.424 -80.351 2.904 0.00
55.424 -78.766 2.904 0.00
55.424 -77.181 2.904 0.00
55.424 -75.597 2.904 0.00
55.424 -74.012 2.904 0.00
55.424 -72.427 2.904 0.00
55.424 -70.842 2.904 0.00
55.424 -69.257 2.904 0.00
55.424 -67.673 2.904 0.00
55.424 -66.088 2.905 0.00
55.424 -64.503 2.904 0.00
55.424 -62.918 2.904 0.00
55.424 -61.334 2.904 0.00
55.424 -59.749 2.904 0.00
55.424 -58.164 2.904 0.00
55.424 -56.579 2.904 0.00
55.424 -54.995 2.904 0.00
56.324 -144.782 2.904 0.00
56.324 -143.160 2.904 0.00
56.324 -141.538 2.904 0.00
56.324 -139.916 2.904 0.00
56.324 -138.294 2.904 0.00
56.324 -136.672 2.904 0.00
56.324 -135.050 2.905 0.00
56.324 -133.428 2.905 0.00
56.324 -131.806 2.905 0.00
56.324 -130.184 2.905 0.00
56.324 -128.563 2.905 0.00
56.324 -126.941 2.904 0.00
56.324 -125.319 2.904 0.00
56.324 -123.697 2.904 0.00
56.324 -122.075 2.904 0.00
56.324 -120.453 2.904 0.00
56.324 -118.831 2.904 0.00
56.324 -117.209 2.904 0.00
56.324 -115.587 2.904 0.00
56.324 -113.965 2.904 0.00
56.324 -112.343 2.904 0.00
56.324 -110.722 2.904 0.00
56.324 -109.100 2.904 0.00
56.324 -107.478 2.904 0.00
56.324 -105.856 2.904 0.00
56.324 -104.234 2.904 0.00
56.324 -102.612 2.904 0.00
56.324 -100.990 2.904 0.00
56.324 -99.368 2.904 0.00
56.324 -97.746 2.904 0.00
56.324 -96.124 2.904 0.00
56.324 -94.502 2.904 0.00
56.324 -92.881 2.904 0.00
56.324 -91.259 2.904 0.00
56.324 -89.637 2.904 0.00
56.324 -88.015 2.904 0.00
56.324 -86.393 2.904 0.00
56.324 -84.771 2.904 0.00
56.324 -83.149 2.904 0.00
56.324 -81.527 2.904 0.00
56.324 -79.905 2.904 0.00
56.324 -78.283 2.904 0.00
56.324 -76.661 2.904 0.00
56.324 -75.040 2.904 0.00
56.324 -73.418 2.904 0.00
56.324 -71.796 2.904 0.00
56.324 -70.174 2.904 0.00
56.324 -68.552 2.904 0.00
56.324 -66.930 2.904 0.00
56.324 -65.308 2.904 0.00
56.324 -63.686 2.904 0.00
56.324 -62.064 2.904 0.00
56.324 -60.442 2.904 0.00
56.324 -58.820 2.904 0.00
56.324 -57.199 2.904 0.00
56.324 -55.577 2.904 0.00
56.324 -53.955 2.904 0.00
57.223 -145.883 2.904 0.00
57.223 -144.222 2.904 0.00
57.223 -142.561 2.904 0.00
57.223 -140.899 2.904 0.00
57.223 -139.238 2.904 0.00
57.223 -137.577 2.905 0.00
57.223 -135.916 2.905 0.00
57.223 -134.254 2.905 0.00
57.223 -132.593 2.904 0.00
57.223 -130.932 2.905 0.00
57.223 -129.271 2.905 0.00
57.223 -127.609 2.905 0.00
57.223 -125.948 2.904 0.00
57.223 -124.287 2.904 0.00
57.223 -122.626 2.904 0.00
57.223 -120.964 2.904 0.00
57.223 -119.303 2.904 0.00
57.223 -117.642 2.904 0.00
57.223 -115.981 2.904 0.00
57.223 -114.319 2.904 0.00
57.223 -112.658 2.904 0.00
57.223 -110.997 2.904 0.00
57.223 -109.336 2.904 0.00
57.223 -107.674 2.904 0.00
57.223 -106.013 2.904 0.00
57.223 -104.352 2.904 0.00
57.223 -102.691 2.904 0.00
57.223 -101.029 2.904 0.00
57.223 -99.368 2.904 0.00
57.223 -97.707 2.904 0.00
57.223 -96.046 2.904 0.00
57.223 -94.384 2.904 0.00
57.223 -92.723 2.904 0.00
57.223 -91.062 2.904 0.00
57.223 -89.401 2.904 0.00
57.223 -87.739 2.904 0.00
57.223 -86.078 2.904 0.00
57.223 -84.417 2.904 0.00
57.223 -82.756 2.904 0.00
57.223 -81.094 2.904 0.00
57.223 -79.433 2.904 0.00
57.223 -77.772 2.904 0.00
57.223 -76.111 2.904 0.00
57.223 -74.449 2.904 0.00
57.223 -72.788 2.904 0.00
57.223 -71.127 2.904 0.00
57.223 -69.466 2.904 0.00
57.223 -67.805 2.904 0.00
57.223 -66.143 2.904 0.00
57.223 -64.482 2.904 0.00
57.223 -62.821 2.904 0.00
57.223 -61.160 2.904 0.00
57.223 -59.498 2.904 0.00
57.223 -57.837 2.904 0.00
57.223 -56.176 2.904 0.00
57.223 -54.515 2.904 0.00
57.223 -52.853 2.904 0.00
58.122 -147.051 2.904 0.00
58.122 -145.348 2.904 0.00
58.122 -143.645 2.904 0.00
58.122 -141.942 2.904 0.00
58.122 -140.239 2.904 0.00
58.122 -138.537 2.905 0.00
58.122 -136.834 2.905 0.00
58.122 -135.131 2.904 0.00
58.122 -133.428 2.903 0.00
58.122 -131.725 2.904 0.75
58.122 -130.022 2.905 9.17
58.122 -128.319 2.905 0.00
58.122 -126.616 2.904 0.00
58.122 -124.913 2.904 0.00
58.122 -123.210 2.904 0.00
58.122 -121.507 2.904 0.00
58.122 -119.804 2.904 0.00
58.122 -118.101 2.904 0.00
58.122 -116.398 2.904 0.00
58.122 -114.695 2.904 0.00
58.122 -112.992 2.904 0.00
58.122 -111.289 2.904 0.00
58.122 -109.586 2.904 0.00
58.122 -107.883 2.904 0.00
58.122 -106.180 2.904 0.00
58.122 -104.477 2.904 0.00
58.122 -102.774 2.904 0.00
58.122 -101.071 2.904 0.00
58.122 -99.368 2.904 0.00
58.122 -97.665 2.904 0.00
58.122 -95.962 2.904 0.00
58.122 -94.259 2.904 0.00
58.122 -92.556 2.904 0.00
58.122 -90.853 2.904 0.00
58.122 -89.150 2.904 0.00
58.122 -87.447 2.904 0.00
58.122 -85.744 2.904 0.00
58.122 -84.041 2.904 0.00
58.122 -82.339 2.904 0.00
58.122 -80.636 2.904 0.00
58.122 -78.933 2.904 0.00
58.122 -77.230 2.904 0.00
58.122 -75.527 2.904 0.00
58.122 -73.824 2.904 0.00
58.122 -72.121 2.904 0.00
58.122 -70.418 2.904 0.00
58.122 -68.715 2.904 0.00
58.122 -67.012 2.904 0.00
58.122 -65.309 2.904 0.00
58.122 -63.606 2.904 0.00
58.122 -61.903 2.904 0.00
58.122 -60.200 2.904 0.00
58.122 -58.497 2.904 0.00
58.122 -56.794 2.904 0.00
58.122 -55.091 2.904 0.00
58.122 -53.388 2.904 0.00
58.122 -51.685 2.904 0.00
59.022 -148.292 2.904 0.00
59.022 -146.545 2.904 0.00
59.022 -144.798 2.904 0.00
59.022 -143.050 2.904 0.00
59.022 -141.303 2.905 0.00
59.022 -139.556 2.905 0.00
59.022 -137.808 2.904 0.00
59.022 -136.061 2.902 0.00
59.022 -134.314 2.898 241.69
59.022 -132.567 2.902 13.01
59.022 -130.819 2.904 0.00
59.022 -129.072 2.905 0.00
59.022 -127.325 2.905 0.00
59.022 -125.577 2.904 0.00
59.022 -123.830 2.904 0.00
59.022 -122.083 2.904 0.00
59.022 -120.336 2.904 0.00
59.022 -118.588 2.904 0.00
59.022 -116.841 2.904 0.00
59.022 -115.094 2.904 0.00
59.022 -113.346 2.904 0.00
59.022 -111.599 2.904 0.00
59.022 -109.852 2.904 0.00
59.022 -108.105 2.904 0.00
59.022 -106.357 2.904 0.00
59.022 -104.610 2.904 0.00
59.022 -102.863 2.904 0.00
59.022 -101.115 2.904 0.00
59.022 -99.368 2.904 0.00
59.022 -97.621 2.904 0.00
59.022 -95.874 2.904 0.00
59.022 -94.126 2.904 0.00
59.022 -92.379 2.904 0.00
59.022 -90.632 2.904 0.00
59.022 -88.884 2.904 0.00
59.022 -87.137 2.904 0.00
59.022 -85.390 2.904 0.00
59.022 -83.643 2.904 0.00
59.022 -81.895 2.904 0.00
59.022 -80.148 2.904 0.00
59.022 -78.401 2.904 0.00
59.022 -76.654 2.904 0.00
59.022 -74.906 2.904 0.00
59.022 -73.159 2.904 0.00
59.022 -71.412 2.904 0.00
59.022 -69.664 2.904 0.00
59.022 -67.917 2.904 0.00
59.022 -66.170 2.904 0.00
59.022 -64.423 2.904 0.00
59.022 -62.675 2.904 0.00
59.022 -60.928 2.904 0.00
59.022 -59.181 2.904 0.00
59.022 -57.433 2.904 0.00
59.022 -55.686 2.904 0.00
59.022 -53.939 2.904 0.00
59.022 -52.192 2.904 0.00
59.022 -50.444 2.904 0.00
59.921 -149.612 2.904 0.00
59.921 -147.818 2.904 0.00
59.921 -146.023 2.904 0.00
59.921 -144.229 2.904 0.00
59.921 -142.434 2.905 0.00
59.921 -140.640 2.905 0.00
59.921 -138.845 2.904 0.00
59.921 -137.051 2.901 0.00
59.921 -135.257 2.897 207.95
59.921 -133.462 2.901 1.00
59.921 -131.668 2.904 0.00
59.921 -129.873 2.905 0.00
59.921 -128.079 2.905 0.00
59.921 -126.284 2.904 0.00
59.921 -124.490 2.904 0.00
59.921 -122.696 2.904 0.00
59.921 -120.901 2.904 0.00
59.921 -119.107 2.904 0.00
59.921 -117.312 2.904 0.00
59.921 -115.518 2.904 0.00
59.921 -113.724 2.904 0.00
59.921 -111.929 2.904 0.00
59.921 -110.135 2.904 0.00
59.921 -108.340 2.904 0.00
59.921 -106.546 2.904 0.00
59.921 -104.751 2.904 0.00
59.921 -102.957 2.904 0.00
59.921 -101.163 2.904 0.00
59.921 -99.368 2.904 0.00
59.921 -97.574 2.904 0.00
59.921 -95.779 2.904 0.00
59.921 -93.985 2.904 0.00
59.921 -92.191 2.904 0.00
59.921 -90.396 2.904 0.00
59.921 -88.602 2.904 0.00
59.921 -86.807 2.904 0.00
59.921 -85.013 2.904 0.00
59.921 -83.218 2.904 0.00
59.921 -81.424 2.904 0.00
59.921 -79.630 2.904 0.00
59.921 -77.835 2.904 0.00
59.921 -76.041 2.904 0.00
59.921 -74.246 2.904 0.00
59.921 -72.452 2.904 0.00
59.921 -70.657 2.904 0.00
59.921 -68.863 2.904 0.00
59.921 -67.069 2.904 0.00
59.921 -65.274 2.904 0.00
59.921 -63.480 2.904 0.00
59.921 -61.685 2.904 0.00
59.921 -59.891 2.904 0.00
59.921 -58.097 2.904 0.00
59.921 -56.302 2.904 0.00
59.921 -54.508 2.904 0.00
59.921 -52.713 2.904 0.00
59.921 -50.919 2.904 0.00
59.921 -49.124 2.904 0.00
60.820 -151.018 2.904 0.00
60.820 -149.173 2.904 0.00
60.820 -147.329 2.904 0.00
60.820 -145.484 2.904 0.00
60.820 -143.639 2.905 0.00
60.820 -141.795 2.905 0.00
60.820 -139.950 2.905 0.00
60.820 -138.106 2.902 0.00
60.820 -136.261 2.898 107.98
60.820 -134.416 2.901 32.23
