39.236 -85.435 3.659 32615.03
39.236 -84.273 3.601 33887.31
39.236 -83.112 3.519 32169.68
39.236 -81.951 3.516 34921.05
39.236 -80.790 3.470 30296.79
39.236 -79.629 3.521 23134.12
39.236 -78.468 3.611 11359.00
39.236 -77.307 3.719 5996.69
39.236 -76.145 3.741 2341.98
39.236 -74.984 3.737 557.60
39.236 -73.823 3.656 0.00
39.236 -72.662 3.614 79.62
39.236 -71.501 3.581 0.00
39.236 -70.340 3.571 0.00
39.236 -69.179 3.571 0.00
39.236 -68.018 3.572 0.00
39.236 -66.856 3.571 0.00
40.135 -132.306 3.564 0.00
40.135 -131.130 3.566 0.00
40.135 -129.954 3.586 0.00
40.135 -128.777 3.614 0.00
40.135 -127.601 3.651 101.90
40.135 -126.424 3.692 50.95
40.135 -125.248 3.676 0.00
40.135 -124.072 3.531 12086.00
40.135 -122.895 3.399 33771.72
40.135 -121.719 3.306 37116.52
40.135 -120.543 3.435 71556.28
40.135 -119.366 3.490 74798.62
40.135 -118.190 3.584 53776.54
40.135 -117.014 3.653 55526.80
40.135 -115.837 3.651 55303.48
40.135 -114.661 3.585 70014.33
40.135 -113.484 3.523 73839.65
40.135 -112.308 3.425 71546.65
40.135 -111.132 3.342 59779.39
40.135 -109.955 3.318 54716.68
40.135 -108.779 3.303 63741.42
40.135 -107.603 3.280 62060.56
40.135 -106.426 3.216 47585.73
40.135 -105.250 3.338 41767.51
40.135 -104.074 3.512 36874.57
40.135 -102.897 3.635 35566.23
40.135 -101.721 3.611 34634.59
40.135 -100.545 3.543 32865.50
40.135 -99.368 3.526 32747.77
40.135 -98.192 3.548 35075.05
40.135 -97.015 3.575 45128.02
40.135 -95.839 3.513 50598.34
40.135 -94.663 3.461 51019.11
40.135 -93.486 3.529 54602.12
40.135 -92.310 3.660 56481.20
40.135 -91.134 3.654 52412.84
40.135 -89.957 3.596 35769.09
40.135 -88.781 3.507 32621.75
40.135 -87.605 3.488 38082.82
40.135 -86.428 3.555 33136.91
40.135 -85.252 3.647 38492.66
40.135 -84.076 3.610 37506.47
40.135 -82.899 3.562 30115.43
40.135 -81.723 3.585 28189.81
40.135 -80.546 3.590 24327.54
40.135 -79.370 3.594 20330.69
40.135 -78.194 3.558 14676.41
40.135 -77.017 3.579 10872.00
40.135 -75.841 3.715 4402.25
40.135 -74.665 3.785 1852.64
40.135 -73.488 3.712 0.00
40.135 -72.312 3.631 79.61
40.135 -71.136 3.575 0.00
40.135 -69.959 3.566 0.00
40.135 -68.783 3.571 0.00
40.135 -67.607 3.572 0.00
40.135 -66.430 3.569 0.00
41.034 -132.752 3.569 0.00
41.034 -131.560 3.573 0.00
41.034 -130.368 3.607 0.00
41.034 -129.175 3.641 75.93
41.034 -127.983 3.693 79.93
41.034 -126.791 3.740 0.00
41.034 -125.598 3.693 285.87
41.034 -124.406 3.366 59357.81
41.034 -123.214 3.193 45683.29
41.034 -122.022 3.172 43376.39
41.034 -120.829 3.344 38623.19
41.034 -119.637 3.352 56527.97
41.034 -118.445 3.561 57093.50
41.034 -117.252 3.642 50616.29
41.034 -116.060 3.709 48947.30
41.034 -114.868 3.736 79916.06
41.034 -113.676 3.695 65424.79
41.034 -112.483 3.452 63432.86
41.034 -111.291 3.292 59734.09
41.034 -110.099 3.144 70201.09
41.034 -108.906 3.192 54301.15
41.034 -107.714 3.261 48495.82
41.034 -106.522 3.306 41632.98
41.034 -105.330 3.385 37235.09
41.034 -104.137 3.490 33261.73
41.034 -102.945 3.548 27596.00
41.034 -101.753 3.555 29581.74
41.034 -100.560 3.548 29354.97
41.034 -99.368 3.483 30953.29
41.034 -98.176 3.460 36247.73
41.034 -96.984 3.508 44836.07
41.034 -95.791 3.557 48566.12
41.034 -94.599 3.550 52373.11
41.034 -93.407 3.624 52603.72
41.034 -92.215 3.714 46159.54
41.034 -91.022 3.673 34460.12
41.034 -89.830 3.667 26028.15
41.034 -88.638 3.626 24167.91
41.034 -87.445 3.607 26228.68
41.034 -86.253 3.682 26321.81
41.034 -85.061 3.696 32002.09
41.034 -83.869 3.623 29544.49
41.034 -82.676 3.561 27300.11
41.034 -81.484 3.557 23012.04
41.034 -80.292 3.589 20380.60
41.034 -79.099 3.478 17689.21
41.034 -77.907 3.397 18502.12
41.034 -76.715 3.456 14876.83
41.034 -75.523 3.678 12360.55
41.034 -74.330 3.858 7971.78
41.034 -73.138 3.821 1119.39
41.034 -71.946 3.696 386.11
41.034 -70.753 3.588 9.99
41.034 -69.561 3.560 0.00
41.034 -68.369 3.567 0.00
41.034 -67.177 3.569 0.00
41.034 -65.984 3.572 0.00
41.934 -133.219 3.589 0.00
41.934 -132.010 3.594 0.00
41.934 -130.801 3.633 53.95
41.934 -129.592 3.685 104.90
41.934 -128.383 3.742 0.00
41.934 -127.174 3.822 76.92
41.934 -125.965 3.841 1850.09
41.934 -124.756 3.585 14244.91
41.934 -123.547 3.337 27592.38
41.934 -122.338 3.353 31451.48
41.934 -121.129 3.405 31724.51
41.934 -119.920 3.417 40427.00
41.934 -118.711 3.507 43112.33
41.934 -117.502 3.466 45364.94
41.934 -116.293 3.478 52797.73
41.934 -115.085 3.533 64050.20
41.934 -113.876 3.657 54748.36
41.934 -112.667 3.686 61303.30
41.934 -111.458 3.502 73800.61
41.934 -110.249 3.387 67515.52
41.934 -109.040 3.358 53637.98
41.934 -107.831 3.351 45330.67
41.934 -106.622 3.376 39448.71
41.934 -105.413 3.417 36558.32
41.934 -104.204 3.475 29868.64
41.934 -102.995 3.455 28232.85
41.934 -101.786 3.515 27815.53
41.934 -100.577 3.562 32175.29
41.934 -99.368 3.517 35113.75
41.934 -98.159 3.595 37578.72
41.934 -96.950 3.583 44900.55
41.934 -95.741 3.583 49800.10
41.934 -94.532 3.579 50652.90
41.934 -93.323 3.625 44337.56
41.934 -92.115 3.666 36600.71
41.934 -90.906 3.705 34665.80
41.934 -89.697 3.754 22770.16
41.934 -88.488 3.720 22937.63
41.934 -87.279 3.639 19599.47
41.934 -86.070 3.669 21064.44
41.934 -84.861 3.634 25900.70
41.934 -83.652 3.587 24241.40
41.934 -82.443 3.597 19944.50
41.934 -81.234 3.550 22164.98
41.934 -80.025 3.538 22571.85
41.934 -78.816 3.452 21712.23
41.934 -77.607 3.396 17676.42
41.934 -76.398 3.500 13698.32
41.934 -75.189 3.696 11709.65
41.934 -73.980 3.846 9634.35
41.934 -72.771 3.867 4110.40
41.934 -71.562 3.737 1174.98
41.934 -70.353 3.616 259.51
41.934 -69.145 3.566 0.00
41.934 -67.936 3.560 0.00
41.934 -66.727 3.563 0.00
41.934 -65.518 3.580 0.00
42.833 -133.707 3.624 0.00
42.833 -132.481 3.634 35.97
42.833 -131.254 3.660 126.88
42.833 -130.028 3.687 0.00
42.833 -128.802 3.738 7.99
42.833 -127.575 3.759 305.70
42.833 -126.349 3.627 10716.40
42.833 -125.122 3.433 15704.68
42.833 -123.896 3.391 11682.91
42.833 -122.670 3.408 23544.04
42.833 -121.443 3.418 26699.35
42.833 -120.217 3.432 29328.04
42.833 -118.990 3.487 34833.06
42.833 -117.764 3.478 41178.21
42.833 -116.538 3.488 51227.34
42.833 -115.311 3.394 46872.04
42.833 -114.085 3.443 49533.09
42.833 -112.858 3.459 51725.57
42.833 -111.632 3.412 57146.25
42.833 -110.406 3.410 55748.82
42.833 -109.179 3.367 52814.09
42.833 -107.953 3.375 43226.91
42.833 -106.727 3.465 40674.40
42.833 -105.500 3.427 37722.35
42.833 -104.274 3.410 36318.17
42.833 -103.047 3.428 32544.96
42.833 -101.821 3.566 32194.76
42.833 -100.595 3.614 32782.90
42.833 -99.368 3.550 32683.42
42.833 -98.142 3.547 40042.01
42.833 -96.915 3.523 44615.27
42.833 -95.689 3.568 43472.22
42.833 -94.463 3.596 40583.42
42.833 -93.236 3.627 34856.11
42.833 -92.010 3.655 29879.32
42.833 -90.783 3.656 36541.30
42.833 -89.557 3.723 23123.64
42.833 -88.331 3.792 19899.38
42.833 -87.104 3.717 18355.15
42.833 -85.878 3.703 17786.12
42.833 -84.652 3.696 18668.72
42.833 -83.425 3.635 18078.25
42.833 -82.199 3.608 19980.66
42.833 -80.972 3.583 20977.71
42.833 -79.746 3.535 21007.25
42.833 -78.520 3.482 21591.12
42.833 -77.293 3.449 17099.45
42.833 -76.067 3.591 13662.28
42.833 -74.840 3.752 12050.35
42.833 -73.614 3.763 13335.50
42.833 -72.388 3.800 12906.68
42.833 -71.161 3.730 2393.56
42.833 -69.935 3.639 45.95
42.833 -68.708 3.589 0.00
42.833 -67.482 3.567 0.00
42.833 -66.256 3.561 0.00
42.833 -65.029 3.591 0.00
43.732 -134.219 3.663 22.98
43.732 -132.974 3.670 143.87
43.732 -131.729 3.667 0.00
43.732 -130.485 3.726 0.00
43.732 -129.240 3.773 283.72
43.732 -127.995 3.560 211.56
43.732 -126.751 3.183 44279.03
43.732 -125.506 3.061 24154.59
43.732 -124.261 3.124 16080.35
43.732 -123.017 3.264 19781.62
43.732 -121.772 3.270 23677.34
43.732 -120.527 3.305 26910.80
43.732 -119.283 3.418 31059.30
43.732 -118.038 3.496 36467.14
43.732 -116.793 3.522 44137.27
43.732 -115.549 3.483 39702.64
43.732 -114.304 3.495 42665.73
43.732 -113.059 3.434 36503.21
43.732 -111.815 3.277 38925.34
43.732 -110.570 3.237 46362.40
43.732 -109.325 3.302 40316.57
43.732 -108.081 3.464 39782.74
43.732 -106.836 3.574 37328.24
43.732 -105.591 3.604 33154.24
43.732 -104.347 3.525 33906.39
43.732 -103.102 3.494 31519.88
43.732 -101.858 3.597 30321.82
43.732 -100.613 3.621 32177.38
43.732 -99.368 3.588 38223.10
43.732 -98.124 3.587 39310.49
43.732 -96.879 3.558 45942.68
43.732 -95.634 3.537 42384.28
43.732 -94.390 3.534 34621.88
43.732 -93.145 3.579 33894.40
43.732 -91.900 3.628 29480.17
43.732 -90.656 3.613 33817.38
43.732 -89.411 3.699 24078.85
43.732 -88.166 3.762 20338.01
43.732 -86.922 3.714 18109.83
43.732 -85.677 3.700 18500.13
43.732 -84.432 3.705 13474.74
43.732 -83.188 3.688 13815.36
43.732 -81.943 3.656 13764.41
43.732 -80.698 3.636 17868.67
43.732 -79.454 3.592 18104.72
43.732 -78.209 3.533 19272.98
43.732 -76.964 3.535 18117.79
43.732 -75.720 3.695 13009.55
43.732 -74.475 3.781 13945.48
43.732 -73.230 3.728 9186.47
43.732 -71.986 3.751 7349.54
43.732 -70.741 3.695 8102.65
43.732 -69.496 3.659 610.95
43.732 -68.252 3.627 144.86
43.732 -67.007 3.600 115.89
43.732 -65.763 3.589 0.00
43.732 -64.518 3.617 0.00
44.632 -134.754 3.697 171.84
44.632 -133.490 3.683 0.00
44.632 -132.227 3.716 0.00
44.632 -130.963 3.824 215.79
44.632 -129.699 3.843 209.18
44.632 -128.435 3.588 315.55
44.632 -127.172 3.137 2818.26
44.632 -125.908 3.009 10552.48
44.632 -124.644 3.076 12397.80
44.632 -123.380 3.250 18497.86
44.632 -122.116 3.326 21417.55
44.632 -120.853 3.396 22882.84
44.632 -119.589 3.525 25963.27
44.632 -118.325 3.544 35904.51
44.632 -117.061 3.544 38891.37
44.632 -115.797 3.573 33732.81
44.632 -114.534 3.542 34333.00
44.632 -113.270 3.502 36049.69
44.632 -112.006 3.354 32303.30
44.632 -110.742 3.282 37263.35
44.632 -109.479 3.371 32007.58
44.632 -108.215 3.496 28028.08
44.632 -106.951 3.529 28874.74
44.632 -105.687 3.634 28025.57
44.632 -104.423 3.626 26238.95
44.632 -103.160 3.519 27188.50
44.632 -101.896 3.551 27425.19
44.632 -100.632 3.626 26368.03
44.632 -99.368 3.700 28514.85
44.632 -98.104 3.714 30032.14
44.632 -96.841 3.658 36732.85
44.632 -95.577 3.610 33835.79
44.632 -94.313 3.511 33173.97
44.632 -93.049 3.496 28850.39
44.632 -91.785 3.593 28597.67
44.632 -90.522 3.644 26101.20
44.632 -89.258 3.675 26912.79
44.632 -87.994 3.686 18452.03
44.632 -86.730 3.614 17701.99
44.632 -85.467 3.646 17159.54
44.632 -84.203 3.694 14864.45
44.632 -82.939 3.711 12482.29
44.632 -81.675 3.695 13126.99
44.632 -80.411 3.652 13151.45
44.632 -79.148 3.552 16897.83
44.632 -77.884 3.498 23594.67
44.632 -76.620 3.542 19417.13
44.632 -75.356 3.756 15416.98
44.632 -74.092 3.761 11242.74
44.632 -72.829 3.660 6518.01
44.632 -71.565 3.680 4234.07
44.632 -70.301 3.679 3190.12
44.632 -69.037 3.679 2310.84
44.632 -67.773 3.673 1693.02
44.632 -66.510 3.660 127.88
44.632 -65.246 3.661 228.79
44.632 -63.982 3.680 197.98
45.531 -135.316 3.731 161.85
45.531 -134.032 3.719 0.00
45.531 -132.748 3.769 150.11
45.531 -131.464 3.872 228.26
45.531 -130.180 3.936 169.05
45.531 -128.897 3.791 338.68
45.531 -127.613 3.482 1363.24
45.531 -126.329 3.466 2100.78
45.531 -125.045 3.408 4075.63
45.531 -123.761 3.352 10873.99
45.531 -122.477 3.349 16164.31
45.531 -121.193 3.420 20113.16
45.531 -119.910 3.575 24814.97
45.531 -118.626 3.675 35333.97
45.531 -117.342 3.611 32737.71
45.531 -116.058 3.600 26968.27
45.531 -114.774 3.592 27794.43
45.531 -113.490 3.600 27482.88
45.531 -112.207 3.589 35368.09
45.531 -110.923 3.490 27043.98
45.531 -109.639 3.503 22321.28
45.531 -108.355 3.594 21585.10
45.531 -107.071 3.569 23478.71
45.531 -105.787 3.571 24733.98
45.531 -104.504 3.621 21015.13
45.531 -103.220 3.598 20530.64
45.531 -101.936 3.592 22901.22
45.531 -100.652 3.653 23953.82
45.531 -99.368 3.788 25276.35
45.531 -98.084 3.749 29212.84
45.531 -96.801 3.652 32474.72
45.531 -95.517 3.603 29375.07
45.531 -94.233 3.545 28174.63
45.531 -92.949 3.452 21828.13
45.531 -91.665 3.490 24696.21
45.531 -90.381 3.657 21764.41
45.531 -89.097 3.727 19282.99
45.531 -87.814 3.666 14639.33
45.531 -86.530 3.558 15163.82
45.531 -85.246 3.631 14902.28
45.531 -83.962 3.804 11091.98
45.531 -82.678 3.838 12321.10
45.531 -81.394 3.773 11776.26
45.531 -80.111 3.724 12329.49
45.531 -78.827 3.645 12439.32
45.531 -77.543 3.527 19389.05
45.531 -76.259 3.493 22951.63
45.531 -74.975 3.719 6087.05
45.531 -73.691 3.776 5354.55
45.531 -72.408 3.669 3952.67
45.531 -71.124 3.622 3471.24
45.531 -69.840 3.642 3399.30
45.531 -68.556 3.688 891.82
45.531 -67.272 3.721 1290.46
45.531 -65.988 3.732 998.15
45.531 -64.705 3.735 405.40
45.531 -63.421 3.749 424.58
46.431 -135.904 3.763 346.90
46.431 -134.600 3.771 109.41
46.431 -133.295 3.798 249.78
46.431 -131.990 3.816 152.86
46.431 -130.685 3.883 196.81
46.431 -129.380 3.916 328.67
46.431 -128.075 3.891 1250.26
46.431 -126.770 4.065 1910.29
46.431 -125.466 3.865 2966.48
46.431 -124.161 3.534 6570.06
46.431 -122.856 3.376 12433.01
46.431 -121.551 3.342 18965.29
46.431 -120.246 3.520 25628.13
46.431 -118.941 3.752 30515.97
46.431 -117.636 3.657 23532.96
46.431 -116.331 3.608 21208.14
46.431 -115.027 3.607 23779.29
46.431 -113.722 3.611 25934.62
46.431 -112.417 3.645 23265.14
46.431 -111.112 3.596 15662.00
46.431 -109.807 3.532 17532.29
46.431 -108.502 3.549 19025.14
46.431 -107.197 3.542 19377.36
46.431 -105.893 3.537 24483.37
46.431 -104.588 3.598 17695.91
46.431 -103.283 3.597 17027.95
46.431 -101.978 3.530 17315.58
46.431 -100.673 3.566 16194.07
46.431 -99.368 3.706 19337.55
46.431 -98.063 3.763 21661.26
46.431 -96.758 3.761 24311.95
46.431 -95.454 3.721 25286.03
46.431 -94.149 3.630 21990.40
46.431 -92.844 3.557 19670.31
46.431 -91.539 3.525 15077.33
46.431 -90.234 3.603 13540.44
46.431 -88.929 3.664 11097.87
46.431 -87.624 3.609 8096.15
46.431 -86.320 3.529 10670.94
46.431 -85.015 3.678 9742.59
46.431 -83.710 3.814 8404.67
46.431 -82.405 3.863 7021.58
46.431 -81.100 3.854 7022.78
46.431 -79.795 3.832 6865.26
46.431 -78.490 3.815 5861.61
46.431 -77.185 3.764 5339.71
46.431 -75.881 3.734 5401.05
46.431 -74.576 3.765 3466.75
46.431 -73.271 3.740 4460.15
46.431 -71.966 3.624 3298.74
46.431 -70.661 3.564 2602.68
46.431 -69.356 3.621 1576.59
46.431 -68.051 3.692 906.99
46.431 -66.747 3.746 403.55
46.431 -65.442 3.760 457.54
46.431 -64.137 3.734 573.40
46.431 -62.832 3.727 223.74
47.330 -136.522 3.802 295.22
47.330 -135.195 3.806 414.98
47.330 -133.868 3.801 144.86
47.330 -132.541 3.811 140.87
47.330 -131.214 3.842 159.85
47.330 -129.887 3.902 419.58
47.330 -128.561 4.032 1326.68
47.330 -127.234 4.312 2716.35
47.330 -125.907 4.094 2839.05
47.330 -124.580 3.721 5236.03
47.330 -123.253 3.461 13336.14
47.330 -121.926 3.402 17787.45
47.330 -120.599 3.554 22288.42
47.330 -119.272 3.777 20617.12
47.330 -117.945 3.720 17945.25
47.330 -116.618 3.634 18800.41
47.330 -115.291 3.524 19912.79
47.330 -113.964 3.525 18307.74
47.330 -112.637 3.608 17715.79
47.330 -111.311 3.583 14118.83
47.330 -109.984 3.482 14300.04
47.330 -108.657 3.417 14687.36
47.330 -107.330 3.445 15584.29
47.330 -106.003 3.463 16459.68
47.330 -104.676 3.491 16768.53
47.330 -103.349 3.512 13904.66
47.330 -102.022 3.535 15575.76
47.330 -100.695 3.583 17002.15
47.330 -99.368 3.669 16804.96
47.330 -98.041 3.780 19025.82
47.330 -96.714 3.756 18577.78
47.330 -95.387 3.730 16921.63
47.330 -94.061 3.703 14002.53
47.330 -92.734 3.672 10455.71
47.330 -91.407 3.611 7399.74
47.330 -90.080 3.651 7755.98
47.330 -88.753 3.683 8468.29
47.330 -87.426 3.624 7233.26
47.330 -86.099 3.579 6017.82
47.330 -84.772 3.688 4810.60
47.330 -83.445 3.770 4689.57
47.330 -82.118 3.805 4250.72
47.330 -80.791 3.818 4440.47
47.330 -79.464 3.833 4603.09
47.330 -78.137 3.887 4152.28
47.330 -76.811 3.899 3630.13
47.330 -75.484 3.861 2900.98
47.330 -74.157 3.793 3095.53
47.330 -72.830 3.714 2584.86
47.330 -71.503 3.629 2301.64
47.330 -70.176 3.586 1543.97
47.330 -68.849 3.618 387.58
47.330 -67.522 3.674 478.89
47.330 -66.195 3.713 597.44
47.330 -64.868 3.700 494.10
47.330 -63.541 3.660 291.71
47.330 -62.214 3.714 361.76
48.229 -137.170 3.899 497.81
48.229 -135.820 3.870 203.82
48.229 -134.470 3.842 333.67
48.229 -133.120 3.847 450.56
48.229 -131.770 3.847 398.60
48.229 -130.420 3.879 1013.97
48.229 -129.070 4.016 1661.00
48.229 -127.720 4.256 2672.60
48.229 -126.370 4.060 2957.42
48.229 -125.020 3.779 7204.71
48.229 -123.670 3.590 16670.88
48.229 -122.320 3.554 16860.79
48.229 -120.969 3.587 17676.28
48.229 -119.619 3.726 14734.79
48.229 -118.269 3.718 14982.57
48.229 -116.919 3.591 16982.32
48.229 -115.569 3.449 14222.85
48.229 -114.219 3.470 13994.74
48.229 -112.869 3.592 13207.18
48.229 -111.519 3.611 9434.02
48.229 -110.169 3.464 10915.55
48.229 -108.819 3.375 11539.31
48.229 -107.469 3.481 13747.29
48.229 -106.119 3.520 11036.10
48.229 -104.769 3.516 17316.45
48.229 -103.418 3.522 13547.38
48.229 -102.068 3.540 14724.96
48.229 -100.718 3.577 13946.16
48.229 -99.368 3.671 12783.57
48.229 -98.018 3.700 10839.80
48.229 -96.668 3.657 12962.73
48.229 -95.318 3.676 10483.31
48.229 -93.968 3.723 7594.55
48.229 -92.618 3.717 5583.34
48.229 -91.268 3.658 5040.61
48.229 -89.918 3.723 3590.94
48.229 -88.568 3.745 4527.31
48.229 -87.217 3.725 3147.57
48.229 -85.867 3.697 2696.72
48.229 -84.517 3.769 2584.33
48.229 -83.167 3.846 2618.45
48.229 -81.817 3.883 2862.78
48.229 -80.467 3.903 2838.02
48.229 -79.117 3.894 2995.99
48.229 -77.767 3.917 3393.88
48.229 -76.417 3.964 2392.72
48.229 -75.067 3.879 1421.55
48.229 -73.717 3.753 1607.34
48.229 -72.367 3.669 979.00
48.229 -71.017 3.640 734.25
48.229 -69.666 3.646 222.77
48.229 -68.316 3.682 82.90
48.229 -66.966 3.703 424.57
48.229 -65.616 3.677 389.62
48.229 -64.266 3.642 383.68
48.229 -62.916 3.657 270.55
48.229 -61.566 3.793 272.09
49.129 -137.851 4.077 576.42
49.129 -136.477 4.054 167.83
49.129 -135.103 3.952 302.70
49.129 -133.728 3.887 405.59
49.129 -132.354 3.877 672.32
49.129 -130.979 3.937 915.02
49.129 -129.605 4.033 1125.94
49.129 -128.231 4.083 3065.61
49.129 -126.856 3.910 4675.75
49.129 -125.482 3.737 15077.06
49.129 -124.107 3.661 18849.46
49.129 -122.733 3.560 14902.28
49.129 -121.359 3.539 13431.31
49.129 -119.984 3.609 14090.57
49.129 -118.610 3.584 11008.31
49.129 -117.235 3.518 10315.23
49.129 -115.861 3.399 8245.95
49.129 -114.487 3.445 8963.62
49.129 -113.112 3.524 9911.06
49.129 -111.738 3.568 8202.84
49.129 -110.363 3.502 8006.54
49.129 -108.989 3.460 8987.35
49.129 -107.615 3.552 9175.60
49.129 -106.240 3.619 10478.96
49.129 -104.866 3.617 11820.33
49.129 -103.491 3.567 14490.81
49.129 -102.117 3.579 11867.40
49.129 -100.743 3.597 11545.23
49.129 -99.368 3.666 9317.60
49.129 -97.994 3.681 8338.89
49.129 -96.619 3.694 6887.00
49.129 -95.245 3.702 5379.22
49.129 -93.871 3.718 2916.93
49.129 -92.496 3.658 2469.43
49.129 -91.122 3.574 2911.98
49.129 -89.747 3.655 3823.41
49.129 -88.373 3.788 3917.02
49.129 -86.999 3.856 3475.98
49.129 -85.624 3.890 3536.52
49.129 -84.250 3.925 3253.74
49.129 -82.875 3.930 3112.92
49.129 -81.501 3.920 2108.53
49.129 -80.127 3.888 2854.13
49.129 -78.752 3.851 2199.75
49.129 -77.378 3.860 1231.65
49.129 -76.003 3.875 1212.94
49.129 -74.629 3.773 734.29
49.129 -73.255 3.664 917.02
49.129 -71.880 3.653 623.39
49.129 -70.506 3.679 334.63
49.129 -69.131 3.705 364.65
49.129 -67.757 3.723 570.36
49.129 -66.383 3.683 234.78
49.129 -65.008 3.652 155.04
49.129 -63.634 3.671 95.03
49.129 -62.259 3.764 143.46
49.129 -60.885 3.951 466.54
50.028 -138.567 4.178 655.99
50.028 -137.167 4.147 811.94
50.028 -135.767 3.937 574.42
50.028 -134.367 3.836 526.44
50.028 -132.967 3.885 294.72
50.028 -131.567 3.958 688.24
50.028 -130.167 3.936 1266.82
50.028 -128.767 3.819 4299.75
50.028 -127.368 3.716 15960.92
50.028 -125.968 3.649 19851.16
50.028 -124.568 3.530 17681.50
50.028 -123.168 3.472 14326.07
50.028 -121.768 3.475 13690.15
50.028 -120.368 3.486 10770.37
50.028 -118.968 3.453 8977.52
50.028 -117.568 3.432 10155.98
50.028 -116.168 3.390 8087.41
50.028 -114.768 3.511 8529.50
50.028 -113.368 3.585 8099.82
50.028 -111.968 3.583 7722.94
50.028 -110.568 3.560 6280.12
50.028 -109.168 3.591 8379.89
50.028 -107.768 3.554 8209.04
50.028 -106.368 3.564 9264.63
50.028 -104.968 3.560 9709.99
50.028 -103.568 3.583 14617.18
50.028 -102.168 3.614 10419.13
50.028 -100.768 3.623 9145.65
50.028 -99.368 3.718 6582.27
50.028 -97.968 3.793 5649.32
50.028 -96.568 3.819 7533.43
50.028 -95.168 3.811 3129.32
50.028 -93.768 3.773 2449.19
50.028 -92.368 3.666 1986.92
50.028 -90.968 3.542 3086.82
50.028 -89.568 3.671 2965.00
50.028 -88.168 3.852 2944.98
50.028 -86.769 3.873 2074.01
50.028 -85.369 3.894 1810.15
50.028 -83.969 3.903 2001.90
50.028 -82.569 3.847 2402.51
50.028 -81.169 3.791 2659.81
50.028 -79.769 3.764 1886.71
50.028 -78.369 3.745 1351.61
50.028 -76.969 3.800 1108.58
50.028 -75.569 3.817 1352.66
50.028 -74.169 3.729 1325.86
50.028 -72.769 3.675 502.48
50.028 -71.369 3.701 437.57
50.028 -69.969 3.741 498.44
50.028 -68.569 3.744 389.63
50.028 -67.169 3.711 305.51
50.028 -65.769 3.698 87.51
50.028 -64.369 3.732 132.50
50.028 -62.969 3.821 163.84
50.028 -61.569 3.927 525.50
50.028 -60.169 4.018 151.86
50.927 -139.320 4.114 993.06
50.927 -137.893 4.074 848.19
50.927 -136.466 3.865 350.64
50.927 -135.040 3.798 2.00
50.927 -133.613 3.862 524.47
50.927 -132.186 3.867 525.43
50.927 -130.759 3.745 2205.04
50.927 -129.332 3.635 20544.65
50.927 -127.905 3.609 27121.60
50.927 -126.478 3.538 18568.70
50.927 -125.052 3.475 18302.42
50.927 -123.625 3.502 13845.91
50.927 -122.198 3.458 11800.08
50.927 -120.771 3.454 10172.85
50.927 -119.344 3.471 10089.00
50.927 -117.917 3.455 10244.51
50.927 -116.490 3.480 7386.47
50.927 -115.064 3.622 6903.66
50.927 -113.637 3.689 6531.01
50.927 -112.210 3.623 7284.87
50.927 -110.783 3.624 6028.85
50.927 -109.356 3.623 6484.51
50.927 -107.929 3.544 8506.33
50.927 -106.502 3.475 9504.34
50.927 -105.076 3.446 11332.13
50.927 -103.649 3.550 12872.51
50.927 -102.222 3.656 11826.94
50.927 -100.795 3.672 7603.18
50.927 -99.368 3.774 5319.47
50.927 -97.941 3.906 4034.02
50.927 -96.514 3.905 3614.25
50.927 -95.088 3.876 2617.28
50.927 -93.661 3.860 2340.50
50.927 -92.234 3.732 2699.17
50.927 -90.807 3.623 3485.47
50.927 -89.380 3.788 2174.02
50.927 -87.953 3.954 1761.22
50.927 -86.526 3.889 2213.86
50.927 -85.100 3.810 2245.69
50.927 -83.673 3.749 1623.38
50.927 -82.246 3.698 2201.84
50.927 -80.819 3.676 2068.47
50.927 -79.392 3.695 926.07
50.927 -77.965 3.758 973.26
50.927 -76.538 3.831 753.04
50.927 -75.112 3.846 1130.85
50.927 -73.685 3.777 1032.86
50.927 -72.258 3.761 404.60
50.927 -70.831 3.767 611.36
50.927 -69.404 3.750 339.34
50.927 -67.977 3.742 297.68
50.927 -66.550 3.757 168.30
50.927 -65.124 3.819 259.76
50.927 -63.697 3.913 306.71
50.927 -62.270 3.966 479.53
50.927 -60.843 3.938 320.70
50.927 -59.416 3.953 749.30
51.827 -140.113 4.022 1076.00
51.827 -138.658 3.984 218.79
51.827 -137.203 3.808 21.97
51.827 -135.747 3.781 155.82
51.827 -134.292 3.841 684.31
51.827 -132.837 3.804 489.50
51.827 -131.382 3.649 30260.13
51.827 -129.927 3.654 43254.89
51.827 -128.472 3.648 22063.13
51.827 -127.016 3.589 17043.39
51.827 -125.561 3.597 14283.65
51.827 -124.106 3.675 12158.16
51.827 -122.651 3.645 9956.23
51.827 -121.196 3.639 7914.67
51.827 -119.741 3.619 7351.40
51.827 -118.285 3.519 6633.79
51.827 -116.830 3.534 5442.48
51.827 -115.375 3.633 5149.00
51.827 -113.920 3.713 5107.81
51.827 -112.465 3.672 6347.79
51.827 -111.010 3.661 7004.07
51.827 -109.554 3.666 7268.48
51.827 -108.099 3.601 8284.62
51.827 -106.644 3.499 11354.23
51.827 -105.189 3.482 12171.28
51.827 -103.734 3.583 11003.00
51.827 -102.279 3.697 12370.29
51.827 -100.823 3.725 7338.46
51.827 -99.368 3.837 4438.37
51.827 -97.913 3.903 4026.87
51.827 -96.458 3.873 2188.79
51.827 -95.003 3.859 2868.04
51.827 -93.548 3.869 2666.22
51.827 -92.092 3.791 2214.72
51.827 -90.637 3.717 2849.35
51.827 -89.182 3.870 2278.50
51.827 -87.727 4.004 2097.76
51.827 -86.272 3.892 2180.94
51.827 -84.817 3.744 1999.05
51.827 -83.361 3.681 1865.18
51.827 -81.906 3.647 1785.12
51.827 -80.451 3.677 1384.07
51.827 -78.996 3.785 1367.63
51.827 -77.541 3.900 1101.22
51.827 -76.085 3.966 1121.08
51.827 -74.630 3.965 1078.40
51.827 -73.175 3.889 1066.56
51.827 -71.720 3.836 620.53
51.827 -70.265 3.812 670.70
51.827 -68.810 3.809 289.75
51.827 -67.354 3.821 100.88
51.827 -65.899 3.871 194.82
51.827 -64.444 3.947 637.41
51.827 -62.989 3.971 673.35
51.827 -61.534 3.922 546.49
51.827 -60.079 3.875 703.35
51.827 -58.623 3.894 361.66
52.726 -140.948 3.980 432.60
52.726 -139.463 3.932 91.89
52.726 -137.978 3.798 135.84
52.726 -136.493 3.806 510.51
52.726 -135.008 3.854 643.37
52.726 -133.523 3.843 534.45
52.726 -132.038 3.779 4957.70
52.726 -130.553 3.767 10637.75
52.726 -129.068 3.697 8429.36
52.726 -127.583 3.638 8329.72
52.726 -126.098 3.637 8244.88
52.726 -124.613 3.662 8128.26
52.726 -123.128 3.618 6028.69
52.726 -121.643 3.601 6375.65
52.726 -120.158 3.583 6253.67
52.726 -118.673 3.501 6084.93
52.726 -117.188 3.557 5598.22
52.726 -115.703 3.641 5066.92
52.726 -114.218 3.771 4251.74
52.726 -112.733 3.772 7317.92
52.726 -111.248 3.783 7905.07
52.726 -109.763 3.767 7328.44
52.726 -108.278 3.697 9020.66
52.726 -106.793 3.568 12393.08
52.726 -105.308 3.548 11248.25
52.726 -103.823 3.616 11534.07
52.726 -102.338 3.709 10684.26
52.726 -100.853 3.754 8462.33
52.726 -99.368 3.795 4366.50
52.726 -97.883 3.806 2370.59
52.726 -96.398 3.802 2103.77
52.726 -94.913 3.808 2885.02
52.726 -93.428 3.854 2280.86
52.726 -91.943 3.833 2280.15
52.726 -90.458 3.711 2345.55
52.726 -88.973 3.804 1846.97
52.726 -87.488 3.899 1855.32
52.726 -86.003 3.826 2298.17
52.726 -84.518 3.687 1804.91
52.726 -83.033 3.641 1218.33
52.726 -81.548 3.657 1052.04
52.726 -80.063 3.736 1735.54
52.726 -78.578 3.860 1843.17
52.726 -77.093 3.959 1356.53
52.726 -75.608 3.994 1118.90
52.726 -74.123 3.944 1338.56
52.726 -72.638 3.881 808.23
52.726 -71.153 3.873 1037.98
52.726 -69.668 3.902 630.41
52.726 -68.183 3.931 500.54
52.726 -66.698 3.951 497.52
52.726 -65.213 3.970 826.23
52.726 -63.728 3.952 533.50
52.726 -62.243 3.911 530.48
52.726 -60.758 3.865 456.57
52.726 -59.273 3.848 36.97
52.726 -57.788 3.885 332.70
53.625 -141.829 3.936 586.42
53.625 -140.313 3.902 174.83
53.625 -138.796 3.799 382.65
53.625 -137.280 3.784 493.51
53.625 -135.763 3.795 184.80
53.625 -134.247 3.862 487.47
53.625 -132.730 3.931 1324.77
53.625 -131.214 3.898 2810.22
53.625 -129.697 3.801 2890.47
53.625 -128.181 3.730 3857.02
53.625 -126.665 3.700 4285.16
53.625 -125.148 3.659 5150.98
53.625 -123.632 3.596 3298.70
53.625 -122.115 3.568 4557.34
53.625 -120.599 3.523 4874.09
53.625 -119.082 3.505 4418.69
53.625 -117.566 3.580 5210.60
53.625 -116.049 3.664 4403.49
53.625 -114.533 3.766 5018.71
53.625 -113.016 3.791 6446.13
53.625 -111.500 3.806 7855.10
53.625 -109.983 3.778 9161.62
53.625 -108.467 3.710 10700.77
53.625 -106.951 3.599 12321.15
53.625 -105.434 3.574 11101.58
53.625 -103.918 3.644 8540.19
53.625 -102.401 3.714 8437.62
53.625 -100.885 3.718 9604.13
53.625 -99.368 3.687 4136.64
53.625 -97.852 3.715 2827.97
53.625 -96.335 3.757 2547.25
53.625 -94.819 3.783 2031.90
53.625 -93.302 3.852 1622.33
53.625 -91.786 3.799 1984.98
53.625 -90.269 3.665 1638.33
53.625 -88.753 3.747 1949.15
53.625 -87.237 3.788 2213.20
53.625 -85.720 3.735 1866.93
53.625 -84.204 3.591 1022.96
53.625 -82.687 3.587 872.67
53.625 -81.171 3.653 1192.94
53.625 -79.654 3.734 1761.47
53.625 -78.138 3.797 1233.52
53.625 -76.621 3.838 1219.55
53.625 -75.105 3.836 1334.70
53.625 -73.588 3.824 1761.64
53.625 -72.072 3.855 963.05
53.625 -70.555 3.923 832.17
53.625 -69.039 3.993 814.20
53.625 -67.523 4.046 872.17
53.625 -66.006 4.001 681.37
53.625 -64.490 3.920 441.59
53.625 -62.973 3.868 423.57
53.625 -61.457 3.837 267.75
53.625 -59.940 3.822 110.90
53.625 -58.424 3.834 435.59
53.625 -56.907 3.848 265.72
54.525 -142.759 3.865 258.74
54.525 -141.209 3.841 317.70
54.525 -139.660 3.750 261.74
54.525 -138.110 3.715 214.79
54.525 -136.560 3.719 217.74
54.525 -135.011 3.839 515.51
54.525 -133.461 4.020 1003.18
54.525 -131.911 3.919 2819.34
54.525 -130.362 3.873 2837.82
54.525 -128.812 3.784 3557.09
54.525 -127.262 3.740 3681.62
54.525 -125.713 3.709 4039.03
54.525 -124.163 3.648 3252.18
54.525 -122.613 3.624 4108.64
54.525 -121.064 3.610 3551.50
54.525 -119.514 3.614 3631.16
54.525 -117.964 3.694 4369.83
54.525 -116.415 3.688 4488.44
54.525 -114.865 3.730 5409.86
54.525 -113.315 3.764 6003.97
54.525 -111.766 3.753 8607.30
54.525 -110.216 3.747 10544.07
54.525 -108.666 3.728 12001.33
54.525 -107.117 3.668 12342.27
54.525 -105.567 3.640 9160.50
54.525 -104.017 3.694 6218.50
54.525 -102.468 3.725 7617.36
54.525 -100.918 3.706 7730.89
54.525 -99.368 3.640 5284.59
54.525 -97.819 3.657 3156.59
54.525 -96.269 3.742 1768.10
54.525 -94.719 3.789 1925.09
54.525 -93.170 3.800 1709.25
54.525 -91.620 3.742 1422.53
54.525 -90.070 3.627 2441.49
54.525 -88.520 3.710 1921.09
54.525 -86.971 3.749 2084.11
54.525 -85.421 3.689 941.79
54.525 -83.871 3.571 761.20
54.525 -82.322 3.586 793.64
54.525 -80.772 3.642 1312.59
54.525 -79.222 3.672 1587.57
54.525 -77.673 3.693 909.07
54.525 -76.123 3.722 937.07
54.525 -74.573 3.738 1159.82
54.525 -73.024 3.741 1209.74
54.525 -71.474 3.768 875.11
54.525 -69.924 3.824 812.00
54.525 -68.375 3.879 1415.45
54.525 -66.825 3.871 972.00
54.525 -65.275 3.832 282.73
54.525 -63.726 3.781 327.67
54.525 -62.176 3.750 121.87
54.525 -60.626 3.768 124.86
54.525 -59.077 3.816 416.58
54.525 -57.527 3.826 186.80
54.525 -55.977 3.803 112.89
55.424 -143.742 3.772 495.54
55.424 -142.157 3.735 19.98
55.424 -140.572 3.680 281.70
55.424 -138.988 3.688 226.78
55.424 -137.403 3.747 242.72
55.424 -135.818 3.853 681.37
55.424 -134.233 3.982 855.15
55.424 -132.648 3.869 3177.06
55.424 -131.064 3.806 2629.51
55.424 -129.479 3.726 3291.49
55.424 -127.894 3.678 2990.76
55.424 -126.309 3.665 3690.93
55.424 -124.725 3.617 4188.22
55.424 -123.140 3.600 3339.39
55.424 -121.555 3.633 4081.96
55.424 -119.970 3.675 4274.07
55.424 -118.385 3.730 5578.39
55.424 -116.801 3.683 5075.89
55.424 -115.216 3.688 5680.67
55.424 -113.631 3.767 6460.43
55.424 -112.046 3.776 9612.25
55.424 -110.462 3.772 12376.06
55.424 -108.877 3.786 12923.47
55.424 -107.292 3.774 10424.20
55.424 -105.707 3.747 8166.51
55.424 -104.123 3.742 5039.89
55.424 -102.538 3.698 4576.26
55.424 -100.953 3.651 5660.80
55.424 -99.368 3.610 8731.01
55.424 -97.783 3.613 2567.18
55.424 -96.199 3.705 2113.88
55.424 -94.614 3.739 1421.58
55.424 -93.029 3.759 1607.35
55.424 -91.444 3.722 1759.27
55.424 -89.860 3.615 2772.17
55.424 -88.275 3.694 985.95
55.424 -86.690 3.741 1661.56
55.424 -85.105 3.680 946.01
55.424 -83.520 3.588 1174.53
55.424 -81.936 3.618 875.09
55.424 -80.351 3.657 1705.29
55.424 -78.766 3.640 1155.85
55.424 -77.181 3.630 1011.77
55.424 -75.597 3.654 613.39
55.424 -74.012 3.693 1128.76
55.424 -72.427 3.698 620.35
55.424 -70.842 3.687 718.22
55.424 -69.257 3.696 836.15
55.424 -67.673 3.713 1018.99
55.424 -66.088 3.691 564.45
55.424 -64.503 3.674 470.32
55.424 -62.918 3.658 224.74
55.424 -61.334 3.667 142.44
55.424 -59.749 3.731 248.76
55.424 -58.164 3.795 117.89
55.424 -56.579 3.800 348.67
55.424 -54.995 3.745 293.73
56.324 -144.782 3.673 49.95
56.324 -143.160 3.650 234.76
56.324 -141.538 3.651 77.91
56.324 -139.916 3.723 255.75
56.324 -138.294 3.827 425.54
56.324 -136.672 3.870 866.16
56.324 -135.050 3.893 1038.97
56.324 -133.428 3.828 2316.06
56.324 -131.806 3.752 3093.97
56.324 -130.184 3.674 3003.85
56.324 -128.563 3.644 2541.41
56.324 -126.941 3.648 3029.83
56.324 -125.319 3.587 4842.80
56.324 -123.697 3.580 3981.55
56.324 -122.075 3.593 4126.87
56.324 -120.453 3.671 4036.91
56.324 -118.831 3.667 5317.59
56.324 -117.209 3.656 4697.39
56.324 -115.587 3.678 6288.04
56.324 -113.965 3.784 8539.20
56.324 -112.343 3.788 12108.51
56.324 -110.722 3.745 14013.35
56.324 -109.100 3.804 10917.76
56.324 -107.478 3.840 8687.98
56.324 -105.856 3.832 5236.74
56.324 -104.234 3.748 5897.89
56.324 -102.612 3.663 4000.85
56.324 -100.990 3.583 5348.06
56.324 -99.368 3.583 7124.63
56.324 -97.746 3.573 5091.86
56.324 -96.124 3.643 1626.33
56.324 -94.502 3.718 1524.41
56.324 -92.881 3.749 2666.36
56.324 -91.259 3.710 1653.33
56.324 -89.637 3.615 1662.27
56.324 -88.015 3.697 944.06
56.324 -86.393 3.760 1426.76
56.324 -84.771 3.684 639.29
56.324 -83.149 3.601 744.02
56.324 -81.527 3.663 1256.71
56.324 -79.905 3.685 1663.57
56.324 -78.283 3.639 958.07
56.324 -76.661 3.627 804.80
56.324 -75.040 3.662 777.74
56.324 -73.418 3.702 1293.55
56.324 -71.796 3.692 602.36
56.324 -70.174 3.671 707.25
56.324 -68.552 3.662 468.55
56.324 -66.930 3.645 733.29
56.324 -65.308 3.613 543.49
56.324 -63.686 3.590 369.64
56.324 -62.064 3.576 118.90
56.324 -60.442 3.583 93.92
56.324 -58.820 3.640 74.93
56.324 -57.199 3.710 371.88
56.324 -55.577 3.692 61.94
56.324 -53.955 3.652 0.00
57.223 -145.883 3.627 71.93
57.223 -144.222 3.624 250.73
57.223 -142.561 3.677 0.00
57.223 -140.899 3.787 377.63
57.223 -139.238 3.867 689.27
57.223 -137.577 3.850 943.06
57.223 -135.916 3.818 1296.61
57.223 -134.254 3.839 2018.15
57.223 -132.593 3.780 2837.38
57.223 -130.932 3.677 2504.31
57.223 -129.271 3.630 2951.52
57.223 -127.609 3.665 3244.11
57.223 -125.948 3.603 5201.92
57.223 -124.287 3.590 4537.00
57.223 -122.626 3.590 3925.21
57.223 -120.964 3.655 3088.96
57.223 -119.303 3.651 4523.41
57.223 -117.642 3.700 4723.15
57.223 -115.981 3.770 7337.51
57.223 -114.319 3.863 11752.89
57.223 -112.658 3.811 15451.88
57.223 -110.997 3.729 13641.96
57.223 -109.336 3.757 9159.50
57.223 -107.674 3.857 6513.43
57.223 -106.013 3.867 5071.66
57.223 -104.352 3.705 5554.20
57.223 -102.691 3.584 4377.39
57.223 -101.029 3.516 3780.81
57.223 -99.368 3.554 5025.76
57.223 -97.707 3.564 7126.76
57.223 -96.046 3.637 3109.84
57.223 -94.384 3.725 2139.85
57.223 -92.723 3.755 2362.62
57.223 -91.062 3.724 1093.88
57.223 -89.401 3.633 1708.22
57.223 -87.739 3.672 654.30
57.223 -86.078 3.747 1231.29
57.223 -84.417 3.674 987.12
57.223 -82.756 3.630 1172.08
57.223 -81.094 3.689 1304.73
57.223 -79.433 3.683 1329.73
57.223 -77.772 3.630 893.05
57.223 -76.111 3.633 849.12
57.223 -74.449 3.675 809.17
57.223 -72.788 3.690 960.98
57.223 -71.127 3.670 551.45
57.223 -69.466 3.643 126.89
57.223 -67.805 3.633 374.63
57.223 -66.143 3.624 292.72
57.223 -64.482 3.602 213.81
57.223 -62.821 3.578 299.73
57.223 -61.160 3.547 305.72
57.223 -59.498 3.532 373.66
57.223 -57.837 3.556 100.92
57.223 -56.176 3.586 77.76
57.223 -54.515 3.583 353.08
57.223 -52.853 3.589 25.98
58.122 -147.051 3.639 302.69
58.122 -145.348 3.658 34.96
58.122 -143.645 3.748 107.90
58.122 -141.942 3.842 790.18
58.122 -140.239 3.830 526.50
58.122 -138.537 3.816 1142.81
58.122 -136.834 3.798 1002.98
58.122 -135.131 3.890 2389.73
58.122 -133.428 3.860 3107.78
58.122 -131.725 3.744 2818.22
58.122 -130.022 3.690 4459.70
58.122 -128.319 3.736 2989.88
58.122 -126.616 3.674 4848.76
58.122 -124.913 3.636 4579.50
58.122 -123.210 3.642 3562.78
58.122 -121.507 3.676 4405.65
58.122 -119.804 3.689 3808.17
58.122 -118.101 3.769 5800.19
58.122 -116.398 3.867 9935.82
58.122 -114.695 3.929 16878.53
58.122 -112.992 3.837 15571.80
58.122 -111.289 3.730 11170.56
58.122 -109.586 3.712 5788.12
58.122 -107.883 3.809 5557.38
58.122 -106.180 3.805 5193.54
58.122 -104.477 3.675 4453.35
58.122 -102.774 3.515 4788.01
58.122 -101.071 3.477 3995.84
58.122 -99.368 3.523 4480.23
58.122 -97.665 3.597 7006.85
58.122 -95.962 3.646 4923.02
58.122 -94.259 3.734 2890.12
58.122 -92.556 3.796 1967.03
58.122 -90.853 3.783 1518.35
58.122 -89.150 3.646 1635.21
58.122 -87.447 3.627 887.05
58.122 -85.744 3.727 1584.59
58.122 -84.041 3.666 935.89
58.122 -82.339 3.656 1024.81
58.122 -80.636 3.683 802.60
58.122 -78.933 3.663 1203.11
58.122 -77.230 3.626 749.23
58.122 -75.527 3.636 1134.85
58.122 -73.824 3.664 1213.70
58.122 -72.121 3.660 406.62
58.122 -70.418 3.627 319.66
58.122 -68.715 3.603 116.88
58.122 -67.012 3.601 304.72
58.122 -65.309 3.601 144.86
58.122 -63.606 3.600 176.82
58.122 -61.903 3.591 51.95
58.122 -60.200 3.571 285.77
58.122 -58.497 3.554 210.82
58.122 -56.794 3.543 284.73
58.122 -55.091 3.537 239.78
58.122 -53.388 3.531 130.89
58.122 -51.685 3.564 399.69
59.022 -148.292 3.659 480.53
59.022 -146.545 3.700 86.37
59.022 -144.798 3.800 615.39
59.022 -143.050 3.833 469.49
59.022 -141.303 3.784 948.03
59.022 -139.556 3.771 877.10
59.022 -137.808 3.768 1358.52
59.022 -136.061 3.914 4088.38
59.022 -134.314 3.888 5520.48
59.022 -132.567 3.850 3087.63
59.022 -130.819 3.804 3235.48
59.022 -129.072 3.785 2392.66
59.022 -127.325 3.688 4724.38
59.022 -125.577 3.671 5467.03
59.022 -123.830 3.711 3833.98
59.022 -122.083 3.680 4131.90
59.022 -120.336 3.675 3300.66
59.022 -118.588 3.764 8028.09
59.022 -116.841 3.842 16502.94
59.022 -115.094 3.792 18630.69
59.022 -113.346 3.786 12980.48
59.022 -111.599 3.752 7284.64
59.022 -109.852 3.717 5091.92
59.022 -108.105 3.703 4524.31
59.022 -106.357 3.720 3858.95
59.022 -104.610 3.677 3724.12
59.022 -102.863 3.548 4757.21
59.022 -101.115 3.521 4161.67
59.022 -99.368 3.565 4966.67
59.022 -97.621 3.636 4458.20
59.022 -95.874 3.659 6265.58
59.022 -94.126 3.767 2560.04
59.022 -92.379 3.823 1130.85
59.022 -90.632 3.801 1606.25
59.022 -88.884 3.676 1252.71
59.022 -87.137 3.649 1138.97
59.022 -85.390 3.778 1442.30
59.022 -83.643 3.692 927.82
59.022 -81.895 3.632 768.41
59.022 -80.148 3.611 778.23
59.022 -78.401 3.607 1233.74
59.022 -76.654 3.614 889.07
59.022 -74.906 3.632 898.10
59.022 -73.159 3.653 963.99
59.022 -71.412 3.638 525.45
59.022 -69.664 3.609 76.92
59.022 -67.917 3.591 269.75
59.022 -66.170 3.586 214.79
59.022 -64.423 3.591 104.89
59.022 -62.675 3.591 11.99
59.022 -60.928 3.589 117.90
59.022 -59.181 3.590 96.91
59.022 -57.433 3.587 70.94
59.022 -55.686 3.573 228.81
59.022 -53.939 3.555 162.87
59.022 -52.192 3.546 224.79
59.022 -50.444 3.567 236.78
59.921 -149.612 3.625 1233.69
59.921 -147.818 3.665 321.90
59.921 -146.023 3.744 633.89
59.921 -144.229 3.754 623.31
59.921 -142.434 3.730 1026.00
59.921 -140.640 3.698 508.67
59.921 -138.845 3.691 1733.19
59.921 -137.051 3.824 2125.06
59.921 -135.257 3.855 3036.30
59.921 -133.462 3.861 3129.77
59.921 -131.668 3.819 2663.49
59.921 -129.873 3.750 2805.27
59.921 -128.079 3.642 3534.53
59.921 -126.284 3.669 5979.13
59.921 -124.490 3.697 4933.44
59.921 -122.696 3.621 3847.20
59.921 -120.901 3.629 4885.79
59.921 -119.107 3.726 13926.63
59.921 -117.312 3.709 21573.57
59.921 -115.518 3.667 14334.25
59.921 -113.724 3.687 7313.60
59.921 -111.929 3.757 6541.23
59.921 -110.135 3.707 4435.45
59.921 -108.340 3.631 3840.00
59.921 -106.546 3.666 3183.77
59.921 -104.751 3.722 4450.38
59.921 -102.957 3.682 5392.48
59.921 -101.163 3.623 4701.18
59.921 -99.368 3.618 3698.19
59.921 -97.574 3.675 5146.89
59.921 -95.779 3.689 5653.13
59.921 -93.985 3.735 2329.59
59.921 -92.191 3.765 825.34
59.921 -90.396 3.755 1323.59
59.921 -88.602 3.717 1423.56
59.921 -86.807 3.750 1066.10
59.921 -85.013 3.875 1486.89
59.921 -83.218 3.743 1316.77
59.921 -81.424 3.590 905.28
59.921 -79.630 3.549 1227.74
59.921 -77.835 3.566 969.02
59.921 -76.041 3.601 660.33
59.921 -74.246 3.618 1212.75
59.921 -72.452 3.638 611.36
59.921 -70.657 3.640 329.63
59.921 -68.863 3.612 86.91
59.921 -67.069 3.593 329.69
59.921 -65.274 3.589 120.88
59.921 -63.480 3.586 64.93
59.921 -61.685 3.577 35.97
59.921 -59.891 3.575 65.95
59.921 -58.097 3.583 14.99
59.921 -56.302 3.591 75.93
59.921 -54.508 3.590 21.98
59.921 -52.713 3.588 146.88
59.921 -50.919 3.584 231.82
59.921 -49.124 3.584 306.81
60.820 -151.018 3.575 684.34
60.820 -149.173 3.580 1369.88
60.820 -147.329 3.616 871.75
60.820 -145.484 3.628 1680.88
60.820 -143.639 3.636 1182.39
60.820 -141.795 3.587 933.02
60.820 -139.950 3.578 1620.28
60.820 -138.106 3.669 1022.04
60.820 -136.261 3.721 1803.54
60.820 -134.416 3.752 2440.66
60.820 -132.572 3.733 2058.91
60.820 -130.727 3.647 2174.46
60.820 -128.882 3.565 2803.26
60.820 -127.038 3.619 6966.71
60.820 -125.193 3.649 4709.95
60.820 -123.348 3.572 4006.08
60.820 -121.504 3.590 10456.12
60.820 -119.659 3.630 25889.09
60.820 -117.815 3.644 16598.80
60.820 -115.970 3.643 7034.82
60.820 -114.125 3.666 6598.26
60.820 -112.281 3.722 5036.73
60.820 -110.436 3.671 4831.90
60.820 -108.591 3.648 4075.93
60.820 -106.747 3.681 4018.87
60.820 -104.902 3.748 3814.14
60.820 -103.057 3.793 3835.98
60.820 -101.213 3.717 5313.66
60.820 -99.368 3.683 3829.07
60.820 -97.524 3.643 4528.53
60.820 -95.679 3.669 3889.99
60.820 -93.834 3.692 5526.24
60.820 -91.990 3.717 951.25
60.820 -90.145 3.718 1338.63
60.820 -88.300 3.742 910.06
60.820 -86.456 3.811 1143.64
60.820 -84.611 3.948 2590.56
60.820 -82.766 3.782 1292.95
60.820 -80.922 3.593 565.42
60.820 -79.077 3.532 1381.85
60.820 -77.233 3.557 1027.98
60.820 -75.388 3.584 780.21
60.820 -73.543 3.599 932.01
60.820 -71.699 3.630 614.36
60.820 -69.854 3.642 207.76
60.820 -68.009 3.613 326.69
60.820 -66.165 3.592 175.83
60.820 -64.320 3.589 100.89
60.820 -62.475 3.579 6.99
60.820 -60.631 3.568 94.92
60.820 -58.786 3.570 0.00
60.820 -56.942 3.576 0.00
60.820 -55.097 3.583 0.00
60.820 -53.252 3.592 54.95
60.820 -51.408 3.602 59.94
60.820 -49.563 3.610 33.97
60.820 -47.718 3.608 303.71
61.720 -152.518 3.574 558.46
61.720 -150.620 3.568 282.69
61.720 -148.722 3.549 2286.28
61.720 -146.824 3.541 2349.58
61.720 -144.926 3.543 2673.57
61.720 -143.027 3.520 2088.81
61.720 -141.129 3.516 1362.04
61.720 -139.231 3.570 1046.16
61.720 -137.333 3.615 1627.15
61.720 -135.434 3.647 1969.28
61.720 -133.536 3.622 1957.76
61.720 -131.638 3.539 2894.29
61.720 -129.740 3.493 2936.07
61.720 -127.842 3.554 7060.13
61.720 -125.943 3.562 5062.65
61.720 -124.045 3.501 6539.27
61.720 -122.147 3.527 30818.68
61.720 -120.249 3.592 20927.47
61.720 -118.350 3.651 7202.65
61.720 -116.452 3.684 4880.90
61.720 -114.554 3.644 4808.01
61.720 -112.656 3.674 5183.60
61.720 -110.758 3.710 5515.44
61.720 -108.859 3.689 4190.73
61.720 -106.961 3.687 2986.97
61.720 -105.063 3.738 3339.90
61.720 -103.165 3.838 3594.27
61.720 -101.266 3.812 4319.62
61.720 -99.368 3.695 4605.36
61.720 -97.470 3.629 3887.68
61.720 -95.572 3.646 4280.24
61.720 -93.674 3.669 4408.54
61.720 -91.775 3.702 2614.12
61.720 -89.877 3.723 1450.97
61.720 -87.979 3.776 863.10
61.720 -86.081 3.824 1291.27
61.720 -84.182 3.946 1497.96
61.720 -82.284 3.762 980.97
61.720 -80.386 3.591 1149.81
61.720 -78.488 3.550 1583.42
61.720 -76.590 3.573 830.13
61.720 -74.691 3.596 747.24
61.720 -72.793 3.607 757.20
61.720 -70.895 3.634 588.49
61.720 -68.997 3.633 219.77
61.720 -67.098 3.604 312.70
61.720 -65.200 3.591 130.87
61.720 -63.302 3.584 13.99
61.720 -61.404 3.571 101.92
61.720 -59.505 3.570 0.00
61.720 -57.607 3.574 0.00
61.720 -55.709 3.579 0.00
61.720 -53.811 3.585 0.00
61.720 -51.913 3.591 0.00
61.720 -50.014 3.598 123.86
61.720 -48.116 3.608 224.75
61.720 -46.218 3.612 102.89
62.619 -154.123 3.601 434.33
62.619 -152.167 3.593 519.24
62.619 -150.212 3.566 576.59
62.619 -148.256 3.557 1772.67
62.619 -146.301 3.516 2490.52
62.619 -144.345 3.473 3344.08
62.619 -142.390 3.481 2611.04
62.619 -140.434 3.541 2261.99
62.619 -138.479 3.580 3188.17
62.619 -136.523 3.594 2245.71
62.619 -134.567 3.531 2315.12
62.619 -132.612 3.473 3082.87
62.619 -130.656 3.462 4853.59
62.619 -128.701 3.529 6146.13
62.619 -126.745 3.462 5469.74
62.619 -124.790 3.430 34213.47
62.619 -122.834 3.506 28746.21
62.619 -120.879 3.652 7400.34
62.619 -118.923 3.751 4409.45
62.619 -116.968 3.724 4210.65
62.619 -115.012 3.666 5117.38
62.619 -113.057 3.678 4235.33
62.619 -111.101 3.743 4768.09
62.619 -109.146 3.740 4442.86
62.619 -107.190 3.696 3356.71
62.619 -105.235 3.728 3401.61
62.619 -103.279 3.801 2657.31
62.619 -101.324 3.827 2724.19
62.619 -99.368 3.699 4598.34
62.619 -97.413 3.633 3562.45
62.619 -95.457 3.626 5067.40
62.619 -93.502 3.660 3296.63
62.619 -91.546 3.722 5660.49
62.619 -89.591 3.775 1240.12
62.619 -87.635 3.870 645.00
62.619 -85.680 3.868 1740.61
62.619 -83.724 3.911 1034.99
62.619 -81.769 3.666 813.15
62.619 -79.813 3.529 499.48
62.619 -77.858 3.570 1628.72
62.619 -75.902 3.619 1185.73
62.619 -73.946 3.641 1272.66
62.619 -71.991 3.650 354.65
62.619 -70.035 3.660 482.47
62.619 -68.080 3.633 350.67
62.619 -66.124 3.598 180.82
62.619 -64.169 3.585 61.94
62.619 -62.213 3.575 80.93
62.619 -60.258 3.570 20.98
62.619 -58.302 3.573 0.00
62.619 -56.347 3.578 0.00
62.619 -54.391 3.583 124.14
62.619 -52.436 3.586 126.85
62.619 -50.480 3.587 133.84
62.619 -48.525 3.588 33.96
62.619 -46.569 3.593 0.00
62.619 -44.614 3.601 51.95
63.518 -155.841 3.607 219.77
63.518 -153.824 3.604 393.58
63.518 -151.807 3.585 1256.25
63.518 -149.790 3.584 2245.88
63.518 -147.773 3.550 2770.61
63.518 -145.757 3.492 3490.62
63.518 -143.740 3.496 3043.88
63.518 -141.723 3.554 2155.29
63.518 -139.706 3.586 3509.77
63.518 -137.689 3.590 4041.39
63.518 -135.672 3.508 4626.28
63.518 -133.655 3.480 6150.01
63.518 -131.638 3.505 6304.51
63.518 -129.622 3.576 6103.84
63.518 -127.605 3.563 8879.19
63.518 -125.588 3.534 35631.14
63.518 -123.571 3.628 7491.34
63.518 -121.554 3.687 4292.60
63.518 -119.537 3.689 3711.44
63.518 -117.520 3.708 4211.38
63.518 -115.503 3.698 3253.79
63.518 -113.486 3.711 2782.19
63.518 -111.470 3.770 3903.40
63.518 -109.453 3.781 3978.75
63.518 -107.436 3.701 3218.78
63.518 -105.419 3.685 2025.89
63.518 -103.402 3.717 2031.95
63.518 -101.385 3.759 2333.53
63.518 -99.368 3.725 3262.69
63.518 -97.351 3.640 4155.75
63.518 -95.334 3.617 4883.63
63.518 -93.318 3.668 4297.71
63.518 -91.301 3.745 4736.84
63.518 -89.284 3.829 3619.75
63.518 -87.267 3.953 1448.40
63.518 -85.250 3.903 1339.01
63.518 -83.233 3.867 1027.02
63.518 -81.216 3.588 694.26
63.518 -79.199 3.507 624.35
63.518 -77.182 3.588 1476.45
63.518 -75.166 3.645 970.00
63.518 -73.149 3.678 1294.61
63.518 -71.132 3.702 1013.94
63.518 -69.115 3.687 977.29
63.518 -67.098 3.629 290.72
63.518 -65.081 3.594 103.89
63.518 -63.064 3.578 54.96
63.518 -61.047 3.570 47.96
63.518 -59.030 3.570 0.00
63.518 -57.014 3.572 0.00
63.518 -54.997 3.575 0.00
63.518 -52.980 3.580 0.00
63.518 -50.963 3.581 0.00
63.518 -48.946 3.580 0.00
63.518 -46.929 3.579 0.00
63.518 -44.912 3.583 0.00
63.518 -42.895 3.589 15.98
64.418 -157.686 3.596 352.61
64.418 -155.603 3.596 32.97
64.418 -153.520 3.589 109.89
64.418 -151.437 3.577 790.22
64.418 -149.355 3.547 1455.66
64.418 -147.272 3.502 2647.11
64.418 -145.189 3.513 3359.58
64.418 -143.106 3.565 2997.37
64.418 -141.023 3.609 3867.96
64.418 -138.941 3.600 4040.36
64.418 -136.858 3.522 5573.57
64.418 -134.775 3.537 6875.62
64.418 -132.692 3.648 6460.01
64.418 -130.610 3.729 6692.27
64.418 -128.527 3.767 11899.29
64.418 -126.444 3.765 6368.78
64.418 -124.361 3.756 4563.37
64.418 -122.279 3.749 4270.51
64.418 -120.196 3.730 3402.20
64.418 -118.113 3.700 2116.16
64.418 -116.030 3.711 2239.86
64.418 -113.948 3.775 2113.75
64.418 -111.865 3.797 2868.96
64.418 -109.782 3.717 3627.88
64.418 -107.699 3.654 2375.51
64.418 -105.616 3.644 2068.08
64.418 -103.534 3.665 2072.11
64.418 -101.451 3.706 2221.88
64.418 -99.368 3.746 2359.69
64.418 -97.285 3.682 4333.73
64.418 -95.203 3.640 3665.14
64.418 -93.120 3.664 4768.32
64.418 -91.037 3.708 2950.19
64.418 -88.954 3.813 8180.29
64.418 -86.872 3.911 1861.42
64.418 -84.789 3.858 980.69
64.418 -82.706 3.792 772.25
64.418 -80.623 3.520 710.24
64.418 -78.541 3.477 879.07
64.418 -76.458 3.556 1176.80
64.418 -74.375 3.615 1193.78
64.418 -72.292 3.647 863.13
64.418 -70.210 3.670 321.67
64.418 -68.127 3.647 588.43
64.418 -66.044 3.609 202.15
64.418 -63.961 3.583 37.97
64.418 -61.878 3.569 72.94
64.418 -59.796 3.568 0.00
64.418 -57.713 3.570 0.00
64.418 -55.630 3.570 0.00
64.418 -53.547 3.571 0.00
64.418 -51.465 3.573 0.00
64.418 -49.382 3.573 0.00
64.418 -47.299 3.573 0.00
64.418 -45.216 3.579 4.62
64.418 -43.134 3.591 373.54
64.418 -41.051 3.596 150.82
65.317 -159.670 3.603 0.00
65.317 -157.516 3.601 45.96
65.317 -155.363 3.600 73.93
65.317 -153.209 3.599 40.96
65.317 -151.055 3.590 486.15
65.317 -148.902 3.564 1103.05
65.317 -146.748 3.555 1409.75
65.317 -144.595 3.562 2642.92
65.317 -142.441 3.554 2522.26
65.317 -140.287 3.553 2533.75
65.317 -138.134 3.544 4607.76
65.317 -135.980 3.628 2751.92
65.317 -133.826 3.716 4959.15
65.317 -131.673 3.648 4973.09
65.317 -129.519 3.663 5236.59
65.317 -127.365 3.668 2522.53
65.317 -125.212 3.704 1781.74
65.317 -123.058 3.736 2195.15
65.317 -120.905 3.725 2601.12
65.317 -118.751 3.714 2436.34
65.317 -116.597 3.732 1516.60
65.317 -114.444 3.772 1562.63
65.317 -112.290 3.787 2098.19
