32.041 -128.015 3.752 0.00
32.041 -126.954 3.747 0.00
32.041 -125.893 3.741 0.00
32.041 -124.832 3.731 0.00
32.041 -123.771 3.725 0.00
32.041 -122.710 3.724 0.00
32.041 -121.649 3.724 0.00
32.041 -120.588 3.729 0.00
32.041 -119.527 3.744 0.00
32.041 -118.466 3.727 0.00
32.041 -117.405 3.643 48.95
32.041 -116.344 3.542 666.74
32.041 -115.283 3.475 9929.94
32.041 -114.222 3.387 11367.35
32.041 -113.161 3.434 11202.39
32.041 -112.100 3.605 11228.82
32.041 -111.039 3.631 14326.40
32.041 -109.978 3.587 16449.43
32.041 -108.917 3.527 17298.56
32.041 -107.856 3.495 15519.50
32.041 -106.795 3.541 14438.11
32.041 -105.734 3.657 14540.76
32.041 -104.673 3.744 15086.49
32.041 -103.612 3.776 16934.39
32.041 -102.551 3.783 13093.22
32.041 -101.490 3.807 12957.50
32.041 -100.429 3.837 12038.08
32.041 -99.368 3.907 12223.19
32.041 -98.307 3.984 11675.50
32.041 -97.246 3.986 9373.50
32.041 -96.185 3.833 9642.32
32.041 -95.124 3.759 9255.53
32.041 -94.063 3.803 8957.95
32.041 -93.002 3.829 7706.11
32.041 -91.941 3.817 8028.55
32.041 -90.880 3.773 8269.33
32.041 -89.819 3.790 7463.54
32.041 -88.758 3.866 5845.38
32.041 -87.697 3.957 6055.79
32.041 -86.636 4.013 4699.84
32.041 -85.575 3.972 4101.32
32.041 -84.515 3.848 2969.26
32.041 -83.454 3.776 1504.71
32.041 -82.393 3.767 653.63
32.041 -81.332 3.781 255.57
32.041 -80.271 3.785 147.88
32.041 -79.210 3.788 330.68
32.041 -78.149 3.784 88.92
32.041 -77.088 3.771 59.94
32.041 -76.027 3.775 98.88
32.041 -74.966 3.803 147.83
32.041 -73.905 3.804 196.80
32.041 -72.844 3.757 45.95
32.041 -71.783 3.739 0.00
32.041 -70.722 3.744 0.00
32.041 -69.661 3.749 0.00
32.940 -129.374 3.760 43.96
32.940 -128.302 3.767 110.90
32.940 -127.231 3.768 109.90
32.940 -126.159 3.760 110.90
32.940 -125.087 3.738 5.78
32.940 -124.016 3.727 0.00
32.940 -122.944 3.724 0.00
32.940 -121.873 3.729 0.00
32.940 -120.801 3.746 0.00
32.940 -119.729 3.747 69.04
32.940 -118.658 3.670 191.52
32.940 -117.586 3.518 357.28
32.940 -116.514 3.448 1891.87
32.940 -115.443 3.498 31494.04
32.940 -114.371 3.477 41790.25
32.940 -113.299 3.518 29883.76
32.940 -112.228 3.651 22671.84
32.940 -111.156 3.636 23555.61
32.940 -110.085 3.595 23382.15
32.940 -109.013 3.541 23570.80
32.940 -107.941 3.527 22612.75
32.940 -106.870 3.581 19582.65
32.940 -105.798 3.678 17689.31
32.940 -104.726 3.762 19194.52
32.940 -103.655 3.815 16875.14
32.940 -102.583 3.822 16018.84
32.940 -101.511 3.768 12425.12
32.940 -100.440 3.725 12310.31
32.940 -99.368 3.776 12931.80
32.940 -98.297 3.906 13633.70
32.940 -97.225 4.010 13554.19
32.940 -96.153 3.875 11822.97
32.940 -95.082 3.854 9556.27
32.940 -94.010 3.854 10793.76
32.940 -92.938 3.829 8759.72
32.940 -91.867 3.857 7674.22
32.940 -90.795 3.846 7048.92
32.940 -89.723 3.877 6635.39
32.940 -88.652 3.932 7288.31
32.940 -87.580 3.978 6440.29
32.940 -86.509 3.991 4626.16
32.940 -85.437 3.989 3605.81
32.940 -84.365 3.937 2355.20
32.940 -83.294 3.869 1205.58
32.940 -82.222 3.831 796.37
32.940 -81.150 3.817 798.25
32.940 -80.079 3.800 778.66
32.940 -79.007 3.793 135.88
32.940 -77.935 3.779 100.89
32.940 -76.864 3.758 0.00
32.940 -75.792 3.771 99.88
32.940 -74.721 3.793 99.88
32.940 -73.649 3.792 100.92
32.940 -72.577 3.750 50.94
32.940 -71.506 3.731 96.89
32.940 -70.434 3.731 45.95
32.940 -69.362 3.735 0.00
33.839 -129.686 3.741 0.00
33.839 -128.603 3.741 0.00
33.839 -127.521 3.743 0.00
33.839 -126.438 3.740 0.00
33.839 -125.355 3.729 0.00
33.839 -124.272 3.724 0.00
33.839 -123.189 3.731 0.00
33.839 -122.107 3.743 0.00
33.839 -121.024 3.744 0.00
33.839 -119.941 3.710 149.33
33.839 -118.858 3.585 409.43
33.839 -117.775 3.397 2413.73
33.839 -116.693 3.390 4103.86
33.839 -115.610 3.528 7759.80
33.839 -114.527 3.574 14647.10
33.839 -113.444 3.546 24165.40
33.839 -112.362 3.603 30522.67
33.839 -111.279 3.595 30543.89
33.839 -110.196 3.595 30178.31
33.839 -109.113 3.572 28372.91
33.839 -108.030 3.556 26628.93
33.839 -106.948 3.559 22325.78
33.839 -105.865 3.591 20723.18
33.839 -104.782 3.712 18607.86
33.839 -103.699 3.827 16496.31
33.839 -102.617 3.837 15107.37
33.839 -101.534 3.777 12801.17
33.839 -100.451 3.767 11039.14
33.839 -99.368 3.814 11454.12
33.839 -98.285 3.928 12297.70
33.839 -97.203 4.005 12071.72
33.839 -96.120 3.963 12678.32
33.839 -95.037 3.993 12024.02
33.839 -93.954 3.912 10813.33
33.839 -92.872 3.889 9583.38
33.839 -91.789 3.933 8676.28
33.839 -90.706 3.904 7549.33
33.839 -89.623 3.864 6825.60
33.839 -88.540 3.876 6111.19
33.839 -87.458 3.873 5875.89
33.839 -86.375 3.878 5465.34
33.839 -85.292 3.936 4866.55
33.839 -84.209 3.965 3980.90
33.839 -83.126 3.883 1819.35
33.839 -82.044 3.823 774.68
33.839 -80.961 3.792 478.65
33.839 -79.878 3.795 257.24
33.839 -78.795 3.788 63.95
33.839 -77.713 3.769 101.89
33.839 -76.630 3.754 0.00
33.839 -75.547 3.773 119.86
33.839 -74.464 3.787 80.91
33.839 -73.381 3.785 100.92
33.839 -72.299 3.747 0.00
33.839 -71.216 3.728 0.00
33.839 -70.133 3.729 50.94
33.839 -69.050 3.732 97.88
34.739 -130.012 3.733 51.94
34.739 -128.918 3.730 0.00
34.739 -127.823 3.728 0.00
34.739 -126.729 3.726 0.00
34.739 -125.635 3.723 0.00
34.739 -124.540 3.728 0.00
34.739 -123.446 3.738 0.00
34.739 -122.351 3.722 0.00
34.739 -121.257 3.680 0.00
34.739 -120.162 3.633 401.03
34.739 -119.068 3.520 1788.40
34.739 -117.974 3.373 5282.27
34.739 -116.879 3.421 7256.33
34.739 -115.785 3.542 14496.79
34.739 -114.690 3.666 12522.42
34.739 -113.596 3.625 13664.94
34.739 -112.501 3.581 14659.94
34.739 -111.407 3.537 21008.34
34.739 -110.313 3.611 25668.73
34.739 -109.218 3.632 25587.61
34.739 -108.124 3.561 24398.37
34.739 -107.029 3.534 23852.99
34.739 -105.935 3.574 21753.82
34.739 -104.840 3.671 19775.24
34.739 -103.746 3.744 19472.86
34.739 -102.651 3.750 16890.82
34.739 -101.557 3.717 15491.84
34.739 -100.463 3.741 13927.42
34.739 -99.368 3.825 12655.42
34.739 -98.274 3.956 11601.57
34.739 -97.179 3.989 12085.88
34.739 -96.085 3.916 12308.01
34.739 -94.990 3.967 12558.57
34.739 -93.896 3.896 12500.13
34.739 -92.802 3.843 10908.45
34.739 -91.707 3.856 7845.72
34.739 -90.613 3.891 8372.64
34.739 -89.518 3.898 7726.61
34.739 -88.424 3.929 6630.14
34.739 -87.329 3.939 5785.08
34.739 -86.235 3.911 4423.21
34.739 -85.141 3.909 3262.10
34.739 -84.046 3.908 2012.02
34.739 -82.952 3.874 1542.31
34.739 -81.857 3.823 969.45
34.739 -80.763 3.794 474.55
34.739 -79.668 3.793 351.61
34.739 -78.574 3.782 246.87
34.739 -77.480 3.755 17.98
34.739 -76.385 3.758 5.99
34.739 -75.291 3.780 194.77
34.739 -74.196 3.779 0.00
34.739 -73.102 3.774 100.92
34.739 -72.007 3.741 0.00
34.739 -70.913 3.726 0.00
34.739 -69.818 3.726 0.00
34.739 -68.724 3.730 0.00
35.638 -130.353 3.735 141.83
35.638 -129.247 3.734 64.92
35.638 -128.140 3.730 0.00
35.638 -127.034 3.727 0.00
35.638 -125.927 3.729 0.00
35.638 -124.820 3.735 0.00
35.638 -123.714 3.723 0.00
35.638 -122.607 3.669 0.00
35.638 -121.500 3.603 1153.29
35.638 -120.394 3.562 6439.83
35.638 -119.287 3.501 7944.35
35.638 -118.181 3.444 7851.78
35.638 -117.074 3.483 8554.77
35.638 -115.967 3.503 19040.82
35.638 -114.861 3.643 12587.97
35.638 -113.754 3.647 13264.36
35.638 -112.648 3.593 17867.68
35.638 -111.541 3.509 18941.20
35.638 -110.434 3.630 21244.60
35.638 -109.328 3.655 20849.95
35.638 -108.221 3.553 23680.57
35.638 -107.115 3.470 24857.74
35.638 -106.008 3.516 22540.94
35.638 -104.901 3.651 19432.33
35.638 -103.795 3.758 16437.38
35.638 -102.688 3.783 14558.69
35.638 -101.581 3.749 14403.65
35.638 -100.475 3.789 14475.76
35.638 -99.368 3.869 12295.39
35.638 -98.262 3.985 11750.36
35.638 -97.155 4.022 12595.59
35.638 -96.048 3.995 11615.33
35.638 -94.942 4.038 11835.50
35.638 -93.835 3.928 12392.74
35.638 -92.729 3.826 12908.40
35.638 -91.622 3.812 11696.61
35.638 -90.515 3.889 10126.98
35.638 -89.409 3.939 7739.91
35.638 -88.302 3.948 6512.98
35.638 -87.195 3.940 5698.86
35.638 -86.089 3.958 4710.44
35.638 -84.982 3.974 3498.06
35.638 -83.876 3.939 2230.03
35.638 -82.769 3.924 800.33
35.638 -81.662 3.924 497.48
35.638 -80.556 3.911 487.48
35.638 -79.449 3.862 374.59
35.638 -78.343 3.805 471.68
35.638 -77.236 3.743 0.00
35.638 -76.129 3.757 99.88
35.638 -75.023 3.785 99.88
35.638 -73.916 3.781 27.98
35.638 -72.809 3.762 71.94
35.638 -71.703 3.734 0.00
35.638 -70.596 3.724 0.00
35.638 -69.490 3.724 0.00
35.638 -68.383 3.728 0.00
36.538 -130.710 3.732 0.00
36.538 -129.591 3.733 32.96
36.538 -128.471 3.733 97.88
36.538 -127.352 3.735 85.90
36.538 -126.233 3.736 0.00
36.538 -125.113 3.734 0.00
36.538 -123.994 3.707 0.00
36.538 -122.875 3.646 45.96
36.538 -121.755 3.605 1296.64
36.538 -120.636 3.626 12101.49
36.538 -119.516 3.551 19129.51
36.538 -118.397 3.533 16606.20
36.538 -117.278 3.547 16130.32
36.538 -116.158 3.516 21689.98
36.538 -115.039 3.540 21763.11
36.538 -113.920 3.596 20507.99
36.538 -112.800 3.619 19935.55
36.538 -111.681 3.542 19621.79
36.538 -110.562 3.636 19889.37
36.538 -109.442 3.610 19458.03
36.538 -108.323 3.507 21479.55
36.538 -107.204 3.460 21216.28
36.538 -106.084 3.500 17239.12
36.538 -104.965 3.612 16479.77
36.538 -103.846 3.731 14837.84
36.538 -102.726 3.787 14462.47
36.538 -101.607 3.841 13792.54
36.538 -100.488 3.858 13449.13
36.538 -99.368 3.927 13114.63
36.538 -98.249 3.965 11069.67
36.538 -97.130 4.006 9664.83
36.538 -96.010 4.015 10287.28
36.538 -94.891 4.014 10276.27
36.538 -93.771 3.884 10105.07
36.538 -92.652 3.819 10670.33
36.538 -91.533 3.852 11062.49
36.538 -90.413 3.933 10233.53
36.538 -89.294 3.983 8305.54
36.538 -88.175 3.973 6907.10
36.538 -87.055 3.986 3958.17
36.538 -85.936 3.996 3101.11
36.538 -84.817 3.988 2946.59
36.538 -83.697 3.962 2981.42
36.538 -82.578 3.974 2187.80
36.538 -81.459 4.025 1313.70
36.538 -80.339 4.017 485.56
36.538 -79.220 3.927 96.91
36.538 -78.101 3.846 69.93
36.538 -76.981 3.763 0.00
36.538 -75.862 3.747 99.88
36.538 -74.743 3.779 99.88
36.538 -73.623 3.787 100.92
36.538 -72.504 3.752 0.00
36.538 -71.384 3.728 0.00
36.538 -70.265 3.723 0.00
36.538 -69.146 3.724 0.00
36.538 -68.026 3.726 0.00
37.437 -131.083 3.727 0.00
37.437 -129.950 3.727 0.00
37.437 -128.817 3.731 0.00
37.437 -127.685 3.735 10.99
37.437 -126.552 3.735 97.88
37.437 -125.419 3.729 97.89
37.437 -124.287 3.690 30.97
37.437 -123.154 3.641 133.87
37.437 -122.021 3.641 11103.78
37.437 -120.889 3.614 17374.52
37.437 -119.756 3.543 11861.56
37.437 -118.623 3.510 9371.66
37.437 -117.491 3.504 10335.18
37.437 -116.358 3.463 15020.06
37.437 -115.225 3.459 19272.88
37.437 -114.093 3.512 17889.79
37.437 -112.960 3.552 18069.44
37.437 -111.827 3.547 18785.09
37.437 -110.695 3.687 21256.82
37.437 -109.562 3.667 18476.75
37.437 -108.429 3.581 20290.59
37.437 -107.297 3.492 18359.53
37.437 -106.164 3.512 16732.75
37.437 -105.032 3.629 15005.43
37.437 -103.899 3.769 13807.77
37.437 -102.766 3.830 11535.06
37.437 -101.634 3.842 10807.75
37.437 -100.501 3.789 10315.63
37.437 -99.368 3.784 10859.97
37.437 -98.236 3.860 10713.61
37.437 -97.103 3.932 11409.53
37.437 -95.970 4.023 10432.68
37.437 -94.838 4.048 11048.49
37.437 -93.705 3.933 12429.32
37.437 -92.572 3.842 12479.32
37.437 -91.440 3.841 10661.09
37.437 -90.307 3.978 7835.39
37.437 -89.174 4.053 7957.92
37.437 -88.042 4.046 6361.06
37.437 -86.909 4.010 5345.10
37.437 -85.776 3.963 3986.12
37.437 -84.644 3.925 3201.20
37.437 -83.511 3.933 2809.71
37.437 -82.378 3.967 3129.90
37.437 -81.246 3.975 4208.75
37.437 -80.113 3.932 3242.44
37.437 -78.980 3.875 2248.83
37.437 -77.848 3.827 202.81
37.437 -76.715 3.800 0.00
37.437 -75.582 3.775 99.88
37.437 -74.450 3.775 99.88
37.437 -73.317 3.782 100.92
37.437 -72.184 3.748 0.00
37.437 -71.052 3.725 0.00
37.437 -69.919 3.723 0.00
37.437 -68.786 3.725 0.00
37.437 -67.654 3.725 0.00
38.336 -131.472 3.725 0.00
38.336 -130.326 3.725 0.00
38.336 -129.179 3.729 0.00
38.336 -128.033 3.728 0.00
38.336 -126.886 3.723 0.00
38.336 -125.740 3.713 0.00
38.336 -124.593 3.677 227.77
38.336 -123.446 3.689 203.70
38.336 -122.300 3.697 5462.34
38.336 -121.153 3.615 15541.00
38.336 -120.007 3.539 8778.63
38.336 -118.860 3.546 13779.98
38.336 -117.713 3.504 16664.85
38.336 -116.567 3.459 14390.30
38.336 -115.420 3.460 15728.13
38.336 -114.274 3.473 18979.38
38.336 -113.127 3.513 19216.61
38.336 -111.981 3.538 17473.82
38.336 -110.834 3.685 20421.71
38.336 -109.687 3.696 18889.39
38.336 -108.541 3.607 16761.04
38.336 -107.394 3.527 15797.58
38.336 -106.248 3.525 14474.36
38.336 -105.101 3.645 11406.81
38.336 -103.955 3.801 10338.91
38.336 -102.808 3.867 9836.88
38.336 -101.661 3.872 10105.50
38.336 -100.515 3.824 10070.99
38.336 -99.368 3.806 10702.89
38.336 -98.222 3.874 11101.02
38.336 -97.075 3.973 10991.36
38.336 -95.928 4.074 11436.92
38.336 -94.782 4.079 11166.75
38.336 -93.635 3.921 11635.60
38.336 -92.489 3.850 12377.67
38.336 -91.342 3.863 14733.05
38.336 -90.196 4.012 15726.77
38.336 -89.049 4.172 16435.41
38.336 -87.902 4.128 13947.19
38.336 -86.756 3.986 6884.69
38.336 -85.609 3.893 5523.73
38.336 -84.463 3.894 5692.45
38.336 -83.316 3.932 5180.71
38.336 -82.170 3.905 5692.80
38.336 -81.023 3.872 6510.02
38.336 -79.876 3.872 8452.51
38.336 -78.730 3.884 11107.98
38.336 -77.583 3.864 4766.41
38.336 -76.437 3.823 50.94
38.336 -75.290 3.786 138.84
38.336 -74.143 3.768 19.98
38.336 -72.997 3.773 100.91
38.336 -71.850 3.744 0.00
38.336 -70.704 3.725 0.00
38.336 -69.557 3.723 0.00
38.336 -68.411 3.725 0.00
38.336 -67.264 3.726 0.00
39.236 -131.880 3.727 0.00
39.236 -130.719 3.728 0.00
39.236 -129.558 3.727 0.00
39.236 -128.397 3.715 0.00
39.236 -127.235 3.701 0.00
39.236 -126.074 3.684 129.88
39.236 -124.913 3.657 20.98
39.236 -123.752 3.635 692.55
39.236 -122.591 3.643 6453.48
39.236 -121.430 3.524 12316.80
39.236 -120.269 3.482 17164.67
39.236 -119.107 3.491 16452.09
39.236 -117.946 3.523 15138.17
39.236 -116.785 3.547 15717.14
39.236 -115.624 3.542 16793.98
39.236 -114.463 3.488 17159.50
39.236 -113.302 3.495 20238.19
39.236 -112.141 3.524 19354.56
39.236 -110.980 3.672 21237.26
39.236 -109.818 3.683 18210.26
39.236 -108.657 3.623 16408.34
39.236 -107.496 3.597 13981.63
39.236 -106.335 3.583 13611.81
39.236 -105.174 3.680 9854.40
39.236 -104.013 3.798 8196.90
39.236 -102.852 3.916 8089.63
39.236 -101.690 3.934 7609.76
39.236 -100.529 3.946 8118.71
39.236 -99.368 3.921 7065.72
39.236 -98.207 3.931 7953.01
39.236 -97.046 4.029 8857.65
39.236 -95.885 4.102 8254.40
39.236 -94.724 4.048 8282.94
39.236 -93.563 3.907 7793.14
39.236 -92.401 3.878 7633.40
39.236 -91.240 3.852 9001.60
39.236 -90.079 4.010 9035.44
39.236 -88.918 4.184 8648.89
39.236 -87.757 4.154 6870.59
39.236 -86.596 4.023 6449.13
39.236 -85.435 3.911 5237.22
39.236 -84.273 3.937 4772.77
39.236 -83.112 3.980 5701.84
39.236 -81.951 3.958 5393.91
39.236 -80.790 3.905 5234.86
39.236 -79.629 3.896 3420.09
39.236 -78.468 3.888 1029.44
39.236 -77.307 3.929 888.60
39.236 -76.145 3.914 332.63
39.236 -74.984 3.837 99.88
39.236 -73.823 3.778 0.00
39.236 -72.662 3.766 100.91
39.236 -71.501 3.739 0.00
39.236 -70.340 3.725 0.00
39.236 -69.179 3.724 0.00
39.236 -68.018 3.725 0.00
39.236 -66.856 3.726 0.00
40.135 -132.306 3.730 0.00
40.135 -131.130 3.730 0.00
40.135 -129.954 3.717 0.00
40.135 -128.777 3.692 0.00
40.135 -127.601 3.681 101.90
40.135 -126.424 3.681 50.95
40.135 -125.248 3.638 0.00
40.135 -124.072 3.528 8090.00
40.135 -122.895 3.455 21080.09
40.135 -121.719 3.438 21001.45
40.135 -120.543 3.471 29018.90
40.135 -119.366 3.524 21855.78
40.135 -118.190 3.517 14599.46
40.135 -117.014 3.481 12876.31
40.135 -115.837 3.484 12899.31
40.135 -114.661 3.419 16442.06
40.135 -113.484 3.429 20812.69
40.135 -112.308 3.517 22259.81
40.135 -111.132 3.679 20597.23
40.135 -109.955 3.758 16861.03
40.135 -108.779 3.790 15822.63
40.135 -107.603 3.767 16235.46
40.135 -106.426 3.760 13329.75
40.135 -105.250 3.787 11154.75
40.135 -104.074 3.849 8401.11
40.135 -102.897 3.939 7947.57
40.135 -101.721 3.944 7801.67
40.135 -100.545 3.923 7267.81
40.135 -99.368 3.919 6844.76
40.135 -98.192 3.933 7285.64
40.135 -97.015 3.965 7323.09
40.135 -95.839 4.006 7488.13
40.135 -94.663 3.976 8074.17
40.135 -93.486 3.869 7302.19
40.135 -92.310 3.873 7118.47
40.135 -91.134 3.908 8320.22
40.135 -89.957 4.067 7042.01
40.135 -88.781 4.239 5175.72
40.135 -87.605 4.222 6201.69
40.135 -86.428 4.075 5189.43
40.135 -85.252 4.012 5757.45
40.135 -84.076 4.057 5825.07
40.135 -82.899 4.107 5375.57
40.135 -81.723 4.068 4405.21
40.135 -80.546 3.986 3372.56
40.135 -79.370 3.928 2560.02
40.135 -78.194 3.906 1856.15
40.135 -77.017 3.885 780.29
40.135 -75.841 3.858 511.52
40.135 -74.665 3.832 292.68
40.135 -73.488 3.801 0.00
40.135 -72.312 3.780 100.91
40.135 -71.136 3.738 0.00
40.135 -69.959 3.723 0.00
40.135 -68.783 3.724 0.00
40.135 -67.607 3.726 0.00
40.135 -66.430 3.727 0.00
41.034 -132.752 3.730 0.00
41.034 -131.560 3.725 0.00
41.034 -130.368 3.692 0.00
41.034 -129.175 3.676 75.93
41.034 -127.983 3.711 79.93
41.034 -126.791 3.713 0.00
41.034 -125.598 3.662 150.72
41.034 -124.406 3.518 24533.14
41.034 -123.214 3.455 19785.96
41.034 -122.022 3.527 20846.66
41.034 -120.829 3.560 15987.15
41.034 -119.637 3.489 23061.42
41.034 -118.445 3.358 21792.14
41.034 -117.252 3.327 19187.56
41.034 -116.060 3.334 14950.76
41.034 -114.868 3.353 21335.21
41.034 -113.676 3.367 20899.19
41.034 -112.483 3.480 22312.06
41.034 -111.291 3.660 21001.98
41.034 -110.099 3.767 17320.84
41.034 -108.906 3.841 14765.72
41.034 -107.714 3.857 13274.08
41.034 -106.522 3.885 11524.66
41.034 -105.330 3.861 9634.67
41.034 -104.137 3.827 8306.15
41.034 -102.945 3.855 7885.30
41.034 -101.753 3.857 6826.86
41.034 -100.560 3.831 5184.80
41.034 -99.368 3.822 5472.19
41.034 -98.176 3.891 4701.71
41.034 -96.984 3.893 5790.86
41.034 -95.791 3.928 6066.61
41.034 -94.599 3.907 6722.16
41.034 -93.407 3.876 7197.91
41.034 -92.215 4.004 6853.71
41.034 -91.022 4.088 5884.94
41.034 -89.830 4.156 5829.86
41.034 -88.638 4.247 4945.52
41.034 -87.445 4.181 4556.96
41.034 -86.253 4.009 4409.30
41.034 -85.061 3.954 4461.00
41.034 -83.869 4.106 4206.86
41.034 -82.676 4.208 4445.49
41.034 -81.484 4.129 2862.09
41.034 -80.292 3.986 2725.17
41.034 -79.099 3.886 2337.83
41.034 -77.907 3.832 1803.72
41.034 -76.715 3.797 1448.41
41.034 -75.523 3.790 1690.52
41.034 -74.330 3.825 1564.65
41.034 -73.138 3.828 334.72
41.034 -71.946 3.789 187.80
41.034 -70.753 3.738 9.99
41.034 -69.561 3.719 0.00
41.034 -68.369 3.722 0.00
41.034 -67.177 3.727 0.00
41.034 -65.984 3.727 0.00
41.934 -133.219 3.717 0.00
41.934 -132.010 3.707 0.00
41.934 -130.801 3.675 53.95
41.934 -129.592 3.699 104.90
41.934 -128.383 3.743 0.00
41.934 -127.174 3.724 52.95
41.934 -125.965 3.667 1392.33
41.934 -124.756 3.532 8935.58
41.934 -123.547 3.590 8232.04
41.934 -122.338 3.696 11138.89
41.934 -121.129 3.509 11040.26
41.934 -119.920 3.326 14647.36
41.934 -118.711 3.230 13610.44
41.934 -117.502 3.282 14475.71
41.934 -116.293 3.404 20872.77
41.934 -115.085 3.430 26464.62
41.934 -113.876 3.405 21113.14
41.934 -112.667 3.448 20693.20
41.934 -111.458 3.588 21816.31
41.934 -110.249 3.707 16616.40
41.934 -109.040 3.796 15283.75
41.934 -107.831 3.896 12550.85
41.934 -106.622 3.882 10792.69
41.934 -105.413 3.825 9738.98
41.934 -104.204 3.813 8538.04
41.934 -102.995 3.825 6188.39
41.934 -101.786 3.813 5344.17
41.934 -100.577 3.708 6095.31
41.934 -99.368 3.737 5533.90
41.934 -98.159 3.804 6320.57
41.934 -96.950 3.828 5974.27
41.934 -95.741 3.889 7309.82
41.934 -94.532 3.915 7787.71
41.934 -93.323 3.906 7723.78
41.934 -92.115 3.984 6395.41
41.934 -90.906 4.029 5181.38
41.934 -89.697 4.019 4765.07
41.934 -88.488 4.045 4597.96
41.934 -87.279 4.041 4547.40
41.934 -86.070 3.969 4348.95
41.934 -84.861 3.978 4491.08
41.934 -83.652 4.081 4444.39
41.934 -82.443 4.146 2631.32
41.934 -81.234 4.095 2944.71
41.934 -80.025 4.021 2554.44
41.934 -78.816 3.973 2059.84
41.934 -77.607 3.920 2124.80
41.934 -76.398 3.885 1916.75
41.934 -75.189 3.860 830.14
41.934 -73.980 3.852 722.24
41.934 -72.771 3.846 748.74
41.934 -71.562 3.794 147.70
41.934 -70.353 3.745 33.89
41.934 -69.145 3.722 0.00
41.934 -67.936 3.720 0.00
41.934 -66.727 3.726 0.00
41.934 -65.518 3.721 0.00
42.833 -133.707 3.690 0.00
42.833 -132.481 3.679 35.97
42.833 -131.254 3.676 126.88
42.833 -130.028 3.720 0.00
42.833 -128.802 3.715 7.99
42.833 -127.575 3.607 156.85
42.833 -126.349 3.427 9011.79
42.833 -125.122 3.321 12259.00
42.833 -123.896 3.318 7889.39
42.833 -122.670 3.430 9000.75
42.833 -121.443 3.398 8952.28
42.833 -120.217 3.321 8939.60
42.833 -118.990 3.265 10241.06
42.833 -117.764 3.340 13572.96
42.833 -116.538 3.427 19002.98
42.833 -115.311 3.459 17817.56
42.833 -114.085 3.487 20326.45
42.833 -112.858 3.484 19798.31
42.833 -111.632 3.584 22763.11
42.833 -110.406 3.686 18969.84
42.833 -109.179 3.804 14727.77
42.833 -107.953 3.960 12333.76
42.833 -106.727 3.901 12064.92
42.833 -105.500 3.831 11629.77
42.833 -104.274 3.865 10352.21
42.833 -103.047 3.938 8726.16
42.833 -101.821 3.925 7526.95
42.833 -100.595 3.879 6537.20
42.833 -99.368 3.870 6657.99
42.833 -98.142 3.893 6767.10
42.833 -96.915 3.903 6511.04
42.833 -95.689 3.963 6168.44
42.833 -94.463 3.997 6069.83
42.833 -93.236 3.909 5656.71
42.833 -92.010 3.929 5910.82
42.833 -90.783 3.989 5534.58
42.833 -89.557 3.920 4589.77
42.833 -88.331 3.881 4213.51
42.833 -87.104 3.983 3478.52
42.833 -85.878 4.030 3304.72
42.833 -84.652 4.047 2398.70
42.833 -83.425 4.097 1315.25
42.833 -82.199 4.105 1824.16
42.833 -80.972 4.128 2062.36
42.833 -79.746 4.193 2097.88
42.833 -78.520 4.175 2037.91
42.833 -77.293 4.062 2313.57
42.833 -76.067 3.949 2051.47
42.833 -74.840 3.892 1802.96
42.833 -73.614 3.857 1334.25
42.833 -72.388 3.855 1134.75
42.833 -71.161 3.819 461.89
42.833 -69.935 3.773 45.95
42.833 -68.708 3.741 0.00
42.833 -67.482 3.727 0.00
42.833 -66.256 3.725 0.00
42.833 -65.029 3.712 0.00
43.732 -134.219 3.658 22.98
43.732 -132.974 3.652 143.87
43.732 -131.729 3.696 0.00
43.732 -130.485 3.757 0.00
43.732 -129.240 3.724 151.86
43.732 -127.995 3.472 179.84
43.732 -126.751 3.157 34338.66
43.732 -125.506 2.949 17553.63
43.732 -124.261 3.004 10584.32
43.732 -123.017 3.223 10733.87
43.732 -121.772 3.313 9615.97
43.732 -120.527 3.373 8766.55
43.732 -119.283 3.448 9936.62
43.732 -118.038 3.597 12528.39
43.732 -116.793 3.636 16376.78
43.732 -115.549 3.598 14081.09
43.732 -114.304 3.533 14258.42
43.732 -113.059 3.499 12908.37
43.732 -111.815 3.541 14005.76
43.732 -110.570 3.651 15784.60
43.732 -109.325 3.788 14174.03
43.732 -108.081 3.926 14004.09
43.732 -106.836 3.897 13532.66
43.732 -105.591 3.842 11963.56
43.732 -104.347 3.838 11696.50
43.732 -103.102 3.930 9205.25
43.732 -101.858 3.977 8794.86
43.732 -100.613 3.996 9024.69
43.732 -99.368 3.986 8844.44
43.732 -98.124 3.967 8180.34
43.732 -96.879 3.945 8383.21
43.732 -95.634 4.059 6621.82
43.732 -94.390 4.057 6424.80
43.732 -93.145 3.906 6795.01
43.732 -91.900 3.889 5968.60
43.732 -90.656 3.920 5490.21
43.732 -89.411 3.882 4900.99
43.732 -88.166 3.900 4792.88
43.732 -86.922 4.035 4185.51
43.732 -85.677 4.139 3330.39
43.732 -84.432 4.160 2831.67
43.732 -83.188 4.138 3004.65
43.732 -81.943 4.075 2463.50
43.732 -80.698 4.044 2396.74
43.732 -79.454 4.095 2041.05
43.732 -78.209 4.128 2116.84
43.732 -76.964 4.099 2009.88
43.732 -75.720 3.988 1734.13
43.732 -74.475 3.889 2112.67
43.732 -73.230 3.843 1291.49
43.732 -71.986 3.844 715.81
43.732 -70.741 3.816 111.87
43.732 -69.496 3.794 133.85
43.732 -68.252 3.767 26.97
43.732 -67.007 3.745 0.00
43.732 -65.763 3.731 0.00
43.732 -64.518 3.706 0.00
44.632 -134.754 3.640 171.84
44.632 -133.490 3.658 0.00
44.632 -132.227 3.737 0.00
44.632 -130.963 3.812 120.89
44.632 -129.699 3.739 133.88
44.632 -128.435 3.489 160.86
44.632 -127.172 3.165 1710.23
44.632 -125.908 3.029 6074.51
44.632 -124.644 3.057 8022.75
44.632 -123.380 3.276 10133.41
44.632 -122.116 3.418 8952.29
44.632 -120.853 3.504 8236.72
44.632 -119.589 3.593 9671.85
44.632 -118.325 3.680 14809.41
44.632 -117.061 3.692 14508.65
44.632 -115.797 3.737 11849.66
44.632 -114.534 3.676 11456.56
44.632 -113.270 3.539 10287.70
44.632 -112.006 3.451 10352.05
44.632 -110.742 3.490 10824.72
44.632 -109.479 3.583 11064.86
44.632 -108.215 3.653 9094.11
44.632 -106.951 3.737 9955.20
44.632 -105.687 3.787 11089.55
44.632 -104.423 3.880 10341.79
44.632 -103.160 3.966 10083.82
44.632 -101.896 4.027 8602.53
44.632 -100.632 4.086 7980.44
44.632 -99.368 4.081 7638.93
44.632 -98.104 4.043 6681.05
44.632 -96.841 4.064 5527.57
44.632 -95.577 4.125 5992.81
44.632 -94.313 4.018 6390.26
44.632 -93.049 3.869 5372.57
44.632 -91.785 3.794 5183.28
44.632 -90.522 3.850 4449.96
44.632 -89.258 3.895 4829.71
44.632 -87.994 3.930 3774.40
44.632 -86.730 4.047 3016.92
44.632 -85.467 4.138 3117.17
44.632 -84.203 4.101 2473.73
44.632 -82.939 4.031 2200.39
44.632 -81.675 3.986 2117.74
44.632 -80.411 3.965 2283.84
44.632 -79.148 4.000 2210.13
44.632 -77.884 4.074 2141.56
44.632 -76.620 4.093 1980.51
44.632 -75.356 4.045 2256.21
44.632 -74.092 3.977 1519.74
44.632 -72.829 3.904 789.02
44.632 -71.565 3.846 510.84
44.632 -70.301 3.791 435.57
44.632 -69.037 3.779 324.65
44.632 -67.773 3.781 341.85
44.632 -66.510 3.763 12.98
44.632 -65.246 3.741 0.00
44.632 -63.982 3.712 64.04
45.531 -135.316 3.657 161.85
45.531 -134.032 3.681 0.00
45.531 -132.748 3.758 86.92
45.531 -131.464 3.841 114.89
45.531 -130.180 3.820 106.90
45.531 -128.897 3.621 117.90
45.531 -127.613 3.435 1004.99
45.531 -126.329 3.307 669.60
45.531 -125.045 3.334 1580.09
45.531 -123.761 3.511 5331.58
45.531 -122.477 3.575 7373.42
45.531 -121.193 3.599 9261.13
45.531 -119.910 3.619 11340.42
45.531 -118.626 3.630 16322.67
45.531 -117.342 3.641 12711.08
45.531 -116.058 3.736 10383.37
45.531 -114.774 3.734 10478.96
45.531 -113.490 3.585 9040.52
45.531 -112.207 3.481 10254.34
45.531 -110.923 3.526 10283.06
45.531 -109.639 3.593 9258.36
45.531 -108.355 3.620 8099.18
45.531 -107.071 3.702 7984.88
45.531 -105.787 3.842 7351.02
45.531 -104.504 3.947 7050.09
45.531 -103.220 3.944 6919.65
45.531 -101.936 3.947 6285.75
45.531 -100.652 3.971 6814.92
45.531 -99.368 4.050 6896.72
45.531 -98.084 4.062 5809.01
45.531 -96.801 4.060 6132.17
45.531 -95.517 4.023 5653.43
45.531 -94.233 3.945 4752.12
45.531 -92.949 3.854 4860.44
45.531 -91.665 3.766 4591.92
45.531 -90.381 3.819 4048.26
45.531 -89.097 3.899 3680.60
45.531 -87.814 3.966 3485.15
45.531 -86.530 4.061 3094.98
45.531 -85.246 4.110 2339.62
45.531 -83.962 4.128 2145.39
45.531 -82.678 4.141 1806.87
45.531 -81.394 4.105 1538.49
45.531 -80.111 4.071 1265.80
45.531 -78.827 4.047 1107.83
45.531 -77.543 4.069 898.01
45.531 -76.259 4.084 948.55
45.531 -74.975 4.051 827.41
45.531 -73.691 3.976 574.22
45.531 -72.408 3.911 510.47
45.531 -71.124 3.841 565.40
45.531 -69.840 3.793 601.86
45.531 -68.556 3.782 132.12
45.531 -67.272 3.765 318.52
45.531 -65.988 3.766 291.73
45.531 -64.705 3.748 71.18
45.531 -63.421 3.723 260.76
46.431 -135.904 3.711 0.00
46.431 -134.600 3.730 56.95
46.431 -133.295 3.778 105.90
46.431 -131.990 3.799 152.86
46.431 -130.685 3.773 0.00
46.431 -129.380 3.685 240.77
46.431 -128.075 3.636 845.18
46.431 -126.770 3.595 460.69
46.431 -125.466 3.640 1757.92
46.431 -124.161 3.694 3336.14
46.431 -122.856 3.671 5179.45
46.431 -121.551 3.647 9091.75
46.431 -120.246 3.619 12994.53
46.431 -118.941 3.570 14061.23
46.431 -117.636 3.579 10926.82
46.431 -116.331 3.684 9472.84
46.431 -115.027 3.750 8742.25
46.431 -113.722 3.711 10165.43
46.431 -112.417 3.618 9094.16
46.431 -111.112 3.630 7178.07
46.431 -109.807 3.665 7650.04
46.431 -108.502 3.713 7669.55
46.431 -107.197 3.860 6653.44
46.431 -105.893 4.015 7623.45
46.431 -104.588 4.015 7241.96
46.431 -103.283 3.946 6160.19
46.431 -101.978 3.944 5013.79
46.431 -100.673 3.963 3906.35
46.431 -99.368 4.026 3716.73
46.431 -98.063 4.035 3871.44
46.431 -96.758 4.026 3368.97
46.431 -95.454 4.021 3649.22
46.431 -94.149 4.018 3892.05
46.431 -92.844 3.879 3559.38
46.431 -91.539 3.764 2842.01
46.431 -90.234 3.867 2527.24
46.431 -88.929 3.986 2989.37
46.431 -87.624 4.038 2380.34
46.431 -86.320 4.037 2060.37
46.431 -85.015 4.059 1960.44
46.431 -83.710 4.131 1420.73
46.431 -82.405 4.163 1348.20
46.431 -81.100 4.107 1344.29
46.431 -79.795 4.053 907.93
46.431 -78.490 4.019 832.25
46.431 -77.185 3.993 800.17
46.431 -75.881 3.966 746.24
46.431 -74.576 3.931 192.77
46.431 -73.271 3.881 271.70
46.431 -71.966 3.847 129.85
46.431 -70.661 3.832 177.81
46.431 -69.356 3.816 350.62
46.431 -68.051 3.791 143.78
46.431 -66.747 3.765 99.88
46.431 -65.442 3.776 101.91
46.431 -64.137 3.790 458.53
46.431 -62.832 3.774 6.99
47.330 -136.522 3.770 33.97
47.330 -135.195 3.778 133.88
47.330 -133.868 3.792 144.86
47.330 -132.541 3.760 10.99
47.330 -131.214 3.703 0.00
47.330 -129.887 3.645 419.58
47.330 -128.561 3.625 947.05
47.330 -127.234 3.661 1139.58
47.330 -125.907 3.768 1315.49
47.330 -124.580 3.779 3134.37
47.330 -123.253 3.727 7242.75
47.330 -121.926 3.629 11678.34
47.330 -120.599 3.579 12303.05
47.330 -119.272 3.517 10642.68
47.330 -117.945 3.530 8238.06
47.330 -116.618 3.651 8650.21
47.330 -115.291 3.779 9080.30
47.330 -113.964 3.803 8484.42
47.330 -112.637 3.780 7197.33
47.330 -111.311 3.771 6057.76
47.330 -109.984 3.781 6968.34
47.330 -108.657 3.832 6479.98
47.330 -107.330 3.935 6901.39
47.330 -106.003 4.042 6429.77
47.330 -104.676 4.018 6050.58
47.330 -103.349 3.946 4439.98
47.330 -102.022 3.963 4428.52
47.330 -100.695 3.957 3712.56
47.330 -99.368 3.980 3112.58
47.330 -98.041 4.061 3251.70
47.330 -96.714 4.086 3000.91
47.330 -95.387 4.113 2019.82
47.330 -94.061 4.102 1734.50
47.330 -92.734 3.958 1583.48
47.330 -91.407 3.866 1192.84
47.330 -90.080 4.020 1054.94
47.330 -88.753 4.128 1978.96
47.330 -87.426 4.111 1375.56
47.330 -86.099 4.031 1177.78
47.330 -84.772 4.042 997.98
47.330 -83.445 4.050 1069.62
47.330 -82.118 4.032 1097.75
47.330 -80.791 3.975 793.06
47.330 -79.464 3.948 765.11
47.330 -78.137 3.931 481.62
47.330 -76.811 3.916 297.70
47.330 -75.484 3.886 241.76
47.330 -74.157 3.853 270.72
47.330 -72.830 3.827 189.81
47.330 -71.503 3.821 236.75
47.330 -70.176 3.810 297.88
47.330 -68.849 3.786 94.89
47.330 -67.522 3.757 238.74
47.330 -66.195 3.756 290.86
47.330 -64.868 3.789 304.72
47.330 -63.541 3.821 94.91
47.330 -62.214 3.828 173.80
48.229 -137.170 3.837 180.83
48.229 -135.820 3.827 100.91
48.229 -134.470 3.783 59.94
48.229 -133.120 3.739 43.95
48.229 -131.770 3.690 145.85
48.229 -130.420 3.618 761.22
48.229 -129.070 3.603 1219.76
48.229 -127.720 3.693 746.71
48.229 -126.370 3.789 1687.90
48.229 -125.020 3.792 4904.19
48.229 -123.670 3.699 11489.70
48.229 -122.320 3.626 12794.01
48.229 -120.969 3.608 11042.79
48.229 -119.619 3.548 6944.34
48.229 -118.269 3.585 7603.58
48.229 -116.919 3.695 8310.16
48.229 -115.569 3.771 6984.64
48.229 -114.219 3.813 6474.42
48.229 -112.869 3.783 5938.81
48.229 -111.519 3.746 4505.99
48.229 -110.169 3.755 5433.38
48.229 -108.819 3.835 5934.58
48.229 -107.469 3.928 5142.09
48.229 -106.119 4.002 4485.61
48.229 -104.769 4.021 5315.72
48.229 -103.418 3.959 4708.25
48.229 -102.068 3.940 4025.04
48.229 -100.718 3.928 3010.31
48.229 -99.368 3.896 2783.59
48.229 -98.018 3.899 2447.03
48.229 -96.668 3.951 1525.71
48.229 -95.318 4.051 1272.14
48.229 -93.968 4.109 1183.85
48.229 -92.618 4.067 1202.79
48.229 -91.268 4.043 989.10
48.229 -89.918 4.181 1003.98
48.229 -88.568 4.217 1098.98
48.229 -87.217 4.103 742.23
48.229 -85.867 3.995 409.56
48.229 -84.517 3.977 524.44
48.229 -83.167 3.980 675.30
48.229 -81.817 3.954 569.42
48.229 -80.467 3.922 432.57
48.229 -79.117 3.926 378.63
48.229 -77.767 3.921 331.04
48.229 -76.417 3.915 399.58
48.229 -75.067 3.906 339.65
48.229 -73.717 3.890 331.66
48.229 -72.367 3.866 275.70
48.229 -71.017 3.819 173.81
48.229 -69.666 3.757 70.92
48.229 -68.316 3.710 0.00
48.229 -66.966 3.697 216.77
48.229 -65.616 3.749 161.85
48.229 -64.266 3.810 193.82
48.229 -62.916 3.818 126.88
48.229 -61.566 3.834 136.87
49.129 -137.851 3.896 396.59
49.129 -136.477 3.875 167.83
49.129 -135.103 3.781 133.86
49.129 -133.728 3.726 272.71
49.129 -132.354 3.677 672.32
49.129 -130.979 3.626 666.28
49.129 -129.605 3.647 682.70
49.129 -128.231 3.717 1227.50
49.129 -126.856 3.741 3324.53
49.129 -125.482 3.685 12488.12
49.129 -124.107 3.604 14669.96
49.129 -122.733 3.597 11074.61
49.129 -121.359 3.675 8973.59
49.129 -119.984 3.716 8132.99
49.129 -118.610 3.723 6306.82
49.129 -117.235 3.733 5686.20
49.129 -115.861 3.713 4973.27
49.129 -114.487 3.741 4719.80
49.129 -113.112 3.710 4570.08
49.129 -111.738 3.658 4249.73
49.129 -110.363 3.667 3346.57
49.129 -108.989 3.756 4027.73
49.129 -107.615 3.834 3581.44
49.129 -106.240 3.878 4080.02
49.129 -104.866 3.937 3579.05
49.129 -103.491 3.959 4514.97
49.129 -102.117 3.913 3014.51
49.129 -100.743 3.865 1786.93
49.129 -99.368 3.802 1979.26
49.129 -97.994 3.790 1778.97
49.129 -96.619 3.898 1342.64
49.129 -95.245 3.979 751.25
49.129 -93.871 4.036 603.38
49.129 -92.496 4.056 686.26
49.129 -91.122 4.093 600.34
49.129 -89.747 4.151 822.19
49.129 -88.373 4.080 1237.70
49.129 -86.999 3.984 659.30
49.129 -85.624 3.912 686.29
49.129 -84.250 3.934 863.14
49.129 -82.875 3.955 559.97
49.129 -81.501 3.946 231.74
49.129 -80.127 3.921 374.56
49.129 -78.752 3.918 332.63
49.129 -77.378 3.901 60.93
49.129 -76.003 3.891 269.73
49.129 -74.629 3.881 95.89
49.129 -73.255 3.844 156.84
49.129 -71.880 3.796 0.00
49.129 -70.506 3.736 99.88
49.129 -69.131 3.681 19.98
49.129 -67.757 3.653 224.10
49.129 -66.383 3.705 92.90
49.129 -65.008 3.786 120.89
49.129 -63.634 3.812 79.93
49.129 -62.259 3.799 16.98
49.129 -60.885 3.818 170.84
50.028 -138.567 3.886 505.53
50.028 -137.167 3.864 410.26
50.028 -135.767 3.760 415.56
50.028 -134.367 3.716 526.44
50.028 -132.967 3.676 277.74
50.028 -131.567 3.656 438.51
50.028 -130.167 3.672 711.98
50.028 -128.767 3.684 2558.74
50.028 -127.368 3.663 13600.20
50.028 -125.968 3.567 17711.11
50.028 -124.568 3.573 13603.29
50.028 -123.168 3.598 10906.93
50.028 -121.768 3.662 8910.72
50.028 -120.368 3.688 7046.51
50.028 -118.968 3.708 5712.67
50.028 -117.568 3.701 5467.24
50.028 -116.168 3.674 4761.68
50.028 -114.768 3.705 4620.82
50.028 -113.368 3.709 3785.28
50.028 -111.968 3.660 3326.81
50.028 -110.568 3.639 2832.32
50.028 -109.168 3.675 3194.93
50.028 -107.768 3.738 2812.20
50.028 -106.368 3.806 2657.29
50.028 -104.968 3.884 2470.45
50.028 -103.568 3.867 3282.63
50.028 -102.168 3.833 2568.35
50.028 -100.768 3.878 2376.65
50.028 -99.368 3.852 1292.14
50.028 -97.968 3.894 1023.45
50.028 -96.568 3.990 1663.97
50.028 -95.168 4.004 524.42
50.028 -93.768 4.034 569.41
50.028 -92.368 4.034 652.26
50.028 -90.968 4.038 521.41
50.028 -89.568 4.033 1065.91
50.028 -88.168 3.985 774.19
50.028 -86.769 3.906 488.50
50.028 -85.369 3.880 312.68
50.028 -83.969 3.927 266.74
50.028 -82.569 3.942 296.66
50.028 -81.169 3.922 383.18
50.028 -79.769 3.897 87.90
50.028 -78.369 3.894 196.79
50.028 -76.969 3.873 118.87
50.028 -75.569 3.835 206.80
50.028 -74.169 3.797 65.94
50.028 -72.769 3.747 33.97
50.028 -71.369 3.701 0.00
50.028 -69.969 3.662 213.78
50.028 -68.569 3.655 137.87
50.028 -67.169 3.695 200.79
50.028 -65.769 3.778 72.93
50.028 -64.369 3.826 127.88
50.028 -62.969 3.808 101.91
50.028 -61.569 3.789 287.73
50.028 -60.169 3.791 140.87
50.927 -139.320 3.806 711.34
50.927 -137.893 3.785 526.50
50.927 -136.466 3.743 285.70
50.927 -135.040 3.717 2.00
50.927 -133.613 3.694 305.69
50.927 -132.186 3.695 473.49
50.927 -130.759 3.695 1207.85
50.927 -129.332 3.674 18025.78
50.927 -127.905 3.627 24378.39
50.927 -126.478 3.579 16228.84
50.927 -125.052 3.538 13149.73
50.927 -123.625 3.472 10171.55
50.927 -122.198 3.490 7456.95
50.927 -120.771 3.553 6407.14
50.927 -119.344 3.605 5609.82
50.927 -117.917 3.686 4755.53
50.927 -116.490 3.700 4398.15
50.927 -115.064 3.694 3426.73
50.927 -113.637 3.672 3104.98
50.927 -112.210 3.660 2275.77
50.927 -110.783 3.683 1505.47
50.927 -109.356 3.758 1033.97
50.927 -107.929 3.817 2892.10
50.927 -106.502 3.883 1996.96
50.927 -105.076 3.932 2951.92
50.927 -103.649 3.907 2705.25
50.927 -102.222 3.941 3133.80
50.927 -100.795 3.981 2420.63
50.927 -99.368 4.027 1356.68
50.927 -97.941 4.041 776.26
50.927 -96.514 3.997 527.47
50.927 -95.088 3.963 551.42
50.927 -93.661 4.006 780.15
50.927 -92.234 4.004 741.20
50.927 -90.807 3.970 720.30
50.927 -89.380 3.955 632.61
50.927 -87.953 3.951 374.65
50.927 -86.526 3.883 351.64
50.927 -85.100 3.869 99.88
50.927 -83.673 3.934 173.82
50.927 -82.246 3.956 403.53
50.927 -80.819 3.914 212.75
50.927 -79.392 3.870 91.89
50.927 -77.965 3.837 90.92
50.927 -76.538 3.809 99.91
50.927 -75.112 3.770 99.91
50.927 -73.685 3.726 99.91
50.927 -72.258 3.680 93.91
50.927 -70.831 3.658 231.76
50.927 -69.404 3.672 58.94
50.927 -67.977 3.706 229.78
50.927 -66.550 3.776 198.80
50.927 -65.124 3.843 259.76
50.927 -63.697 3.837 249.77
50.927 -62.270 3.799 225.79
50.927 -60.843 3.774 254.76
50.927 -59.416 3.770 569.47
51.827 -140.113 3.747 767.28
51.827 -138.658 3.739 79.92
51.827 -137.203 3.737 21.97
51.827 -135.747 3.733 155.82
51.827 -134.292 3.708 408.60
51.827 -132.837 3.693 489.50
51.827 -131.382 3.638 27106.35
51.827 -129.927 3.587 37498.01
51.827 -128.472 3.536 17004.11
51.827 -127.016 3.475 12302.77
51.827 -125.561 3.464 8956.87
51.827 -124.106 3.460 7075.43
51.827 -122.651 3.493 5234.15
51.827 -121.196 3.536 3409.65
51.827 -119.741 3.597 2963.09
51.827 -118.285 3.709 2569.26
51.827 -116.830 3.733 1996.06
51.827 -115.375 3.733 1694.38
51.827 -113.920 3.749 1821.14
51.827 -112.465 3.783 1636.35
51.827 -111.010 3.862 1460.52
51.827 -109.554 3.974 1637.32
51.827 -108.099 4.048 2616.40
51.827 -106.644 4.070 2989.95
51.827 -105.189 4.028 2953.96
51.827 -103.734 4.042 2666.34
51.827 -102.279 4.034 3368.57
51.827 -100.823 4.026 2105.86
51.827 -99.368 4.077 1015.90
51.827 -97.913 4.037 672.31
51.827 -96.458 3.963 512.50
51.827 -95.003 3.947 766.24
51.827 -93.548 4.011 467.54
51.827 -92.092 4.010 495.50
51.827 -90.637 3.970 456.98
51.827 -89.182 3.929 477.47
51.827 -87.727 3.942 443.54
51.827 -86.272 3.899 282.68
51.827 -84.817 3.890 208.75
51.827 -83.361 3.944 412.54
51.827 -81.906 3.928 333.95
51.827 -80.451 3.865 197.79
51.827 -78.996 3.808 197.82
51.827 -77.541 3.766 99.91
51.827 -76.085 3.746 266.75
51.827 -74.630 3.717 283.74
51.827 -73.175 3.688 348.68
51.827 -71.720 3.681 159.85
51.827 -70.265 3.689 208.78
51.827 -68.810 3.711 111.90
51.827 -67.354 3.747 200.79
51.827 -65.899 3.822 194.82
51.827 -64.444 3.849 521.52
51.827 -62.989 3.807 471.56
51.827 -61.534 3.772 391.64
51.827 -60.079 3.770 579.46
51.827 -58.623 3.754 267.75
52.726 -140.948 3.728 83.92
52.726 -139.463 3.729 91.89
52.726 -137.978 3.742 135.84
52.726 -136.493 3.726 307.72
52.726 -135.008 3.666 564.46
52.726 -133.523 3.573 466.53
52.726 -132.038 3.415 2129.56
52.726 -130.553 3.355 5545.00
52.726 -129.068 3.432 5062.73
52.726 -127.583 3.487 4643.30
52.726 -126.098 3.529 4279.24
52.726 -124.613 3.594 3427.45
52.726 -123.128 3.656 2793.15
52.726 -121.643 3.676 2976.02
52.726 -120.158 3.734 2250.86
52.726 -118.673 3.819 2718.33
52.726 -117.188 3.844 2060.93
52.726 -115.703 3.900 2081.93
52.726 -114.218 3.970 1760.24
52.726 -112.733 4.067 2171.80
52.726 -111.248 4.158 2200.75
52.726 -109.763 4.159 2020.92
52.726 -108.278 4.109 1646.26
52.726 -106.793 4.037 3069.82
52.726 -105.308 3.998 2144.80
52.726 -103.823 4.041 3075.82
52.726 -102.338 4.034 2695.26
52.726 -100.853 4.075 2476.43
52.726 -99.368 4.084 838.16
52.726 -97.883 4.037 223.78
52.726 -96.398 3.980 606.38
52.726 -94.913 3.971 630.35
52.726 -93.428 4.022 500.50
52.726 -91.943 4.025 343.61
52.726 -90.458 3.978 336.52
52.726 -88.973 3.928 449.50
52.726 -87.488 3.928 301.69
52.726 -86.003 3.867 146.84
52.726 -84.518 3.840 100.88
52.726 -83.033 3.873 103.90
52.726 -81.548 3.857 256.70
52.726 -80.063 3.800 152.82
52.726 -78.578 3.746 266.75
52.726 -77.093 3.707 319.70
52.726 -75.608 3.702 465.57
52.726 -74.123 3.714 237.78
52.726 -72.638 3.700 351.67
52.726 -71.153 3.696 369.65
52.726 -69.668 3.706 391.62
52.726 -68.183 3.726 451.57
52.726 -66.698 3.775 491.53
52.726 -65.213 3.835 666.38
52.726 -63.728 3.827 405.62
52.726 -62.243 3.794 296.72
52.726 -60.758 3.771 396.63
52.726 -59.273 3.744 0.00
52.726 -57.788 3.731 83.93
53.625 -141.829 3.731 414.58
53.625 -140.313 3.734 174.83
53.625 -138.796 3.743 382.65
53.625 -137.280 3.726 206.81
53.625 -135.763 3.682 184.80
53.625 -134.247 3.630 350.63
53.625 -132.730 3.566 494.47
53.625 -131.214 3.595 1748.99
53.625 -129.697 3.671 2440.58
53.625 -128.181 3.703 2366.60
53.625 -126.665 3.771 2218.68
53.625 -125.148 3.847 1282.37
53.625 -123.632 3.925 937.05
53.625 -122.115 3.944 1404.93
53.625 -120.599 3.943 1003.02
53.625 -119.082 3.987 1135.83
53.625 -117.566 3.992 1318.64
53.625 -116.049 4.058 1071.88
53.625 -114.533 4.183 1254.76
53.625 -113.016 4.291 1404.74
53.625 -111.500 4.290 1550.42
53.625 -109.983 4.193 1652.32
53.625 -108.467 4.092 1563.33
53.625 -106.951 3.996 2251.73
53.625 -105.434 3.987 2727.25
53.625 -103.918 4.013 2467.46
53.625 -102.401 4.083 2225.72
53.625 -100.885 4.091 2372.49
53.625 -99.368 4.065 957.00
53.625 -97.852 4.038 641.30
53.625 -96.335 4.005 401.56
53.625 -94.819 3.976 633.39
53.625 -93.302 4.004 245.75
53.625 -91.786 3.988 478.52
53.625 -90.269 3.933 181.83
53.625 -88.753 3.889 264.70
53.625 -87.237 3.883 262.74
53.625 -85.720 3.817 182.80
53.625 -84.204 3.788 0.00
53.625 -82.687 3.825 102.90
53.625 -81.171 3.824 200.76
53.625 -79.654 3.789 125.85
53.625 -78.138 3.764 178.81
53.625 -76.621 3.736 277.94
53.625 -75.105 3.721 440.58
53.625 -73.588 3.725 454.07
53.625 -72.072 3.726 309.71
53.625 -70.555 3.726 414.59
53.625 -69.039 3.741 348.67
53.625 -67.523 3.773 679.33
53.625 -66.006 3.830 542.49
53.625 -64.490 3.840 347.67
53.625 -62.973 3.800 197.82
53.625 -61.457 3.763 236.78
53.625 -59.940 3.735 106.90
53.625 -58.424 3.723 141.86
53.625 -56.907 3.735 168.81
54.525 -142.759 3.773 175.81
54.525 -141.209 3.777 317.70
54.525 -139.660 3.743 57.95
54.525 -138.110 3.700 123.90
54.525 -136.560 3.686 217.74
54.525 -135.011 3.680 257.74
54.525 -133.461 3.701 584.43
54.525 -131.911 3.779 1889.49
54.525 -130.362 3.807 1780.78
54.525 -128.812 3.790 2043.41
54.525 -127.262 3.809 2039.94
54.525 -125.713 3.856 1001.58
54.525 -124.163 3.945 911.65
54.525 -122.613 3.971 773.96
54.525 -121.064 3.970 834.16
54.525 -119.514 3.991 609.35
54.525 -117.964 3.988 899.10
54.525 -116.415 4.057 1008.89
54.525 -114.865 4.174 1350.60
54.525 -113.315 4.223 931.06
54.525 -111.766 4.199 1727.25
54.525 -110.216 4.156 2110.76
54.525 -108.666 4.085 1795.10
54.525 -107.117 4.027 1949.03
54.525 -105.567 4.001 2818.16
54.525 -104.017 4.041 1680.25
54.525 -102.468 4.081 2150.72
54.525 -100.918 4.024 1934.95
54.525 -99.368 3.987 1449.53
54.525 -97.819 3.992 615.33
54.525 -96.269 3.960 254.76
54.525 -94.719 3.895 419.61
54.525 -93.170 3.901 123.88
54.525 -91.620 3.914 133.87
54.525 -90.070 3.890 503.47
54.525 -88.520 3.884 275.71
54.525 -86.971 3.867 293.71
54.525 -85.421 3.791 154.64
54.525 -83.871 3.775 0.00
54.525 -82.322 3.820 180.81
54.525 -80.772 3.827 124.85
54.525 -79.222 3.805 99.88
54.525 -77.673 3.798 99.91
54.525 -76.123 3.782 195.80
54.525 -74.573 3.770 150.84
54.525 -73.024 3.758 199.79
54.525 -71.474 3.747 90.89
54.525 -69.924 3.752 123.62
54.525 -68.375 3.776 292.68
54.525 -66.825 3.824 154.49
54.525 -65.275 3.876 182.83
54.525 -63.726 3.848 175.84
54.525 -62.176 3.785 74.93
54.525 -60.626 3.747 99.88
54.525 -59.077 3.742 134.84
54.525 -57.527 3.746 105.88
54.525 -55.977 3.759 0.00
55.424 -143.742 3.788 495.54
55.424 -142.157 3.777 0.00
55.424 -140.572 3.727 0.00
55.424 -138.988 3.678 226.78
55.424 -137.403 3.680 147.83
55.424 -135.818 3.689 514.50
55.424 -134.233 3.708 485.51
55.424 -132.648 3.749 1893.99
55.424 -131.064 3.702 1547.83
55.424 -129.479 3.657 1646.02
55.424 -127.894 3.680 1303.46
55.424 -126.309 3.750 1338.83
55.424 -124.725 3.888 792.93
55.424 -123.140 3.933 857.39
55.424 -121.555 3.975 678.28
55.424 -119.970 4.008 1211.75
55.424 -118.385 3.988 850.08
55.424 -116.801 3.984 1155.79
55.424 -115.216 4.021 867.08
55.424 -113.631 4.015 1116.91
55.424 -112.046 4.014 1403.55
55.424 -110.462 4.046 1851.10
55.424 -108.877 4.050 1963.00
55.424 -107.292 4.028 1924.05
55.424 -105.707 4.012 2386.59
55.424 -104.123 4.003 1360.63
55.424 -102.538 3.963 1414.50
55.424 -100.953 3.909 1833.08
55.424 -99.368 3.922 2268.63
55.424 -97.783 3.971 468.53
55.424 -96.199 3.941 339.66
55.424 -94.614 3.839 258.75
55.424 -93.029 3.823 151.86
55.424 -91.444 3.878 102.90
55.424 -89.860 3.873 525.40
55.424 -88.275 3.887 128.87
55.424 -86.690 3.858 288.73
55.424 -85.105 3.784 318.69
55.424 -83.520 3.791 79.93
55.424 -81.936 3.842 204.78
55.424 -80.351 3.843 199.77
55.424 -78.766 3.822 62.94
55.424 -77.181 3.813 38.96
55.424 -75.597 3.810 199.81
55.424 -74.012 3.802 121.88
55.424 -72.427 3.778 103.88
55.424 -70.842 3.763 271.68
55.424 -69.257 3.770 191.79
55.424 -67.673 3.797 400.58
55.424 -66.088 3.854 334.67
55.424 -64.503 3.870 336.45
55.424 -62.918 3.806 123.85
55.424 -61.334 3.754 127.85
55.424 -59.749 3.742 30.96
55.424 -58.164 3.755 0.00
55.424 -56.579 3.769 223.79
55.424 -54.995 3.772 293.73
56.324 -144.782 3.762 49.95
56.324 -143.160 3.750 0.00
56.324 -141.538 3.706 0.00
56.324 -139.916 3.671 255.75
56.324 -138.294 3.686 287.70
56.324 -136.672 3.683 646.34
56.324 -135.050 3.698 755.23
56.324 -133.428 3.685 1147.84
56.324 -131.806 3.626 1479.19
56.324 -130.184 3.613 1530.71
56.324 -128.563 3.646 1070.04
56.324 -126.941 3.740 585.76
56.324 -125.319 3.920 905.19
56.324 -123.697 4.036 853.79
56.324 -122.075 4.089 970.00
56.324 -120.453 4.110 1139.78
56.324 -118.831 3.991 1107.86
56.324 -117.209 3.923 835.12
56.324 -115.587 3.927 1366.54
56.324 -113.965 3.934 1424.52
56.324 -112.343 3.926 1593.37
56.324 -110.722 3.956 1756.20
56.324 -109.100 4.034 2449.57
56.324 -107.478 4.072 2019.91
56.324 -105.856 4.075 973.03
56.324 -104.234 4.011 1842.11
56.324 -102.612 3.921 1411.50
56.324 -100.990 3.880 1982.94
56.324 -99.368 3.921 2287.59
56.324 -97.746 3.974 1028.97
56.324 -96.124 3.939 285.70
56.324 -94.502 3.837 103.90
56.324 -92.881 3.810 236.77
56.324 -91.259 3.879 222.76
56.324 -89.637 3.860 407.53
56.324 -88.015 3.874 101.91
56.324 -86.393 3.843 262.75
56.324 -84.771 3.788 142.86
56.324 -83.149 3.814 34.97
56.324 -81.527 3.874 388.60
56.324 -79.905 3.866 228.05
56.324 -78.283 3.839 100.91
56.324 -76.661 3.824 82.91
56.324 -75.040 3.821 297.80
56.324 -73.418 3.811 296.68
56.324 -71.796 3.782 191.77
56.324 -70.174 3.761 284.68
56.324 -68.552 3.774 312.66
56.324 -66.930 3.813 438.54
56.324 -65.308 3.843 253.76
56.324 -63.686 3.802 80.93
56.324 -62.064 3.750 30.97
56.324 -60.442 3.728 0.00
56.324 -58.820 3.736 0.00
56.324 -57.199 3.758 265.57
56.324 -55.577 3.763 61.94
56.324 -53.955 3.756 0.00
57.223 -145.883 3.739 0.00
57.223 -144.222 3.730 0.00
57.223 -142.561 3.696 0.00
57.223 -140.899 3.672 363.65
57.223 -139.238 3.685 536.43
57.223 -137.577 3.699 632.35
57.223 -135.916 3.700 924.26
57.223 -134.254 3.655 960.92
57.223 -132.593 3.623 847.12
57.223 -130.932 3.644 1290.89
57.223 -129.271 3.712 1030.68
57.223 -127.609 3.803 612.05
57.223 -125.948 3.962 563.87
57.223 -124.287 4.101 1295.15
57.223 -122.626 4.124 1080.82
57.223 -120.964 4.036 558.41
57.223 -119.303 3.945 977.99
57.223 -117.642 3.925 1126.83
57.223 -115.981 3.955 1193.77
57.223 -114.319 3.954 1939.92
57.223 -112.658 3.916 2032.90
57.223 -110.997 3.936 2153.86
57.223 -109.336 4.004 2184.79
57.223 -107.674 4.105 1629.33
57.223 -106.013 4.140 789.12
57.223 -104.352 4.062 2101.82
57.223 -102.691 3.975 1684.28
57.223 -101.029 3.948 1724.19
57.223 -99.368 3.940 2189.70
57.223 -97.707 3.951 1597.36
57.223 -96.046 3.942 238.74
57.223 -94.384 3.883 213.79
57.223 -92.723 3.845 297.70
57.223 -91.062 3.890 102.90
57.223 -89.401 3.856 404.55
57.223 -87.739 3.864 102.90
57.223 -86.078 3.838 303.69
57.223 -84.417 3.797 173.82
57.223 -82.756 3.826 97.88
57.223 -81.094 3.886 400.56
57.223 -79.433 3.875 196.77
57.223 -77.772 3.846 194.79
57.223 -76.111 3.823 133.86
57.223 -74.449 3.807 102.90
57.223 -72.788 3.782 92.91
57.223 -71.127 3.752 83.91
57.223 -69.466 3.748 15.98
57.223 -67.805 3.771 315.68
57.223 -66.143 3.819 267.74
57.223 -64.482 3.804 141.85
57.223 -62.821 3.751 92.91
57.223 -61.160 3.721 70.93
57.223 -59.498 3.720 61.94
57.223 -57.837 3.731 0.00
57.223 -56.176 3.742 0.00
57.223 -54.515 3.747 89.25
57.223 -52.853 3.742 9.99
58.122 -147.051 3.735 0.00
58.122 -145.348 3.728 0.00
58.122 -143.645 3.693 107.90
58.122 -141.942 3.673 645.35
58.122 -140.239 3.697 393.58
