43.732 -108.081 3.851 28249.49
43.732 -106.836 3.899 28718.04
43.732 -105.591 3.861 24888.60
43.732 -104.347 3.811 26334.57
43.732 -103.102 3.796 24112.59
43.732 -101.858 3.774 23629.53
43.732 -100.613 3.885 22823.59
43.732 -99.368 4.041 23045.05
43.732 -98.124 4.024 20779.38
43.732 -96.879 3.928 20747.42
43.732 -95.634 3.874 19024.79
43.732 -94.390 3.857 17268.34
43.732 -93.145 3.897 15687.81
43.732 -91.900 4.007 14345.36
43.732 -90.656 4.020 13093.19
43.732 -89.411 3.960 11881.43
43.732 -88.166 3.902 11533.10
43.732 -86.922 3.902 10443.47
43.732 -85.677 3.943 8485.60
43.732 -84.432 3.930 6039.92
43.732 -83.188 3.947 6292.13
43.732 -81.943 3.982 6057.23
43.732 -80.698 3.975 5929.52
43.732 -79.454 3.952 5027.31
43.732 -78.209 3.958 4144.62
43.732 -76.964 3.948 4671.69
43.732 -75.720 3.945 4397.88
43.732 -74.475 3.949 5108.24
43.732 -73.230 3.929 3443.30
43.732 -71.986 3.916 1716.78
43.732 -70.741 3.867 289.70
43.732 -69.496 3.819 213.78
43.732 -68.252 3.788 26.97
43.732 -67.007 3.784 0.00
43.732 -65.763 3.782 0.00
43.732 -64.518 3.778 0.00
44.632 -134.754 3.771 0.00
44.632 -133.490 3.772 0.00
44.632 -132.227 3.812 0.00
44.632 -130.963 3.874 215.79
44.632 -129.699 3.822 194.81
44.632 -128.435 3.532 310.72
44.632 -127.172 3.130 2726.54
44.632 -125.908 2.998 9780.99
44.632 -124.644 3.008 11174.26
44.632 -123.380 3.211 13709.02
44.632 -122.116 3.450 13867.31
44.632 -120.853 3.495 14909.97
44.632 -119.589 3.538 16649.17
44.632 -118.325 3.624 24478.86
44.632 -117.061 3.606 24774.34
44.632 -115.797 3.627 22111.52
44.632 -114.534 3.580 21463.31
44.632 -113.270 3.500 20025.84
44.632 -112.006 3.436 20311.22
44.632 -110.742 3.502 23228.59
44.632 -109.479 3.638 22161.40
44.632 -108.215 3.866 20626.66
44.632 -106.951 3.991 21739.37
44.632 -105.687 3.951 21152.88
44.632 -104.423 3.897 20558.06
44.632 -103.160 3.827 20969.38
44.632 -101.896 3.740 20781.74
44.632 -100.632 3.858 17999.90
44.632 -99.368 4.061 17599.46
44.632 -98.104 4.082 17271.62
44.632 -96.841 3.957 17020.43
44.632 -95.577 3.912 16713.57
44.632 -94.313 3.851 15705.41
44.632 -93.049 3.903 14365.40
44.632 -91.785 3.980 13157.19
44.632 -90.522 3.992 12002.65
44.632 -89.258 3.969 11290.12
44.632 -87.994 3.961 11105.93
44.632 -86.730 3.966 10388.78
44.632 -85.467 3.991 9580.74
44.632 -84.203 4.018 7831.88
44.632 -82.939 3.995 6843.52
44.632 -81.675 3.969 6615.81
44.632 -80.411 3.942 6817.69
44.632 -79.148 3.942 7502.10
44.632 -77.884 3.900 7676.01
44.632 -76.620 3.916 6284.33
44.632 -75.356 3.904 7667.99
44.632 -74.092 3.861 6075.38
44.632 -72.829 3.931 2511.63
44.632 -71.565 3.977 1971.07
44.632 -70.301 3.938 1273.42
44.632 -69.037 3.857 741.23
44.632 -67.773 3.825 710.61
44.632 -66.510 3.825 127.88
44.632 -65.246 3.822 112.89
44.632 -63.982 3.811 91.02
45.531 -135.316 3.793 0.00
45.531 -134.032 3.791 0.00
45.531 -132.748 3.824 148.86
45.531 -131.464 3.914 211.79
45.531 -130.180 3.939 166.85
45.531 -128.897 3.715 338.68
45.531 -127.613 3.408 1391.88
45.531 -126.329 3.306 2334.35
45.531 -125.045 3.244 3677.17
45.531 -123.761 3.390 8255.80
45.531 -122.477 3.590 11238.01
45.531 -121.193 3.662 13984.39
45.531 -119.910 3.702 18173.90
45.531 -118.626 3.716 23768.14
45.531 -117.342 3.725 21412.99
45.531 -116.058 3.725 18094.19
45.531 -114.774 3.677 19637.04
45.531 -113.490 3.584 17738.42
45.531 -112.207 3.461 20034.44
45.531 -110.923 3.519 18943.50
45.531 -109.639 3.627 17507.41
45.531 -108.355 3.810 16508.47
45.531 -107.071 3.932 18501.52
45.531 -105.787 3.938 18023.78
45.531 -104.504 3.910 15368.13
45.531 -103.220 3.842 15241.20
45.531 -101.936 3.756 15715.57
45.531 -100.652 3.897 16365.07
45.531 -99.368 4.085 15302.04
45.531 -98.084 4.108 16457.19
45.531 -96.801 4.028 16452.29
45.531 -95.517 3.966 13761.37
45.531 -94.233 3.893 11791.05
45.531 -92.949 3.862 11731.06
45.531 -91.665 3.888 10454.97
45.531 -90.381 3.905 10324.41
45.531 -89.097 3.957 9435.95
45.531 -87.814 3.985 8573.91
45.531 -86.530 3.993 7652.05
45.531 -85.246 4.055 6553.83
45.531 -83.962 4.070 5475.94
45.531 -82.678 4.011 5651.45
45.531 -81.394 3.977 5319.95
45.531 -80.111 3.956 5582.56
45.531 -78.827 3.938 5167.84
45.531 -77.543 3.901 5456.54
45.531 -76.259 3.916 4728.12
45.531 -74.975 3.938 2384.67
45.531 -73.691 3.943 2348.80
45.531 -72.408 3.996 1470.47
45.531 -71.124 4.034 1501.42
45.531 -69.840 4.001 1869.34
45.531 -68.556 3.897 411.95
45.531 -67.272 3.870 649.75
45.531 -65.988 3.878 600.59
45.531 -64.705 3.871 249.69
45.531 -63.421 3.852 263.73
46.431 -135.904 3.827 264.90
46.431 -134.600 3.828 103.64
46.431 -133.295 3.842 234.78
46.431 -131.990 3.883 152.86
46.431 -130.685 3.933 196.81
46.431 -129.380 3.845 328.67
46.431 -128.075 3.715 1360.73
46.431 -126.770 3.700 1947.11
46.431 -125.466 3.597 3092.32
46.431 -124.161 3.624 5016.95
46.431 -122.856 3.751 8593.60
46.431 -121.551 3.760 13345.71
46.431 -120.246 3.691 19471.66
46.431 -118.941 3.668 19952.33
46.431 -117.636 3.744 15888.83
46.431 -116.331 3.767 14726.38
46.431 -115.027 3.690 16944.58
46.431 -113.722 3.641 18428.10
46.431 -112.417 3.660 15354.40
46.431 -111.112 3.767 12743.29
46.431 -109.807 3.887 14181.72
46.431 -108.502 3.994 14459.46
46.431 -107.197 4.054 14531.89
46.431 -105.893 4.050 18771.01
46.431 -104.588 3.888 13148.40
46.431 -103.283 3.809 12496.86
46.431 -101.978 3.801 10960.73
46.431 -100.673 3.865 10068.79
46.431 -99.368 3.926 11242.20
46.431 -98.063 3.963 12285.81
46.431 -96.758 3.973 10891.31
46.431 -95.454 3.982 11865.14
46.431 -94.149 3.959 10038.40
46.431 -92.844 3.955 10397.59
46.431 -91.539 3.957 8378.35
46.431 -90.234 3.939 7485.25
46.431 -88.929 3.929 6911.70
46.431 -87.624 3.954 4587.41
46.431 -86.320 3.956 4550.53
46.431 -85.015 4.038 4337.78
46.431 -83.710 4.083 3375.54
46.431 -82.405 4.055 3316.26
46.431 -81.100 4.042 3407.34
46.431 -79.795 3.994 3268.81
46.431 -78.490 3.944 2457.99
46.431 -77.185 3.923 2436.12
46.431 -75.881 3.946 2227.67
46.431 -74.576 4.007 1748.23
46.431 -73.271 4.080 1341.95
46.431 -71.966 4.109 727.72
46.431 -70.661 4.085 618.34
46.431 -69.356 4.002 580.38
46.431 -68.051 3.920 334.58
46.431 -66.747 3.891 309.66
46.431 -65.442 3.881 268.71
46.431 -64.137 3.872 397.57
46.431 -62.832 3.851 123.86
47.330 -136.522 3.844 260.70
47.330 -135.195 3.849 404.60
47.330 -133.868 3.872 144.86
47.330 -132.541 3.897 140.87
47.330 -131.214 3.892 159.85
47.330 -129.887 3.835 419.58
47.330 -128.561 3.795 1591.40
47.330 -127.234 3.841 2550.99
47.330 -125.907 3.743 2666.07
47.330 -124.580 3.714 4176.15
47.330 -123.253 3.738 10319.12
47.330 -121.926 3.702 15473.87
47.330 -120.599 3.613 16857.52
47.330 -119.272 3.637 13949.82
47.330 -117.945 3.715 11327.57
47.330 -116.618 3.791 12427.37
47.330 -115.291 3.726 14288.07
47.330 -113.964 3.724 13546.99
47.330 -112.637 3.825 12378.36
47.330 -111.311 3.913 10577.29
47.330 -109.984 3.965 11464.98
47.330 -108.657 4.052 12113.86
47.330 -107.330 4.134 11867.64
47.330 -106.003 4.127 12660.90
47.330 -104.676 3.983 12437.12
47.330 -103.349 3.893 9925.56
47.330 -102.022 3.870 10531.99
47.330 -100.695 3.884 9717.95
47.330 -99.368 3.880 10414.37
47.330 -98.041 3.948 9673.42
47.330 -96.714 4.003 8394.37
47.330 -95.387 4.051 7055.90
47.330 -94.061 4.055 6247.65
47.330 -92.734 4.017 5776.28
47.330 -91.407 4.028 4168.32
47.330 -90.080 4.072 3939.72
47.330 -88.753 4.004 4819.74
47.330 -87.426 3.990 3948.95
47.330 -86.099 3.979 3675.69
47.330 -84.772 4.047 3256.69
47.330 -83.445 4.101 3025.81
47.330 -82.118 4.091 2789.05
47.330 -80.791 4.068 2853.98
47.330 -79.464 4.053 3014.62
47.330 -78.137 4.032 2175.49
47.330 -76.811 3.986 1712.55
47.330 -75.484 3.970 1341.66
47.330 -74.157 3.988 1725.17
47.330 -72.830 4.039 1485.74
47.330 -71.503 4.045 1686.21
47.330 -70.176 3.993 875.42
47.330 -68.849 3.931 214.75
47.330 -67.522 3.880 329.63
47.330 -66.195 3.854 300.83
47.330 -64.868 3.850 174.84
47.330 -63.541 3.839 94.91
47.330 -62.214 3.836 254.70
48.229 -137.170 3.876 374.65
48.229 -135.820 3.878 100.91
48.229 -134.470 3.914 232.76
48.229 -133.120 3.942 349.64
48.229 -131.770 3.902 299.68
48.229 -130.420 3.825 959.00
48.229 -129.070 3.765 1823.55
48.229 -127.720 3.810 2416.82
48.229 -126.370 3.737 2752.33
48.229 -125.020 3.692 6011.02
48.229 -123.670 3.639 14675.44
48.229 -122.320 3.618 14476.89
48.229 -120.969 3.630 13974.63
48.229 -119.619 3.676 9973.14
48.229 -118.269 3.757 9845.41
48.229 -116.919 3.807 11578.47
48.229 -115.569 3.801 11199.09
48.229 -114.219 3.813 10362.70
48.229 -112.869 3.886 9318.65
48.229 -111.519 3.911 7582.71
48.229 -110.169 3.878 8242.90
48.229 -108.819 3.962 9399.96
48.229 -107.469 4.079 10968.43
48.229 -106.119 4.064 7988.57
48.229 -104.769 3.945 12404.53
48.229 -103.418 3.892 9514.60
48.229 -102.068 3.868 9643.11
48.229 -100.718 3.857 9818.87
48.229 -99.368 3.851 9015.32
48.229 -98.018 3.884 6623.26
48.229 -96.668 3.942 5742.70
48.229 -95.318 4.031 4519.52
48.229 -93.968 4.046 3975.58
48.229 -92.618 4.031 3386.05
48.229 -91.268 4.066 3026.45
48.229 -89.918 4.110 2288.74
48.229 -88.568 4.035 2852.02
48.229 -87.217 4.057 2100.61
48.229 -85.867 4.040 1743.54
48.229 -84.517 4.040 1979.75
48.229 -83.167 4.049 1542.29
48.229 -81.817 4.039 1836.18
48.229 -80.467 4.039 1708.04
48.229 -79.117 4.026 1779.54
48.229 -77.767 3.970 1546.13
48.229 -76.417 3.929 1153.54
48.229 -75.067 3.924 885.41
48.229 -73.717 3.946 1118.19
48.229 -72.367 3.974 890.69
48.229 -71.017 3.918 556.16
48.229 -69.666 3.860 135.87
48.229 -68.316 3.842 82.90
48.229 -66.966 3.847 229.73
48.229 -65.616 3.853 182.80
48.229 -64.266 3.849 309.68
48.229 -62.916 3.829 226.76
48.229 -61.566 3.852 228.76
49.129 -137.851 3.958 576.42
49.129 -136.477 3.963 167.83
49.129 -135.103 3.966 302.70
49.129 -133.728 3.949 405.59
49.129 -132.354 3.888 672.32
49.129 -130.979 3.799 1154.77
49.129 -129.605 3.729 1053.62
49.129 -128.231 3.724 2887.01
49.129 -126.856 3.688 4285.58
49.129 -125.482 3.659 13657.62
49.129 -124.107 3.607 16174.13
49.129 -122.733 3.643 12356.18
49.129 -121.359 3.734 11058.65
49.129 -119.984 3.737 10516.25
49.129 -118.610 3.730 8263.93
49.129 -117.235 3.721 8220.84
49.129 -115.861 3.757 6514.55
49.129 -114.487 3.859 6750.04
49.129 -113.112 3.933 7320.64
49.129 -111.738 3.930 6297.88
49.129 -110.363 3.877 6158.56
49.129 -108.989 3.911 6897.87
49.129 -107.615 3.950 6689.81
49.129 -106.240 3.887 7127.02
49.129 -104.866 3.826 9295.19
49.129 -103.491 3.828 11163.59
49.129 -102.117 3.859 8895.52
49.129 -100.743 3.890 8928.91
49.129 -99.368 3.873 7248.52
49.129 -97.994 3.885 6093.21
49.129 -96.619 3.914 4165.14
49.129 -95.245 3.954 3537.89
49.129 -93.871 3.922 1785.37
49.129 -92.496 3.928 1351.09
49.129 -91.122 3.981 1753.26
49.129 -89.747 4.033 2186.79
49.129 -88.373 4.038 2753.94
49.129 -86.999 4.104 2178.37
49.129 -85.624 4.051 2135.40
49.129 -84.250 4.033 1995.21
49.129 -82.875 4.035 1753.42
49.129 -81.501 4.026 1158.76
49.129 -80.127 4.025 1877.07
49.129 -78.752 3.974 1395.58
49.129 -77.378 3.894 484.52
49.129 -76.003 3.879 439.56
49.129 -74.629 3.887 380.60
49.129 -73.255 3.907 686.26
49.129 -71.880 3.882 517.51
49.129 -70.506 3.815 226.76
49.129 -69.131 3.784 300.72
49.129 -67.757 3.791 264.79
49.129 -66.383 3.811 43.95
49.129 -65.008 3.826 120.89
49.129 -63.634 3.826 79.93
49.129 -62.259 3.839 140.84
49.129 -60.885 3.922 466.54
50.028 -138.567 4.057 625.39
50.028 -137.167 4.069 742.59
50.028 -135.767 3.990 574.42
50.028 -134.367 3.897 526.44
50.028 -132.967 3.823 311.70
50.028 -131.567 3.755 937.98
50.028 -130.167 3.693 1110.67
50.028 -128.767 3.656 4076.77
50.028 -127.368 3.649 14919.58
50.028 -125.968 3.651 17520.48
50.028 -124.568 3.667 14820.51
50.028 -123.168 3.658 12364.79
50.028 -121.768 3.689 11056.84
50.028 -120.368 3.646 8598.91
50.028 -118.968 3.605 7080.03
50.028 -117.568 3.593 7985.70
50.028 -116.168 3.707 6302.14
50.028 -114.768 3.880 6975.30
50.028 -113.368 4.012 5914.15
50.028 -111.968 4.025 5206.01
50.028 -110.568 3.947 4477.48
50.028 -109.168 3.920 5702.24
50.028 -107.768 3.884 5734.91
50.028 -106.368 3.784 6705.52
50.028 -104.968 3.761 7227.17
50.028 -103.568 3.806 10910.28
50.028 -102.168 3.871 9021.91
50.028 -100.768 3.962 7700.49
50.028 -99.368 3.966 5619.83
50.028 -97.968 3.913 4105.83
50.028 -96.568 3.902 4888.88
50.028 -95.168 3.888 2332.76
50.028 -93.768 3.880 1467.86
50.028 -92.368 3.901 1388.54
50.028 -90.968 3.933 1765.10
50.028 -89.568 3.970 2071.50
50.028 -88.168 4.011 2282.43
50.028 -86.769 4.041 1361.58
50.028 -85.369 3.996 1405.52
50.028 -83.969 4.007 1629.32
50.028 -82.569 4.040 1427.56
50.028 -81.169 4.044 1609.96
50.028 -79.769 3.988 1159.67
50.028 -78.369 3.926 609.37
50.028 -76.969 3.872 388.19
50.028 -75.569 3.866 388.63
50.028 -74.169 3.868 765.52
50.028 -72.769 3.856 199.78
50.028 -71.369 3.824 335.69
50.028 -69.969 3.780 187.78
50.028 -68.569 3.780 80.92
50.028 -67.169 3.809 258.74
50.028 -65.769 3.824 72.93
50.028 -64.369 3.833 127.88
50.028 -62.969 3.838 163.84
50.028 -61.569 3.872 525.50
50.028 -60.169 3.951 151.86
50.927 -139.320 4.068 913.13
50.927 -137.893 4.056 805.23
50.927 -136.466 3.923 350.64
50.927 -135.040 3.835 2.00
50.927 -133.613 3.785 734.24
50.927 -132.186 3.730 587.37
50.927 -130.759 3.683 1960.21
50.927 -129.332 3.630 19239.28
50.927 -127.905 3.632 24683.92
50.927 -126.478 3.725 16816.76
50.927 -125.052 3.646 14863.73
50.927 -123.625 3.532 11618.31
50.927 -122.198 3.537 9739.28
50.927 -120.771 3.561 8327.23
50.927 -119.344 3.571 7761.26
50.927 -117.917 3.607 7592.77
50.927 -116.490 3.733 5162.75
50.927 -115.064 3.882 5066.49
50.927 -113.637 3.998 4845.24
50.927 -112.210 4.034 4399.65
50.927 -110.783 4.031 4240.67
50.927 -109.356 3.986 3467.04
50.927 -107.929 3.918 6102.23
50.927 -106.502 3.826 6574.73
50.927 -105.076 3.777 8612.19
50.927 -103.649 3.849 10721.02
50.927 -102.222 3.917 10327.57
50.927 -100.795 3.956 6933.07
50.927 -99.368 3.978 4461.12
50.927 -97.941 3.960 3131.94
50.927 -96.514 3.965 2207.77
50.927 -95.088 3.923 1756.81
50.927 -93.661 3.917 1694.94
50.927 -92.234 3.913 1571.97
50.927 -90.807 3.949 2218.30
50.927 -89.380 4.001 1624.53
50.927 -87.953 3.997 1313.74
50.927 -86.526 3.983 1512.40
50.927 -85.100 3.927 1790.11
50.927 -83.673 3.966 1171.84
50.927 -82.246 4.036 1429.52
50.927 -80.819 4.024 1066.86
50.927 -79.392 3.951 573.41
50.927 -77.965 3.919 210.79
50.927 -76.538 3.890 443.58
50.927 -75.112 3.881 537.46
50.927 -73.685 3.851 639.29
50.927 -72.258 3.825 255.74
50.927 -70.831 3.793 285.71
50.927 -69.404 3.789 131.87
50.927 -67.977 3.822 249.76
50.927 -66.550 3.857 198.80
50.927 -65.124 3.881 259.76
50.927 -63.697 3.892 306.71
50.927 -62.270 3.898 479.53
50.927 -60.843 3.917 311.71
50.927 -59.416 3.956 651.39
51.827 -140.113 3.998 1059.01
51.827 -138.658 3.975 218.79
51.827 -137.203 3.855 21.97
51.827 -135.747 3.802 155.82
51.827 -134.292 3.778 959.02
51.827 -132.837 3.704 518.47
51.827 -131.382 3.635 28448.42
51.827 -129.927 3.611 39152.32
51.827 -128.472 3.613 18693.62
51.827 -127.016 3.593 13681.88
51.827 -125.561 3.504 10949.50
51.827 -124.106 3.435 9955.87
51.827 -122.651 3.509 7372.51
51.827 -121.196 3.629 5457.73
51.827 -119.741 3.701 4354.13
51.827 -118.285 3.781 4580.25
51.827 -116.830 3.847 3390.24
51.827 -115.375 3.921 3443.50
51.827 -113.920 4.011 3510.56
51.827 -112.465 4.073 3433.37
51.827 -111.010 4.076 4137.92
51.827 -109.554 4.045 4957.31
51.827 -108.099 3.933 6278.91
51.827 -106.644 3.880 8853.76
51.827 -105.189 3.857 9136.58
51.827 -103.734 3.893 9837.97
51.827 -102.279 3.957 10530.89
51.827 -100.823 3.969 6498.64
51.827 -99.368 3.996 3861.65
51.827 -97.913 3.982 2335.37
51.827 -96.458 3.934 1518.11
51.827 -95.003 3.946 1880.10
51.827 -93.548 3.952 1669.27
51.827 -92.092 3.970 1736.21
51.827 -90.637 4.016 2000.03
51.827 -89.182 4.030 1478.41
51.827 -87.727 3.979 1613.29
51.827 -86.272 3.940 1553.36
51.827 -84.817 3.906 1331.64
51.827 -83.361 3.975 1403.57
51.827 -81.906 4.029 1120.15
51.827 -80.451 4.008 727.20
51.827 -78.996 3.960 733.29
51.827 -77.541 3.936 390.62
51.827 -76.085 3.931 582.44
51.827 -74.630 3.905 597.39
51.827 -73.175 3.868 667.28
51.827 -71.720 3.836 385.64
51.827 -70.265 3.819 288.71
51.827 -68.810 3.854 223.80
51.827 -67.354 3.909 200.79
51.827 -65.899 3.935 194.82
51.827 -64.444 3.946 637.41
51.827 -62.989 3.934 673.35
51.827 -61.534 3.921 509.52
51.827 -60.079 3.905 615.43
51.827 -58.623 3.907 361.66
52.726 -140.948 3.936 432.60
52.726 -139.463 3.900 91.89
52.726 -137.978 3.818 135.84
52.726 -136.493 3.801 702.30
52.726 -135.008 3.752 733.29
52.726 -133.523 3.649 582.42
52.726 -132.038 3.534 3168.81
52.726 -130.553 3.516 7473.77
52.726 -129.068 3.625 6744.23
52.726 -127.583 3.685 5938.79
52.726 -126.098 3.620 5806.36
52.726 -124.613 3.542 6414.82
52.726 -123.128 3.637 4913.59
52.726 -121.643 3.768 4481.09
52.726 -120.158 3.870 3734.50
52.726 -118.673 3.961 4327.18
52.726 -117.188 3.997 3955.01
52.726 -115.703 4.018 4092.14
52.726 -114.218 4.027 2912.75
52.726 -112.733 4.022 4335.71
52.726 -111.248 4.035 4859.02
52.726 -109.763 4.001 5307.24
52.726 -108.278 3.932 6679.68
52.726 -106.793 3.925 8912.26
52.726 -105.308 3.949 9804.38
52.726 -103.823 3.945 9680.63
52.726 -102.338 3.969 9223.65
52.726 -100.853 3.942 7559.09
52.726 -99.368 4.028 3101.82
52.726 -97.883 4.009 1588.41
52.726 -96.398 3.954 1435.56
52.726 -94.913 3.922 1515.42
52.726 -93.428 3.933 1362.57
52.726 -91.943 4.028 1479.45
52.726 -90.458 4.058 1779.07
52.726 -88.973 4.029 1562.30
52.726 -87.488 3.960 1677.32
52.726 -86.003 3.950 1289.68
52.726 -84.518 3.929 1453.46
52.726 -83.033 3.979 592.41
52.726 -81.548 4.036 572.37
52.726 -80.063 4.029 612.32
52.726 -78.578 3.992 826.38
52.726 -77.093 3.971 689.32
52.726 -75.608 3.955 652.37
52.726 -74.123 3.935 915.03
52.726 -72.638 3.913 725.31
52.726 -71.153 3.897 578.45
52.726 -69.668 3.911 391.62
52.726 -68.183 3.956 563.48
52.726 -66.698 3.975 534.49
52.726 -65.213 3.960 826.23
52.726 -63.728 3.922 533.50
52.726 -62.243 3.891 463.55
52.726 -60.758 3.876 396.63
52.726 -59.273 3.872 36.97
52.726 -57.788 3.881 332.70
53.625 -141.829 3.879 586.42
53.625 -140.313 3.855 174.83
53.625 -138.796 3.816 382.65
53.625 -137.280 3.817 780.21
53.625 -135.763 3.758 184.80
53.625 -134.247 3.698 475.52
53.625 -132.730 3.679 673.16
53.625 -131.214 3.747 2521.18
53.625 -129.697 3.832 3036.86
53.625 -128.181 3.777 2868.34
53.625 -126.665 3.685 2928.24
53.625 -125.148 3.588 3692.48
53.625 -123.632 3.665 2668.53
53.625 -122.115 3.789 2749.36
53.625 -120.599 3.869 2468.86
53.625 -119.082 3.946 2886.65
53.625 -117.566 4.005 3789.07
53.625 -116.049 4.043 2929.47
53.625 -114.533 4.016 3193.25
53.625 -113.016 3.973 4269.33
53.625 -111.500 3.947 5138.37
53.625 -109.983 3.872 6080.89
53.625 -108.467 3.899 7692.91
53.625 -106.951 3.973 9513.00
53.625 -105.434 4.030 9940.71
53.625 -103.918 3.985 7850.91
53.625 -102.401 3.930 7193.58
53.625 -100.885 3.947 7280.62
53.625 -99.368 4.053 3080.78
53.625 -97.852 4.043 1757.15
53.625 -96.335 3.954 1167.75
53.625 -94.819 3.888 1265.68
53.625 -93.302 3.962 1268.64
53.625 -91.786 4.071 1424.52
53.625 -90.269 4.041 1409.53
53.625 -88.753 4.015 1478.48
53.625 -87.237 3.963 1527.52
53.625 -85.720 3.947 1332.61
53.625 -84.204 3.914 842.15
53.625 -82.687 3.980 509.50
53.625 -81.171 4.062 797.12
53.625 -79.654 4.038 581.33
53.625 -78.138 3.999 572.42
53.625 -76.621 3.944 640.57
53.625 -75.105 3.924 969.05
53.625 -73.588 3.915 1390.05
53.625 -72.072 3.916 762.26
53.625 -70.555 3.931 595.42
53.625 -69.039 3.971 431.58
53.625 -67.523 3.996 942.10
53.625 -66.006 3.961 681.37
53.625 -64.490 3.909 441.59
53.625 -62.973 3.864 326.67
53.625 -61.457 3.846 236.78
53.625 -59.940 3.844 110.90
53.625 -58.424 3.857 435.59
53.625 -56.907 3.861 265.72
54.525 -142.759 3.847 258.74
54.525 -141.209 3.838 317.70
54.525 -139.660 3.821 452.53
54.525 -138.110 3.785 317.70
54.525 -136.560 3.739 217.74
54.525 -135.011 3.752 500.55
54.525 -133.461 3.813 653.31
54.525 -131.911 3.929 2349.90
54.525 -130.362 3.979 2844.61
54.525 -128.812 3.799 2639.05
54.525 -127.262 3.677 2604.18
54.525 -125.713 3.634 3077.91
54.525 -124.163 3.717 2252.08
54.525 -122.613 3.857 2007.49
54.525 -121.064 3.915 2001.07
54.525 -119.514 3.950 2211.82
54.525 -117.964 4.011 2577.46
54.525 -116.415 4.050 2943.93
54.525 -114.865 3.988 3250.66
54.525 -113.315 3.961 3762.18
54.525 -111.766 3.947 5353.47
54.525 -110.216 3.873 7247.49
54.525 -108.666 3.888 8690.80
54.525 -107.117 4.000 10360.21
54.525 -105.567 4.019 8589.09
54.525 -104.017 3.957 5513.27
54.525 -102.468 3.914 5766.53
54.525 -100.918 3.942 5472.10
54.525 -99.368 4.024 4073.98
54.525 -97.819 4.025 1800.07
54.525 -96.269 3.955 1307.60
54.525 -94.719 3.932 1566.37
54.525 -93.170 3.997 1184.76
54.525 -91.620 4.052 1070.89
54.525 -90.070 4.018 1983.91
54.525 -88.520 4.016 1381.62
54.525 -86.971 3.967 1294.71
54.525 -85.421 3.946 618.24
54.525 -83.871 3.931 694.28
54.525 -82.322 4.008 447.54
54.525 -80.772 4.064 639.30
54.525 -79.222 4.001 663.32
54.525 -77.673 3.939 304.70
54.525 -76.123 3.893 626.38
54.525 -74.573 3.885 748.21
54.525 -73.024 3.889 804.12
54.525 -71.474 3.914 672.30
54.525 -69.924 3.949 665.18
54.525 -68.375 3.992 1222.68
54.525 -66.825 3.975 620.32
54.525 -65.275 3.914 250.77
54.525 -63.726 3.848 229.77
54.525 -62.176 3.815 121.87
54.525 -60.626 3.824 124.86
54.525 -59.077 3.852 416.58
54.525 -57.527 3.866 186.80
54.525 -55.977 3.856 112.89
55.424 -143.742 3.819 495.54
55.424 -142.157 3.817 39.96
55.424 -140.572 3.813 564.41
55.424 -138.988 3.751 226.78
55.424 -137.403 3.728 147.83
55.424 -135.818 3.781 761.31
55.424 -134.233 3.852 600.42
55.424 -132.648 3.955 2582.89
55.424 -131.064 3.915 2384.07
55.424 -129.479 3.730 2369.17
55.424 -127.894 3.618 2100.82
55.424 -126.309 3.625 2784.15
55.424 -124.725 3.725 2452.47
55.424 -123.140 3.857 1824.14
55.424 -121.555 3.901 2212.89
55.424 -119.970 3.954 2777.36
55.424 -118.385 3.996 2847.08
55.424 -116.801 4.001 2975.94
55.424 -115.216 3.939 3877.94
55.424 -113.631 3.969 3934.01
55.424 -112.046 3.980 5913.95
55.424 -110.462 3.960 8756.85
55.424 -108.877 3.945 10863.66
55.424 -107.292 3.970 8251.41
55.424 -105.707 3.998 7256.47
55.424 -104.123 3.951 4191.72
55.424 -102.538 3.915 3346.52
55.424 -100.953 3.918 4125.77
55.424 -99.368 3.934 6413.45
55.424 -97.783 3.962 2076.73
55.424 -96.199 3.980 1648.37
55.424 -94.614 3.987 1016.97
55.424 -93.029 4.002 1245.69
55.424 -91.444 4.014 900.11
55.424 -89.860 3.975 2230.67
55.424 -88.275 3.984 749.21
55.424 -86.690 3.962 924.10
55.424 -85.105 3.969 902.03
55.424 -83.520 3.990 800.15
55.424 -81.936 4.064 513.46
55.424 -80.351 4.057 788.12
55.424 -78.766 3.946 569.41
55.424 -77.181 3.868 309.69
55.424 -75.597 3.838 415.59
55.424 -74.012 3.839 776.13
55.424 -72.427 3.848 400.57
55.424 -70.842 3.854 420.52
55.424 -69.257 3.874 412.57
55.424 -67.673 3.886 644.36
55.424 -66.088 3.855 466.55
55.424 -64.503 3.812 405.39
55.424 -62.918 3.775 224.74
55.424 -61.334 3.780 142.44
55.424 -59.749 3.821 248.76
55.424 -58.164 3.860 117.89
55.424 -56.579 3.863 348.67
55.424 -54.995 3.830 293.73
56.324 -144.782 3.804 49.95
56.324 -143.160 3.809 453.52
56.324 -141.538 3.793 169.82
56.324 -139.916 3.744 255.75
56.324 -138.294 3.752 287.70
56.324 -136.672 3.804 896.15
56.324 -135.050 3.850 871.13
56.324 -133.428 3.897 1776.76
56.324 -131.806 3.837 2366.41
56.324 -130.184 3.711 2204.15
56.324 -128.563 3.638 1748.06
56.324 -126.941 3.643 1760.52
56.324 -125.319 3.723 2874.43
56.324 -123.697 3.824 2285.80
56.324 -122.075 3.869 2168.52
56.324 -120.453 3.968 2448.56
56.324 -118.831 3.986 3156.71
56.324 -117.209 3.909 2672.32
56.324 -115.587 3.876 4187.68
56.324 -113.965 3.962 5963.82
56.324 -112.343 4.030 8484.21
56.324 -110.722 4.050 10968.46
56.324 -109.100 4.025 9542.19
56.324 -107.478 3.981 7154.59
56.324 -105.856 3.960 3885.07
56.324 -104.234 4.003 4645.14
56.324 -102.612 3.979 3186.66
56.324 -100.990 3.876 4275.54
56.324 -99.368 3.820 5463.08
56.324 -97.746 3.915 4113.30
56.324 -96.124 4.010 1040.96
56.324 -94.502 4.057 1016.96
56.324 -92.881 4.051 1695.27
56.324 -91.259 4.007 1298.69
56.324 -89.637 3.944 1264.62
56.324 -88.015 3.959 396.61
56.324 -86.393 3.935 888.11
56.324 -84.771 3.942 620.32
56.324 -83.149 3.999 550.44
56.324 -81.527 4.041 648.34
56.324 -79.905 3.982 612.61
56.324 -78.283 3.872 410.60
56.324 -76.661 3.808 202.80
56.324 -75.040 3.799 443.66
56.324 -73.418 3.803 833.06
56.324 -71.796 3.805 416.57
56.324 -70.174 3.796 379.59
56.324 -68.552 3.804 355.62
56.324 -66.930 3.791 545.44
56.324 -65.308 3.771 328.70
56.324 -63.686 3.742 258.75
56.324 -62.064 3.736 110.91
56.324 -60.442 3.748 93.92
56.324 -58.820 3.785 74.93
56.324 -57.199 3.827 371.88
56.324 -55.577 3.819 61.94
56.324 -53.955 3.799 0.00
57.223 -145.883 3.809 144.85
57.223 -144.222 3.813 501.47
57.223 -142.561 3.779 0.00
57.223 -140.899 3.757 363.65
57.223 -139.238 3.779 562.42
57.223 -137.577 3.811 858.17
57.223 -135.916 3.821 1070.23
57.223 -134.254 3.844 1626.14
57.223 -132.593 3.829 1745.86
57.223 -130.932 3.761 1835.12
57.223 -129.271 3.680 1815.55
57.223 -127.609 3.672 1614.43
57.223 -125.948 3.713 3209.60
57.223 -124.287 3.816 2919.54
57.223 -122.626 3.884 2156.73
57.223 -120.964 4.022 1786.18
57.223 -119.303 3.990 2456.46
57.223 -117.642 3.872 3306.68
57.223 -115.981 3.864 5178.74
57.223 -114.319 3.952 8647.99
57.223 -112.658 4.080 11726.74
57.223 -110.997 4.124 11192.46
57.223 -109.336 4.054 7952.78
57.223 -107.674 3.961 4430.55
57.223 -106.013 3.958 3277.52
57.223 -104.352 4.063 4545.23
57.223 -102.691 4.052 3858.96
57.223 -101.029 3.867 3339.48
57.223 -99.368 3.768 4145.74
57.223 -97.707 3.867 5345.76
57.223 -96.046 4.016 2087.87
57.223 -94.384 4.116 1419.57
57.223 -92.723 4.099 1501.49
57.223 -91.062 4.044 687.28
57.223 -89.401 3.995 1275.63
57.223 -87.739 3.982 438.53
57.223 -86.078 3.942 689.31
57.223 -84.417 3.936 873.06
57.223 -82.756 3.962 582.37
57.223 -81.094 3.947 472.51
57.223 -79.433 3.887 396.55
57.223 -77.772 3.824 396.59
57.223 -76.111 3.785 257.74
57.223 -74.449 3.786 501.47
57.223 -72.788 3.794 534.45
57.223 -71.127 3.792 289.72
57.223 -69.466 3.790 15.98
57.223 -67.805 3.789 383.63
57.223 -66.143 3.775 300.71
57.223 -64.482 3.752 183.80
57.223 -62.821 3.733 153.84
57.223 -61.160 3.726 145.87
57.223 -59.498 3.727 249.78
57.223 -57.837 3.750 83.93
57.223 -56.176 3.772 67.94
57.223 -54.515 3.773 89.25
57.223 -52.853 3.777 9.99
58.122 -147.051 3.827 590.38
58.122 -145.348 3.814 84.91
58.122 -143.645 3.782 107.90
58.122 -141.942 3.779 645.35
58.122 -140.239 3.796 526.50
58.122 -138.537 3.812 997.98
58.122 -136.834 3.816 927.05
58.122 -135.131 3.868 1650.43
58.122 -133.428 3.928 2268.59
58.122 -131.725 3.830 1828.63
58.122 -130.022 3.736 2358.79
58.122 -128.319 3.732 2038.72
58.122 -126.616 3.775 3025.96
58.122 -124.913 3.835 2219.76
58.122 -123.210 3.904 2186.40
58.122 -121.507 4.098 2263.72
58.122 -119.804 4.027 2211.77
58.122 -118.101 3.887 3873.03
58.122 -116.398 3.884 6938.87
58.122 -114.695 3.969 12563.95
58.122 -112.992 4.069 13692.73
58.122 -111.289 4.090 9093.67
58.122 -109.586 4.012 4704.23
58.122 -107.883 3.947 3424.52
58.122 -106.180 3.970 3384.46
58.122 -104.477 4.021 3228.61
58.122 -102.774 4.028 4421.36
58.122 -101.071 3.942 3681.18
58.122 -99.368 3.846 3959.84
58.122 -97.665 3.849 5834.21
58.122 -95.962 3.949 3067.00
58.122 -94.259 4.073 1672.35
58.122 -92.556 4.117 1041.95
58.122 -90.853 4.101 891.04
58.122 -89.150 4.071 1115.78
58.122 -87.447 4.048 649.29
58.122 -85.744 3.986 969.02
58.122 -84.041 3.907 747.21
58.122 -82.339 3.898 303.66
58.122 -80.636 3.870 308.69
58.122 -78.933 3.831 425.55
58.122 -77.230 3.807 198.80
58.122 -75.527 3.788 464.54
58.122 -73.824 3.785 795.15
58.122 -72.121 3.787 200.81
58.122 -70.418 3.786 99.89
58.122 -68.715 3.795 138.85
58.122 -67.012 3.788 329.69
58.122 -65.309 3.782 144.86
58.122 -63.606 3.757 176.82
58.122 -61.903 3.743 87.90
58.122 -60.200 3.735 203.81
58.122 -58.497 3.739 77.93
58.122 -56.794 3.744 149.87
58.122 -55.091 3.748 98.92
58.122 -53.388 3.747 99.92
58.122 -51.685 3.767 151.85
59.022 -148.292 3.831 749.20
59.022 -146.545 3.814 86.37
59.022 -144.798 3.788 615.39
59.022 -143.050 3.798 321.66
59.022 -141.303 3.817 960.03
59.022 -139.556 3.797 718.27
59.022 -137.808 3.816 1298.65
59.022 -136.061 3.913 2645.44
59.022 -134.314 3.971 4468.22
59.022 -132.567 3.879 2266.46
59.022 -130.819 3.778 1551.45
59.022 -129.072 3.797 1416.52
59.022 -127.325 3.831 2988.99
59.022 -125.577 3.869 2772.22
59.022 -123.830 3.931 1778.44
59.022 -122.083 4.111 1993.04
59.022 -120.336 4.021 2634.31
59.022 -118.588 3.898 5520.31
59.022 -116.841 3.915 12233.29
59.022 -115.094 3.955 15685.75
59.022 -113.346 3.976 11450.07
59.022 -111.599 3.991 5322.66
59.022 -109.852 3.970 3081.90
59.022 -108.105 3.960 2530.36
59.022 -106.357 3.971 2762.13
59.022 -104.610 3.941 2640.23
59.022 -102.863 3.960 4184.70
59.022 -101.115 4.032 3878.98
59.022 -99.368 3.975 4520.29
59.022 -97.621 3.876 4174.66
59.022 -95.874 3.884 5103.38
59.022 -94.126 3.953 1019.07
59.022 -92.379 4.056 638.33
59.022 -90.632 4.106 1340.55
59.022 -88.884 4.126 732.26
59.022 -87.137 4.104 704.31
59.022 -85.390 3.993 817.16
59.022 -83.643 3.890 704.23
59.022 -81.895 3.866 216.76
59.022 -80.148 3.842 384.61
59.022 -78.401 3.815 552.43
59.022 -76.654 3.803 260.74
59.022 -74.906 3.790 396.60
59.022 -73.159 3.778 621.33
59.022 -71.412 3.779 250.76
59.022 -69.664 3.784 38.96
59.022 -67.917 3.791 369.64
59.022 -66.170 3.792 214.79
59.022 -64.423 3.777 104.89
59.022 -62.675 3.762 11.99
59.022 -60.928 3.751 117.90
59.022 -59.181 3.750 124.88
59.022 -57.433 3.753 103.89
59.022 -55.686 3.753 85.92
59.022 -53.939 3.754 76.93
59.022 -52.192 3.755 100.91
59.022 -50.444 3.771 81.93
59.921 -149.612 3.801 729.69
59.921 -147.818 3.788 230.76
59.921 -146.023 3.773 508.47
59.921 -144.229 3.801 590.35
59.921 -142.434 3.792 965.09
59.921 -140.640 3.744 380.82
59.921 -138.845 3.764 1145.63
59.921 -137.051 3.849 1235.90
59.921 -135.257 3.902 2634.63
59.921 -133.462 3.833 2395.58
59.921 -131.668 3.767 1438.33
59.921 -129.873 3.809 1415.53
59.921 -128.079 3.856 1928.06
59.921 -126.284 3.895 3512.43
59.921 -124.490 3.923 1944.93
59.921 -122.696 4.017 2000.00
59.921 -120.901 3.928 3595.44
59.921 -119.107 3.904 9996.67
59.921 -117.312 3.932 17341.96
59.921 -115.518 3.902 12346.32
59.921 -113.724 3.872 5175.79
59.921 -111.929 3.925 4115.67
59.921 -110.135 3.957 2754.15
59.921 -108.340 3.965 2503.37
59.921 -106.546 3.946 2616.37
59.921 -104.751 3.927 3349.51
59.921 -102.957 3.957 3897.99
59.921 -101.163 4.036 4454.36
59.921 -99.368 4.058 3831.01
59.921 -97.574 3.944 4093.70
59.921 -95.779 3.894 4593.55
59.921 -93.985 3.906 1540.91
59.921 -92.191 4.001 544.43
59.921 -90.396 4.069 963.94
59.921 -88.602 4.118 879.13
59.921 -86.807 4.083 733.25
59.921 -85.013 3.996 844.15
59.921 -83.218 3.911 674.27
59.921 -81.424 3.893 424.53
59.921 -79.630 3.859 601.38
59.921 -77.835 3.819 439.55
59.921 -76.041 3.788 210.79
59.921 -74.246 3.771 655.30
59.921 -72.452 3.771 408.59
59.921 -70.657 3.777 125.87
59.921 -68.863 3.793 172.82
59.921 -67.069 3.790 344.67
59.921 -65.274 3.785 120.88
59.921 -63.480 3.769 64.93
59.921 -61.685 3.760 35.97
59.921 -59.891 3.759 65.95
59.921 -58.097 3.764 14.99
59.921 -56.302 3.764 75.93
59.921 -54.508 3.759 92.90
59.921 -52.713 3.758 112.88
59.921 -50.919 3.768 80.92
59.921 -49.124 3.787 259.84
60.820 -151.018 3.770 331.66
60.820 -149.173 3.759 558.59
60.820 -147.329 3.750 531.48
60.820 -145.484 3.758 898.90
60.820 -143.639 3.717 759.89
60.820 -141.795 3.676 759.15
60.820 -139.950 3.711 733.24
60.820 -138.106 3.772 598.86
60.820 -136.261 3.846 1265.45
60.820 -134.416 3.819 1275.54
60.820 -132.572 3.767 837.66
60.820 -130.727 3.809 671.72
60.820 -128.882 3.858 881.08
60.820 -127.038 3.891 3344.71
60.820 -125.193 3.884 1997.87
60.820 -123.348 3.902 2274.72
60.820 -121.504 3.845 7116.73
60.820 -119.659 3.900 20509.66
60.820 -117.815 3.911 14731.80
60.820 -115.970 3.856 4939.98
60.820 -114.125 3.862 3552.33
60.820 -112.281 3.881 3569.22
60.820 -110.436 3.949 3400.37
60.820 -108.591 3.976 2967.02
60.820 -106.747 3.947 3115.80
60.820 -104.902 3.953 2852.13
60.820 -103.057 3.990 2748.13
60.820 -101.213 4.027 4496.43
60.820 -99.368 4.053 3084.81
60.820 -97.524 4.024 4128.67
60.820 -95.679 3.962 3702.12
60.820 -93.834 3.947 4176.40
60.820 -91.990 3.992 574.38
60.820 -90.145 4.004 965.95
60.820 -88.300 4.014 509.48
60.820 -86.456 4.010 802.17
60.820 -84.611 3.994 1370.59
60.820 -82.766 3.945 1047.90
60.820 -80.922 3.935 271.71
60.820 -79.077 3.890 768.10
60.820 -77.233 3.833 354.64
60.820 -75.388 3.774 394.61
60.820 -73.543 3.755 705.23
60.820 -71.699 3.764 243.77
60.820 -69.854 3.782 56.94
60.820 -68.009 3.794 426.59
60.820 -66.165 3.793 175.83
60.820 -64.320 3.774 100.89
60.820 -62.475 3.762 6.99
60.820 -60.631 3.759 94.92
60.820 -58.786 3.768 0.00
60.820 -56.942 3.773 0.00
60.820 -55.097 3.772 0.00
60.820 -53.252 3.765 54.95
60.820 -51.408 3.759 94.90
60.820 -49.563 3.762 111.88
60.820 -47.718 3.772 199.78
61.720 -152.518 3.769 380.58
61.720 -150.620 3.770 39.96
61.720 -148.722 3.753 930.21
61.720 -146.824 3.718 1027.09
61.720 -144.926 3.664 1066.69
61.720 -143.027 3.637 1026.03
61.720 -141.129 3.675 440.58
61.720 -139.231 3.713 438.02
61.720 -137.333 3.785 953.04
61.720 -135.434 3.791 1020.47
61.720 -133.536 3.777 587.94
61.720 -131.638 3.810 1040.80
61.720 -129.740 3.836 738.26
61.720 -127.842 3.871 3178.88
61.720 -125.943 3.865 2279.64
61.720 -124.045 3.840 4184.84
61.720 -122.147 3.848 23700.45
61.720 -120.249 3.883 18182.35
61.720 -118.350 3.863 4497.43
61.720 -116.452 3.851 2813.04
61.720 -114.554 3.847 2871.01
61.720 -112.656 3.957 3864.01
61.720 -110.758 4.006 3809.09
61.720 -108.859 3.953 2970.91
61.720 -106.961 3.947 2403.56
61.720 -105.063 3.963 2570.72
61.720 -103.165 3.982 2524.43
61.720 -101.266 4.021 2825.17
61.720 -99.368 4.057 4054.80
61.720 -97.470 4.078 3576.31
61.720 -95.572 4.078 3844.96
61.720 -93.674 4.056 3644.10
61.720 -91.775 3.972 1798.45
61.720 -89.877 3.945 976.94
61.720 -87.979 3.953 541.43
61.720 -86.081 3.957 610.37
61.720 -84.182 3.953 818.15
61.720 -82.284 3.935 944.01
61.720 -80.386 3.960 590.40
61.720 -78.488 3.920 774.21
61.720 -76.590 3.862 317.68
61.720 -74.691 3.805 479.51
61.720 -72.793 3.777 657.31
61.720 -70.895 3.779 187.81
61.720 -68.997 3.791 246.75
61.720 -67.098 3.786 313.70
61.720 -65.200 3.778 130.87
61.720 -63.302 3.765 13.99
61.720 -61.404 3.757 101.92
61.720 -59.505 3.765 0.00
61.720 -57.607 3.773 0.00
61.720 -55.709 3.775 0.00
61.720 -53.811 3.775 0.00
61.720 -51.913 3.772 0.00
61.720 -50.014 3.767 123.86
61.720 -48.116 3.762 224.75
61.720 -46.218 3.761 178.80
62.619 -154.123 3.758 288.70
62.619 -152.167 3.767 248.53
62.619 -150.212 3.768 404.59
62.619 -148.256 3.738 693.98
62.619 -146.301 3.678 1099.70
62.619 -144.345 3.643 1061.61
62.619 -142.390 3.644 1128.14
62.619 -140.434 3.661 762.36
62.619 -138.479 3.717 1510.26
62.619 -136.523 3.737 781.65
62.619 -134.567 3.755 617.76
62.619 -132.612 3.785 970.15
62.619 -130.656 3.793 1084.17
62.619 -128.701 3.852 3320.75
62.619 -126.745 3.854 2286.61
62.619 -124.790 3.817 25833.53
62.619 -122.834 3.932 24157.07
62.619 -120.879 3.928 4572.28
62.619 -118.923 3.850 2911.01
62.619 -116.968 3.823 2764.21
62.619 -115.012 3.914 2998.29
62.619 -113.057 3.994 3121.76
62.619 -111.101 4.017 3707.15
62.619 -109.146 3.986 2975.87
62.619 -107.190 3.956 2144.89
62.619 -105.235 3.958 1934.14
62.619 -103.279 3.969 1722.26
62.619 -101.324 3.988 2038.91
62.619 -99.368 4.055 4157.76
62.619 -97.413 4.129 3386.55
62.619 -95.457 4.120 4370.46
62.619 -93.502 4.093 3185.66
62.619 -91.546 3.955 4335.06
62.619 -89.591 3.911 741.24
62.619 -87.635 3.937 362.63
62.619 -85.680 3.949 570.38
62.619 -83.724 3.918 890.07
62.619 -81.769 3.881 825.10
62.619 -79.813 3.917 149.82
62.619 -77.858 3.923 845.54
62.619 -75.902 3.905 502.48
62.619 -73.946 3.872 992.95
62.619 -71.991 3.849 314.69
62.619 -70.035 3.835 93.90
62.619 -68.080 3.808 435.58
62.619 -66.124 3.784 180.82
62.619 -64.169 3.766 61.94
62.619 -62.213 3.758 80.93
62.619 -60.258 3.763 20.98
62.619 -58.302 3.771 0.00
62.619 -56.347 3.775 0.00
62.619 -54.391 3.774 124.14
62.619 -52.436 3.773 126.85
62.619 -50.480 3.774 133.84
62.619 -48.525 3.774 33.96
62.619 -46.569 3.769 0.00
62.619 -44.614 3.758 51.95
63.518 -155.841 3.733 295.68
63.518 -153.824 3.740 300.67
63.518 -151.807 3.762 476.89
63.518 -149.790 3.741 799.69
63.518 -147.773 3.716 1068.64
63.518 -145.757 3.711 1494.17
63.518 -143.740 3.696 1070.64
63.518 -141.723 3.706 673.46
63.518 -139.706 3.735 1582.01
63.518 -137.689 3.726 1636.61
63.518 -135.672 3.705 1252.50
63.518 -133.655 3.725 1670.05
63.518 -131.638 3.740 1947.01
63.518 -129.622 3.825 2816.45
63.518 -127.605 3.891 4425.73
63.518 -125.588 3.926 26987.34
63.518 -123.571 3.954 4391.54
63.518 -121.554 3.905 2736.24
63.518 -119.537 3.840 2281.79
63.518 -117.520 3.904 2567.41
63.518 -115.503 3.999 2337.55
63.518 -113.486 4.056 2073.93
63.518 -111.470 4.048 2443.60
63.518 -109.453 3.981 2123.93
63.518 -107.436 3.949 2255.66
63.518 -105.419 3.961 1472.54
63.518 -103.402 3.983 1662.32
63.518 -101.385 4.002 1938.96
63.518 -99.368 4.031 2815.14
63.518 -97.351 4.051 4026.82
63.518 -95.334 4.040 4026.87
63.518 -93.318 4.023 3686.20
63.518 -91.301 3.951 3790.80
63.518 -89.284 3.918 2568.02
63.518 -87.267 3.958 503.48
63.518 -85.250 3.959 643.32
63.518 -83.233 3.890 820.18
63.518 -81.216 3.840 815.14
63.518 -79.199 3.885 324.65
63.518 -77.182 3.897 757.20
63.518 -75.166 3.888 600.39
63.518 -73.149 3.903 1047.87
63.518 -71.132 3.918 794.19
63.518 -69.115 3.897 718.20
63.518 -67.098 3.824 290.72
63.518 -65.081 3.776 103.89
63.518 -63.064 3.759 54.96
63.518 -61.047 3.760 47.96
63.518 -59.030 3.769 0.00
63.518 -57.014 3.775 0.00
63.518 -54.997 3.775 0.00
63.518 -52.980 3.774 0.00
63.518 -50.963 3.774 0.00
63.518 -48.946 3.775 0.00
63.518 -46.929 3.773 0.00
63.518 -44.912 3.766 0.00
63.518 -42.895 3.756 15.98
64.418 -157.686 3.731 352.61
64.418 -155.603 3.738 107.88
64.418 -153.520 3.752 153.84
64.418 -151.437 3.747 414.67
64.418 -149.355 3.743 426.60
64.418 -147.272 3.755 1138.93
64.418 -145.189 3.769 587.02
64.418 -143.106 3.790 384.64
64.418 -141.023 3.822 1175.33
64.418 -138.941 3.792 715.65
64.418 -136.858 3.747 663.87
64.418 -134.775 3.759 1155.66
64.418 -132.692 3.779 1130.77
64.418 -130.610 3.898 2368.28
64.418 -128.527 4.013 6814.05
64.418 -126.444 4.022 4365.31
64.418 -124.361 3.989 3102.60
64.418 -122.279 3.944 3192.69
64.418 -120.196 3.942 2495.47
64.418 -118.113 3.947 1212.77
64.418 -116.030 4.005 1110.47
64.418 -113.948 4.074 873.18
64.418 -111.865 4.062 1509.56
64.418 -109.782 3.966 2187.89
64.418 -107.699 3.934 1791.12
64.418 -105.616 3.960 1874.02
64.418 -103.534 4.008 1730.30
64.418 -101.451 3.991 1708.24
64.418 -99.368 3.943 1735.17
64.418 -97.285 3.913 4014.86
64.418 -95.203 3.914 3669.51
64.418 -93.120 3.925 4127.69
64.418 -91.037 3.953 1901.01
64.418 -88.954 3.938 5311.01
64.418 -86.872 3.969 471.52
64.418 -84.789 3.954 730.22
64.418 -82.706 3.871 797.20
64.418 -80.623 3.820 813.14
64.418 -78.541 3.851 397.57
64.418 -76.458 3.845 545.45
64.418 -74.375 3.831 864.12
64.418 -72.292 3.848 773.23
64.418 -70.210 3.873 273.73
64.418 -68.127 3.855 562.46
64.418 -66.044 3.801 202.15
64.418 -63.961 3.765 37.97
64.418 -61.878 3.757 72.94
64.418 -59.796 3.766 0.00
64.418 -57.713 3.773 0.00
64.418 -55.630 3.775 0.00
64.418 -53.547 3.774 0.00
64.418 -51.465 3.774 0.00
64.418 -49.382 3.774 0.00
64.418 -47.299 3.773 0.00
64.418 -45.216 3.767 0.00
64.418 -43.134 3.753 229.87
64.418 -41.051 3.750 143.83
65.317 -159.670 3.751 0.00
65.317 -157.516 3.755 45.96
65.317 -155.363 3.756 107.89
65.317 -153.209 3.751 119.87
65.317 -151.055 3.750 274.72
65.317 -148.902 3.759 470.13
65.317 -146.748 3.775 502.30
65.317 -144.595 3.816 525.31
65.317 -142.441 3.860 556.51
65.317 -140.287 3.828 226.81
65.317 -138.134 3.794 549.44
65.317 -135.980 3.826 526.66
65.317 -133.826 3.851 591.94
65.317 -131.673 3.943 1725.43
65.317 -129.519 4.050 2954.77
65.317 -127.365 4.001 1294.01
65.317 -125.212 3.941 1114.62
65.317 -123.058 3.920 845.64
65.317 -120.905 3.895 1464.65
65.317 -118.751 3.925 1594.54
65.317 -116.597 3.984 1094.03
65.317 -114.444 4.041 935.19
65.317 -112.290 4.073 1155.80
65.317 -110.136 4.012 1223.11
65.317 -107.983 3.978 1918.00
65.317 -105.829 3.969 2310.61
65.317 -103.675 3.942 1731.23
65.317 -101.522 3.912 1717.32
65.317 -99.368 3.876 1994.91
65.317 -97.215 3.843 2960.97
65.317 -95.061 3.859 3976.83
65.317 -92.907 3.878 4809.96
65.317 -90.754 3.950 2418.00
65.317 -88.600 3.961 536.37
65.317 -86.446 3.996 786.19
65.317 -84.293 3.961 740.21
65.317 -82.139 3.867 663.34
65.317 -79.985 3.828 810.14
65.317 -77.832 3.849 541.42
65.317 -75.678 3.829 594.41
65.317 -73.525 3.805 1029.92
65.317 -71.371 3.809 383.63
65.317 -69.217 3.831 443.57
65.317 -67.064 3.808 257.75
65.317 -64.910 3.773 81.26
65.317 -62.756 3.757 97.92
65.317 -60.603 3.764 0.00
65.317 -58.449 3.773 0.00
65.317 -56.295 3.775 0.00
65.317 -54.142 3.775 0.00
65.317 -51.988 3.774 0.00
65.317 -49.835 3.774 0.00
65.317 -47.681 3.774 0.00
65.317 -45.527 3.775 0.00
65.317 -43.374 3.771 0.00
65.317 -41.220 3.764 0.00
65.317 -39.066 3.759 75.92
66.216 -161.810 3.758 170.82
66.216 -159.580 3.760 88.91
66.216 -157.350 3.760 93.90
66.216 -155.120 3.753 170.83
66.216 -152.890 3.745 209.78
66.216 -150.660 3.744 300.69
66.216 -148.430 3.754 470.51
66.216 -146.200 3.789 746.78
66.216 -143.970 3.832 657.46
66.216 -141.740 3.814 945.14
66.216 -139.510 3.791 656.47
66.216 -137.279 3.860 1023.46
66.216 -135.049 3.917 658.50
66.216 -132.819 3.970 1848.62
66.216 -130.589 3.997 1757.10
66.216 -128.359 3.895 938.06
66.216 -126.129 3.860 883.09
66.216 -123.899 3.850 810.15
66.216 -121.669 3.893 370.64
66.216 -119.439 3.948 668.37
66.216 -117.209 3.983 921.08
66.216 -114.979 4.035 784.20
66.216 -112.749 4.101 947.09
66.216 -110.519 4.082 1084.02
66.216 -108.288 3.989 1777.21
66.216 -106.058 3.920 1735.24
66.216 -103.828 3.884 2467.46
66.216 -101.598 3.880 2007.04
66.216 -99.368 3.879 1931.08
66.216 -97.138 3.881 2186.73
66.216 -94.908 3.875 4585.29
66.216 -92.678 3.897 4712.15
66.216 -90.448 3.949 4103.69
66.216 -88.218 3.982 753.68
66.216 -85.988 4.015 901.56
66.216 -83.758 3.966 819.16
66.216 -81.528 3.871 1001.02
66.216 -79.298 3.848 811.16
66.216 -77.067 3.855 871.10
66.216 -74.837 3.827 530.47
66.216 -72.607 3.806 853.10
66.216 -70.377 3.810 304.69
66.216 -68.147 3.810 551.48
66.216 -65.917 3.784 206.80
66.216 -63.687 3.767 123.90
66.216 -61.457 3.769 0.00
66.216 -59.227 3.777 0.00
66.216 -56.997 3.781 0.00
66.216 -54.767 3.780 0.00
66.216 -52.537 3.777 0.00
66.216 -50.307 3.775 0.00
66.216 -48.077 3.774 0.00
66.216 -45.846 3.774 0.00
66.216 -43.616 3.775 0.00
66.216 -41.386 3.775 0.00
66.216 -39.156 3.773 0.00
66.216 -36.926 3.771 0.00
67.116 -164.125 3.770 0.00
67.116 -161.812 3.771 0.00
67.116 -159.499 3.771 0.00
67.116 -157.186 3.768 0.00
67.116 -154.874 3.761 34.97
67.116 -152.561 3.752 104.90
67.116 -150.248 3.752 288.84
67.116 -147.935 3.777 369.12
67.116 -145.623 3.812 552.32
67.116 -143.310 3.796 538.99
67.116 -140.997 3.795 742.26
67.116 -138.685 3.899 1012.98
67.116 -136.372 3.979 426.38
67.116 -134.059 4.036 2367.26
67.116 -131.746 3.982 1868.08
67.116 -129.434 3.905 806.17
67.116 -127.121 3.877 727.24
67.116 -124.808 3.917 599.09
67.116 -122.495 3.971 452.97
67.116 -120.183 3.994 366.62
67.116 -117.870 3.990 483.53
67.116 -115.557 3.987 743.28
67.116 -113.245 3.990 571.43
67.116 -110.932 3.985 603.42
67.116 -108.619 3.945 837.16
67.116 -106.306 3.885 1718.23
67.116 -103.994 3.858 2063.89
67.116 -101.681 3.869 2501.40
67.116 -99.368 3.899 2177.88
67.116 -97.055 3.913 2360.59
67.116 -94.743 3.900 3234.69
67.116 -92.430 3.906 4572.39
67.116 -90.117 3.949 5276.49
67.116 -87.805 4.008 1490.35
67.116 -85.492 4.014 682.32
67.116 -83.179 3.951 676.27
67.116 -80.866 3.851 868.13
67.116 -78.554 3.842 674.29
67.116 -76.241 3.835 728.25
67.116 -73.928 3.814 1165.80
67.116 -71.615 3.805 623.38
67.116 -69.303 3.815 615.41
67.116 -66.990 3.798 315.70
67.116 -64.677 3.780 187.83
67.116 -62.365 3.778 119.89
67.116 -60.052 3.783 98.91
67.116 -57.739 3.787 95.91
67.116 -55.426 3.787 94.91
67.116 -53.114 3.785 91.91
67.116 -50.801 3.781 60.95
67.116 -48.488 3.776 0.00
67.116 -46.176 3.774 0.00
67.116 -43.863 3.774 0.00
67.116 -41.550 3.774 0.00
67.116 -39.237 3.775 0.00
67.116 -36.925 3.775 0.00
67.116 -34.612 3.774 0.00
68.015 -166.634 3.774 0.00
68.015 -164.232 3.775 0.00
68.015 -161.829 3.775 0.00
68.015 -159.427 3.775 0.00
68.015 -157.025 3.773 0.00
68.015 -154.622 3.767 0.00
68.015 -152.220 3.763 65.94
68.015 -149.818 3.774 183.80
68.015 -147.415 3.793 448.55
68.015 -145.013 3.776 333.29
68.015 -142.611 3.781 771.28
68.015 -140.208 3.889 987.97
68.015 -137.806 3.967 621.25
68.015 -135.404 4.034 2548.42
68.015 -133.001 4.018 1628.45
68.015 -130.599 3.993 450.53
68.015 -128.196 3.979 222.76
68.015 -125.794 3.981 243.75
68.015 -123.392 3.957 417.17
68.015 -120.989 3.911 255.49
68.015 -118.587 3.877 188.82
68.015 -116.185 3.853 289.72
68.015 -113.782 3.849 510.50
68.015 -111.380 3.879 496.51
68.015 -108.978 3.909 600.43
68.015 -106.575 3.908 1195.76
68.015 -104.173 3.881 1477.46
68.015 -101.771 3.868 2116.80
68.015 -99.368 3.881 2468.47
68.015 -96.966 3.906 2212.84
68.015 -94.563 3.910 2692.22
68.015 -92.161 3.906 5175.68
68.015 -89.759 3.946 5401.36
68.015 -87.356 4.017 2967.84
68.015 -84.954 4.002 993.99
68.015 -82.552 3.946 832.12
68.015 -80.149 3.837 1185.80
68.015 -77.747 3.833 440.52
68.015 -75.345 3.810 711.27
68.015 -72.942 3.796 1044.90
68.015 -70.540 3.796 385.61
68.015 -68.138 3.795 424.60
68.015 -65.735 3.774 102.90
68.015 -63.333 3.769 41.96
68.015 -60.931 3.774 0.00
68.015 -58.528 3.779 0.00
68.015 -56.126 3.781 0.00
68.015 -53.723 3.780 0.00
68.015 -51.321 3.779 0.00
68.015 -48.919 3.777 0.00
68.015 -46.516 3.775 0.00
68.015 -44.114 3.774 0.00
68.015 -41.712 3.774 0.00
68.015 -39.309 3.774 0.00
68.015 -36.907 3.774 0.00
68.015 -34.505 3.774 0.00
68.015 -32.102 3.774 0.00
68.915 -169.364 3.774 0.00
68.915 -166.864 3.775 0.00
68.915 -164.364 3.775 0.00
68.915 -161.865 3.775 0.00
68.915 -159.365 3.775 0.00
68.915 -156.865 3.774 0.00
68.915 -154.365 3.771 0.00
68.915 -151.865 3.773 17.98
68.915 -149.365 3.775 132.02
68.915 -146.865 3.759 285.03
68.915 -144.366 3.760 723.59
68.915 -141.866 3.836 1034.90
68.915 -139.366 3.885 389.62
68.915 -136.866 3.931 392.60
68.915 -134.366 3.946 372.62
68.915 -131.866 3.928 193.81
68.915 -129.366 3.905 183.81
68.915 -126.867 3.875 22.98
68.915 -124.367 3.842 71.91
68.915 -121.867 3.823 345.73
68.915 -119.367 3.813 295.15
68.915 -116.867 3.799 246.76
68.915 -114.367 3.794 270.75
68.915 -111.867 3.816 490.53
68.915 -109.368 3.870 445.54
68.915 -106.868 3.911 534.50
68.915 -104.368 3.915 1175.80
68.915 -101.868 3.893 1694.25
68.915 -99.368 3.881 2564.30
68.915 -96.868 3.898 2551.39
68.915 -94.368 3.921 2530.43
68.915 -91.869 3.926 3793.02
68.915 -89.369 3.962 5998.72
68.915 -86.869 4.010 4896.80
68.915 -84.369 4.005 1110.89
68.915 -81.869 3.955 908.87
68.915 -79.369 3.842 1182.79
68.915 -76.870 3.830 601.35
68.915 -74.370 3.804 922.05
68.915 -71.870 3.782 749.22
68.915 -69.370 3.791 590.44
68.915 -66.870 3.773 151.85
68.915 -64.370 3.762 65.94
68.915 -61.870 3.766 0.00
68.915 -59.371 3.772 0.00
68.915 -56.871 3.775 0.00
68.915 -54.371 3.775 0.00
68.915 -51.871 3.774 0.00
68.915 -49.371 3.774 0.00
68.915 -46.871 3.774 0.00
68.915 -44.371 3.774 0.00
68.915 -41.872 3.774 0.00
68.915 -39.372 3.774 0.00
68.915 -36.872 3.774 0.00
68.915 -34.372 3.774 0.00
68.915 -31.872 3.774 0.00
68.915 -29.372 3.774 0.00
69.814 -172.344 3.774 0.00
69.814 -169.737 3.774 0.00
69.814 -167.131 3.774 0.00
69.814 -164.525 3.774 0.00
69.814 -161.919 3.775 0.00
69.814 -159.312 3.775 0.00
69.814 -156.706 3.774 0.00
69.814 -154.100 3.774 0.00
69.814 -151.494 3.772 0.00
69.814 -148.887 3.762 45.96
69.814 -146.281 3.760 480.36
69.814 -143.675 3.779 298.67
69.814 -141.069 3.795 311.67
69.814 -138.462 3.817 482.50
69.814 -135.856 3.839 371.63
69.814 -133.250 3.842 460.54
69.814 -130.643 3.834 267.74
69.814 -128.037 3.823 247.75
69.814 -125.431 3.811 86.91
69.814 -122.825 3.807 33.96
69.814 -120.218 3.811 292.27
69.814 -117.612 3.816 345.61
69.814 -115.006 3.803 262.74
69.814 -112.400 3.800 272.74
69.814 -109.793 3.824 511.51
69.814 -107.187 3.873 468.52
69.814 -104.581 3.905 788.21
69.814 -101.974 3.910 873.11
