28.443 -77.889 3.576 313.70
28.443 -76.866 3.646 201.79
28.443 -75.843 3.634 99.89
28.443 -74.820 3.567 2.77
28.443 -73.798 3.527 8.43
28.443 -72.775 3.519 0.00
28.443 -71.752 3.520 0.00
28.443 -70.729 3.524 0.00
29.343 -128.257 3.526 0.00
29.343 -127.225 3.525 0.00
29.343 -126.193 3.526 0.00
29.343 -125.161 3.527 0.00
29.343 -124.130 3.527 0.00
29.343 -123.098 3.527 0.00
29.343 -122.066 3.527 0.00
29.343 -121.034 3.527 0.00
29.343 -120.003 3.528 0.00
29.343 -118.971 3.529 0.00
29.343 -117.939 3.521 0.00
29.343 -116.908 3.513 0.00
29.343 -115.876 3.526 0.00
29.343 -114.844 3.554 0.00
29.343 -113.812 3.657 3465.89
29.343 -112.781 3.888 5413.81
29.343 -111.749 4.026 11946.97
29.343 -110.717 3.788 21268.05
29.343 -109.685 3.683 17058.07
29.343 -108.654 3.603 16100.93
29.343 -107.622 3.494 16195.03
29.343 -106.590 3.502 24531.27
29.343 -105.559 3.483 17445.38
29.343 -104.527 3.516 23169.84
29.343 -103.495 3.566 27470.61
29.343 -102.463 3.612 23161.55
29.343 -101.432 3.581 23978.87
29.343 -100.400 3.623 23686.56
29.343 -99.368 3.596 34165.92
29.343 -98.336 3.460 90620.26
29.343 -97.305 3.365 14515.79
29.343 -96.273 3.322 6761.92
29.343 -95.241 3.414 4974.16
29.343 -94.210 3.444 4547.51
29.343 -93.178 3.389 4221.80
29.343 -92.146 3.337 4356.58
29.343 -91.114 3.325 5530.98
29.343 -90.083 3.381 6317.92
29.343 -89.051 3.454 5717.29
29.343 -88.019 3.542 5814.23
29.343 -86.987 3.615 7249.78
29.343 -85.956 3.631 8273.73
29.343 -84.924 3.595 10194.94
29.343 -83.892 3.579 12309.23
29.343 -82.861 3.548 13490.61
29.343 -81.829 3.554 10209.86
29.343 -80.797 3.624 2688.11
29.343 -79.765 3.645 939.36
29.343 -78.734 3.606 504.54
29.343 -77.702 3.648 147.86
29.343 -76.670 3.706 305.69
29.343 -75.639 3.678 114.87
29.343 -74.607 3.603 11.09
29.343 -73.575 3.559 0.00
29.343 -72.543 3.539 0.00
29.343 -71.512 3.531 0.00
29.343 -70.480 3.530 0.00
30.242 -128.517 3.526 0.00
30.242 -127.476 3.522 0.00
30.242 -126.435 3.522 0.00
30.242 -125.394 3.524 0.00
30.242 -124.353 3.525 0.00
30.242 -123.312 3.527 0.00
30.242 -122.271 3.527 0.00
30.242 -121.230 3.528 0.00
30.242 -120.189 3.529 0.00
30.242 -119.148 3.523 0.00
30.242 -118.107 3.510 0.00
30.242 -117.066 3.520 0.00
30.242 -116.025 3.556 0.00
30.242 -114.984 3.597 724.04
30.242 -113.943 3.714 9305.07
30.242 -112.902 3.928 8709.03
30.242 -111.861 3.985 12741.83
30.242 -110.820 3.756 18466.39
30.242 -109.779 3.621 15574.80
30.242 -108.738 3.536 17366.76
30.242 -107.697 3.467 16356.82
30.242 -106.655 3.433 25686.49
30.242 -105.614 3.419 24497.75
30.242 -104.573 3.405 25880.06
30.242 -103.532 3.480 27720.04
30.242 -102.491 3.502 31289.69
30.242 -101.450 3.463 32080.70
30.242 -100.409 3.497 36837.44
30.242 -99.368 3.507 53887.01
30.242 -98.327 3.530 43530.11
30.242 -97.286 3.491 24488.37
30.242 -96.245 3.434 13405.83
30.242 -95.204 3.532 8036.43
30.242 -94.163 3.595 6925.66
30.242 -93.122 3.586 7872.56
30.242 -92.081 3.549 8728.24
30.242 -91.040 3.527 8867.52
30.242 -89.999 3.536 9462.67
30.242 -88.958 3.549 8073.40
30.242 -87.917 3.588 8624.94
30.242 -86.876 3.645 9102.85
30.242 -85.835 3.632 12375.51
30.242 -84.794 3.605 12740.67
30.242 -83.753 3.558 12070.47
30.242 -82.712 3.551 12661.87
30.242 -81.671 3.548 3776.28
30.242 -80.629 3.577 1821.37
30.242 -79.588 3.608 956.19
30.242 -78.547 3.589 306.85
30.242 -77.506 3.629 149.88
30.242 -76.465 3.663 56.94
30.242 -75.424 3.681 196.79
30.242 -74.383 3.643 124.10
30.242 -73.342 3.614 111.90
30.242 -72.301 3.591 19.98
30.242 -71.260 3.578 0.00
30.242 -70.219 3.566 0.00
31.141 -128.790 3.544 0.00
31.141 -127.739 3.536 0.00
31.141 -126.689 3.531 0.00
31.141 -125.638 3.528 0.00
31.141 -124.587 3.525 0.00
31.141 -123.536 3.524 0.00
31.141 -122.485 3.527 0.00
31.141 -121.435 3.528 0.00
31.141 -120.384 3.524 0.00
31.141 -119.333 3.512 0.00
31.141 -118.282 3.514 0.00
31.141 -117.232 3.555 0.00
31.141 -116.181 3.603 71.75
31.141 -115.130 3.618 4372.58
31.141 -114.079 3.728 6157.89
31.141 -113.028 3.879 9925.71
31.141 -111.978 3.874 15442.63
31.141 -110.927 3.721 20554.36
31.141 -109.876 3.674 21993.78
31.141 -108.825 3.572 25304.90
31.141 -107.774 3.466 26046.74
31.141 -106.724 3.385 32681.83
31.141 -105.673 3.341 41725.59
31.141 -104.622 3.352 40112.63
31.141 -103.571 3.440 33152.37
31.141 -102.521 3.500 35750.04
31.141 -101.470 3.567 39230.03
31.141 -100.419 3.480 46797.43
31.141 -99.368 3.570 45920.96
31.141 -98.317 3.621 36363.26
31.141 -97.267 3.658 29015.13
31.141 -96.216 3.558 17601.86
31.141 -95.165 3.595 16596.91
31.141 -94.114 3.625 14674.72
31.141 -93.063 3.646 15488.97
31.141 -92.013 3.638 16248.69
31.141 -90.962 3.625 16839.56
31.141 -89.911 3.643 17365.96
31.141 -88.860 3.631 17510.43
31.141 -87.810 3.638 17443.08
31.141 -86.759 3.672 15265.45
31.141 -85.708 3.625 20138.61
31.141 -84.657 3.579 14297.19
31.141 -83.606 3.611 19934.27
31.141 -82.556 3.622 13071.45
31.141 -81.505 3.605 5790.09
31.141 -80.454 3.599 1485.66
31.141 -79.403 3.609 1096.06
31.141 -78.353 3.601 85.93
31.141 -77.302 3.612 206.89
31.141 -76.251 3.605 8.14
31.141 -75.200 3.607 104.08
31.141 -74.149 3.586 11.20
31.141 -73.099 3.586 0.00
31.141 -72.048 3.608 91.91
31.141 -70.997 3.619 110.90
31.141 -69.946 3.612 111.90
32.041 -129.076 3.590 66.94
32.041 -128.015 3.587 0.00
32.041 -126.954 3.577 0.00
32.041 -125.893 3.561 0.00
32.041 -124.832 3.538 0.00
32.041 -123.771 3.527 0.00
32.041 -122.710 3.527 0.00
32.041 -121.649 3.525 0.00
32.041 -120.588 3.515 0.00
32.041 -119.527 3.522 0.00
32.041 -118.466 3.570 0.00
32.041 -117.405 3.646 52.95
32.041 -116.344 3.681 2416.14
32.041 -115.283 3.557 34024.27
32.041 -114.222 3.594 30540.87
32.041 -113.161 3.784 32450.13
32.041 -112.100 3.757 36053.55
32.041 -111.039 3.688 43140.41
32.041 -109.978 3.746 40493.23
32.041 -108.917 3.678 38861.61
32.041 -107.856 3.596 38515.86
32.041 -106.795 3.490 40410.78
32.041 -105.734 3.414 38439.63
32.041 -104.673 3.379 41127.77
32.041 -103.612 3.403 40827.78
32.041 -102.551 3.534 33484.77
32.041 -101.490 3.580 39541.67
32.041 -100.429 3.576 47416.82
32.041 -99.368 3.623 37634.63
32.041 -98.307 3.636 39292.13
32.041 -97.246 3.675 35460.88
32.041 -96.185 3.583 29590.59
32.041 -95.124 3.615 28276.37
32.041 -94.063 3.573 47756.24
32.041 -93.002 3.655 26986.31
32.041 -91.941 3.677 26356.96
32.041 -90.880 3.683 27517.85
32.041 -89.819 3.616 24561.83
32.041 -88.758 3.546 22043.85
32.041 -87.697 3.563 18101.68
32.041 -86.636 3.592 16049.83
32.041 -85.575 3.526 22460.57
32.041 -84.515 3.556 21367.86
32.041 -83.454 3.658 22002.78
32.041 -82.393 3.688 11081.12
32.041 -81.332 3.665 8715.84
32.041 -80.271 3.649 1687.82
32.041 -79.210 3.650 843.22
32.041 -78.149 3.652 311.78
32.041 -77.088 3.622 160.83
32.041 -76.027 3.589 98.88
32.041 -74.966 3.554 4.94
32.041 -73.905 3.534 19.23
32.041 -72.844 3.536 3.86
32.041 -71.783 3.554 0.00
32.041 -70.722 3.568 0.00
32.041 -69.661 3.579 0.00
32.940 -129.374 3.605 43.96
32.940 -128.302 3.623 110.90
32.940 -127.231 3.625 109.90
32.940 -126.159 3.604 110.90
32.940 -125.087 3.556 5.78
32.940 -124.016 3.533 0.00
32.940 -122.944 3.525 0.00
32.940 -121.873 3.515 0.00
32.940 -120.801 3.521 0.00
32.940 -119.729 3.577 292.49
32.940 -118.658 3.650 627.24
32.940 -117.586 3.748 1785.31
32.940 -116.514 3.878 10220.28
32.940 -115.443 3.759 124233.31
32.940 -114.371 3.639 127004.11
32.940 -113.299 3.721 85738.85
32.940 -112.228 3.723 71559.66
32.940 -111.156 3.708 67033.83
32.940 -110.085 3.733 56547.49
32.940 -109.013 3.672 52691.96
32.940 -107.941 3.589 52182.03
32.940 -106.870 3.482 49456.73
32.940 -105.798 3.414 47372.41
32.940 -104.726 3.371 43376.08
32.940 -103.655 3.447 51301.28
32.940 -102.583 3.526 50286.87
32.940 -101.511 3.503 54466.13
32.940 -100.440 3.553 53194.17
32.940 -99.368 3.507 55172.72
32.940 -98.297 3.544 58845.85
32.940 -97.225 3.588 55704.49
32.940 -96.153 3.509 44560.82
32.940 -95.082 3.559 38976.29
32.940 -94.010 3.590 47142.62
32.940 -92.938 3.697 35205.95
32.940 -91.867 3.680 29997.01
32.940 -90.795 3.641 28544.07
32.940 -89.723 3.547 28050.34
32.940 -88.652 3.490 28635.85
32.940 -87.580 3.488 24882.89
32.940 -86.509 3.477 21095.38
32.940 -85.437 3.454 27043.65
32.940 -84.365 3.511 24061.49
32.940 -83.294 3.663 18285.63
32.940 -82.222 3.741 17671.26
32.940 -81.150 3.742 9661.55
32.940 -80.079 3.725 4846.91
32.940 -79.007 3.715 1671.45
32.940 -77.935 3.708 616.48
32.940 -76.864 3.636 36.96
32.940 -75.792 3.589 99.88
32.940 -74.721 3.543 0.00
32.940 -73.649 3.522 11.20
32.940 -72.577 3.520 4.28
32.940 -71.506 3.526 8.14
32.940 -70.434 3.530 3.86
32.940 -69.362 3.538 0.00
33.839 -129.686 3.556 0.00
33.839 -128.603 3.560 0.00
33.839 -127.521 3.568 0.00
33.839 -126.438 3.561 0.00
33.839 -125.355 3.539 0.00
33.839 -124.272 3.526 0.00
33.839 -123.189 3.514 0.00
33.839 -122.107 3.512 0.00
33.839 -121.024 3.555 0.00
33.839 -119.941 3.621 355.02
33.839 -118.858 3.639 1635.26
33.839 -117.775 3.621 24654.36
33.839 -116.693 3.801 32921.84
33.839 -115.610 3.714 63771.36
33.839 -114.527 3.601 85569.19
33.839 -113.444 3.654 90371.58
33.839 -112.362 3.693 85629.38
33.839 -111.279 3.700 80791.17
33.839 -110.196 3.656 70725.77
33.839 -109.113 3.598 64817.61
33.839 -108.030 3.488 61822.11
33.839 -106.948 3.439 55870.05
33.839 -105.865 3.395 50370.48
33.839 -104.782 3.417 43054.93
33.839 -103.699 3.506 50101.89
33.839 -102.617 3.491 57603.97
33.839 -101.534 3.487 59044.52
33.839 -100.451 3.514 54846.89
33.839 -99.368 3.402 54747.98
33.839 -98.285 3.465 60376.11
33.839 -97.203 3.506 61407.46
33.839 -96.120 3.520 53574.77
33.839 -95.037 3.534 51863.46
33.839 -93.954 3.518 51970.77
33.839 -92.872 3.602 42106.26
33.839 -91.789 3.641 39547.65
33.839 -90.706 3.655 34129.96
33.839 -89.623 3.660 31547.21
33.839 -88.540 3.597 30859.77
33.839 -87.458 3.502 27826.52
33.839 -86.375 3.468 27653.47
33.839 -85.292 3.477 36284.66
33.839 -84.209 3.523 26362.33
33.839 -83.126 3.629 18085.10
33.839 -82.044 3.749 20431.67
33.839 -80.961 3.742 9326.80
33.839 -79.878 3.769 10498.49
33.839 -78.795 3.759 2459.31
33.839 -77.713 3.724 544.51
33.839 -76.630 3.644 111.93
33.839 -75.547 3.593 100.88
33.839 -74.464 3.544 0.00
33.839 -73.381 3.526 11.20
33.839 -72.299 3.524 0.00
33.839 -71.216 3.525 0.00
33.839 -70.133 3.524 4.28
33.839 -69.050 3.525 8.22
34.739 -130.012 3.527 4.36
34.739 -128.918 3.523 0.00
34.739 -127.823 3.529 0.00
34.739 -126.729 3.530 0.00
34.739 -125.635 3.525 0.00
34.739 -124.540 3.518 0.00
34.739 -123.446 3.513 0.00
34.739 -122.351 3.544 0.00
34.739 -121.257 3.619 0.00
34.739 -120.162 3.683 961.97
34.739 -119.068 3.638 6087.36
34.739 -117.974 3.486 25051.18
34.739 -116.879 3.592 37379.73
34.739 -115.785 3.715 60653.59
34.739 -114.690 3.681 67310.52
34.739 -113.596 3.576 61845.61
34.739 -112.501 3.461 62544.31
34.739 -111.407 3.477 68705.72
34.739 -110.313 3.519 70809.80
34.739 -109.218 3.548 66190.02
34.739 -108.124 3.473 63970.58
34.739 -107.029 3.392 61303.31
34.739 -105.935 3.453 54785.82
34.739 -104.840 3.452 51342.01
34.739 -103.746 3.467 57839.70
34.739 -102.651 3.497 65005.90
34.739 -101.557 3.516 65556.75
34.739 -100.463 3.482 63961.46
34.739 -99.368 3.451 66909.88
34.739 -98.274 3.441 67143.65
34.739 -97.179 3.462 66240.41
34.739 -96.085 3.491 64099.61
34.739 -94.990 3.505 70309.00
34.739 -93.896 3.485 65697.69
34.739 -92.802 3.541 53305.87
34.739 -91.707 3.570 44777.53
34.739 -90.613 3.662 45757.37
34.739 -89.518 3.704 42119.44
34.739 -88.424 3.663 45631.05
34.739 -87.329 3.581 30541.39
34.739 -86.235 3.506 29493.66
34.739 -85.141 3.473 30471.66
34.739 -84.046 3.468 23483.45
34.739 -82.952 3.503 18528.32
34.739 -81.857 3.567 21496.72
34.739 -80.763 3.622 17573.50
34.739 -79.668 3.712 8580.95
34.739 -78.574 3.713 4155.00
34.739 -77.480 3.670 2063.87
34.739 -76.385 3.622 235.86
34.739 -75.291 3.583 93.89
34.739 -74.196 3.542 0.00
34.739 -73.102 3.528 11.20
34.739 -72.007 3.527 0.00
34.739 -70.913 3.527 0.00
34.739 -69.818 3.527 0.00
34.739 -68.724 3.526 0.00
35.638 -130.353 3.525 11.91
35.638 -129.247 3.524 5.45
35.638 -128.140 3.525 0.00
35.638 -127.034 3.526 0.00
35.638 -125.927 3.522 0.00
35.638 -124.820 3.516 0.00
35.638 -123.714 3.529 0.00
35.638 -122.607 3.593 0.00
35.638 -121.500 3.673 1990.38
35.638 -120.394 3.739 12415.12
35.638 -119.287 3.688 18674.34
35.638 -118.181 3.493 23928.48
35.638 -117.074 3.431 33709.24
35.638 -115.967 3.583 59362.86
35.638 -114.861 3.650 63727.82
35.638 -113.754 3.529 67511.76
35.638 -112.648 3.426 70432.20
35.638 -111.541 3.365 69439.80
35.638 -110.434 3.437 61021.82
35.638 -109.328 3.475 56345.42
35.638 -108.221 3.467 60446.34
35.638 -107.115 3.385 62918.89
35.638 -106.008 3.413 56581.77
35.638 -104.901 3.398 56018.64
35.638 -103.795 3.391 60987.06
35.638 -102.688 3.487 65115.63
35.638 -101.581 3.545 73452.19
35.638 -100.475 3.469 81494.22
35.638 -99.368 3.463 78774.38
35.638 -98.262 3.516 81350.77
35.638 -97.155 3.457 131524.42
35.638 -96.048 3.466 101050.25
35.638 -94.942 3.592 71787.38
35.638 -93.835 3.508 66931.87
35.638 -92.729 3.533 86261.79
35.638 -91.622 3.593 63169.15
35.638 -90.515 3.631 59582.84
35.638 -89.409 3.647 52328.27
35.638 -88.302 3.686 47460.46
35.638 -87.195 3.604 35841.27
35.638 -86.089 3.532 32944.98
35.638 -84.982 3.487 30784.82
35.638 -83.876 3.454 28791.23
35.638 -82.769 3.456 23997.89
35.638 -81.662 3.479 22179.09
35.638 -80.556 3.564 24593.75
35.638 -79.449 3.609 11410.88
35.638 -78.343 3.599 12992.83
35.638 -77.236 3.582 2996.97
35.638 -76.129 3.578 2193.55
35.638 -75.023 3.553 0.00
35.638 -73.916 3.531 3.11
35.638 -72.809 3.525 7.99
35.638 -71.703 3.527 0.00
35.638 -70.596 3.527 0.00
35.638 -69.490 3.527 0.00
35.638 -68.383 3.527 0.00
36.538 -130.710 3.528 0.00
36.538 -129.591 3.528 2.77
36.538 -128.471 3.529 8.22
36.538 -127.352 3.526 7.22
36.538 -126.233 3.520 0.00
36.538 -125.113 3.519 0.00
36.538 -123.994 3.553 0.00
36.538 -122.875 3.643 45.96
36.538 -121.755 3.651 3267.76
36.538 -120.636 3.629 45556.18
36.538 -119.516 3.600 57142.58
36.538 -118.397 3.439 56816.33
36.538 -117.278 3.375 57171.41
36.538 -116.158 3.444 70275.97
36.538 -115.039 3.599 74211.68
36.538 -113.920 3.452 85622.82
36.538 -112.800 3.456 73044.19
36.538 -111.681 3.400 66305.24
36.538 -110.562 3.438 59631.04
36.538 -109.442 3.480 54064.59
36.538 -108.323 3.455 55474.89
36.538 -107.204 3.320 58433.66
36.538 -106.084 3.312 58963.18
36.538 -104.965 3.309 62649.70
36.538 -103.846 3.337 75136.83
36.538 -102.726 3.464 80798.16
36.538 -101.607 3.564 86736.50
36.538 -100.488 3.549 82861.96
36.538 -99.368 3.461 83497.88
36.538 -98.249 3.565 81868.97
36.538 -97.130 3.607 81351.30
36.538 -96.010 3.511 99939.45
36.538 -94.891 3.646 91838.55
36.538 -93.771 3.619 87086.94
36.538 -92.652 3.586 89333.32
36.538 -91.533 3.569 69435.78
36.538 -90.413 3.613 67293.38
36.538 -89.294 3.616 64341.03
36.538 -88.175 3.612 51354.00
36.538 -87.055 3.530 36476.63
36.538 -85.936 3.462 34080.62
36.538 -84.817 3.443 35833.43
36.538 -83.697 3.458 33598.40
36.538 -82.578 3.463 27824.44
36.538 -81.459 3.492 25723.08
36.538 -80.339 3.497 21228.45
36.538 -79.220 3.542 17557.59
36.538 -78.101 3.593 8465.72
36.538 -76.981 3.588 3676.74
36.538 -75.862 3.583 220.89
36.538 -74.743 3.546 0.00
36.538 -73.623 3.527 11.20
36.538 -72.504 3.525 0.00
36.538 -71.384 3.527 0.00
36.538 -70.265 3.527 0.00
36.538 -69.146 3.527 0.00
36.538 -68.026 3.527 0.00
37.437 -131.083 3.528 0.00
37.437 -129.950 3.528 0.00
37.437 -128.817 3.526 0.00
37.437 -127.685 3.521 0.92
37.437 -126.552 3.522 8.22
37.437 -125.419 3.534 8.22
37.437 -124.287 3.615 13.58
37.437 -123.154 3.725 133.87
37.437 -122.021 3.653 23859.29
37.437 -120.889 3.713 35756.36
37.437 -119.756 3.642 26892.62
37.437 -118.623 3.422 43624.23
37.437 -117.491 3.382 46694.50
37.437 -116.358 3.335 63701.18
37.437 -115.225 3.359 69812.20
37.437 -114.093 3.364 73981.27
37.437 -112.960 3.342 76301.88
37.437 -111.827 3.340 63605.27
37.437 -110.695 3.395 63725.92
37.437 -109.562 3.447 57170.65
37.437 -108.429 3.432 58004.02
37.437 -107.297 3.329 61593.70
37.437 -106.164 3.274 69248.55
37.437 -105.032 3.307 89602.78
37.437 -103.899 3.406 81006.37
37.437 -102.766 3.496 84855.59
37.437 -101.634 3.481 78976.23
37.437 -100.501 3.471 82275.72
37.437 -99.368 3.431 81271.82
37.437 -98.236 3.489 77130.23
37.437 -97.103 3.523 77160.02
37.437 -95.970 3.500 78833.20
37.437 -94.838 3.563 85692.28
37.437 -93.705 3.541 92712.81
37.437 -92.572 3.540 94451.75
37.437 -91.440 3.534 80954.35
37.437 -90.307 3.562 72211.58
37.437 -89.174 3.531 63269.94
37.437 -88.042 3.558 49203.32
37.437 -86.909 3.485 39259.49
37.437 -85.776 3.460 36744.68
37.437 -84.644 3.432 31011.41
37.437 -83.511 3.451 32242.74
37.437 -82.378 3.482 31050.17
37.437 -81.246 3.469 39329.42
37.437 -80.113 3.502 35987.43
37.437 -78.980 3.617 27048.95
37.437 -77.848 3.660 7868.54
37.437 -76.715 3.644 3486.64
37.437 -75.582 3.601 216.54
37.437 -74.450 3.542 0.00
37.437 -73.317 3.524 11.20
37.437 -72.184 3.526 0.00
37.437 -71.052 3.527 0.00
37.437 -69.919 3.527 0.00
37.437 -68.786 3.527 0.00
37.437 -67.654 3.527 0.00
38.336 -131.472 3.528 0.00
38.336 -130.326 3.526 0.00
38.336 -129.179 3.521 0.00
38.336 -128.033 3.523 0.00
38.336 -126.886 3.540 0.00
38.336 -125.740 3.590 0.00
38.336 -124.593 3.711 154.57
38.336 -123.446 3.756 296.06
38.336 -122.300 3.694 15303.49
38.336 -121.153 3.644 31454.31
38.336 -120.007 3.478 28844.86
38.336 -118.860 3.245 48386.34
38.336 -117.713 3.371 55577.27
38.336 -116.567 3.514 57849.30
38.336 -115.420 3.494 56300.98
38.336 -114.274 3.561 69871.38
38.336 -113.127 3.330 78244.51
38.336 -111.981 3.272 70606.35
38.336 -110.834 3.279 63758.84
38.336 -109.687 3.328 59912.75
38.336 -108.541 3.366 58885.08
38.336 -107.394 3.187 63290.68
38.336 -106.248 3.091 63529.11
38.336 -105.101 3.230 47128.07
38.336 -103.955 3.469 45662.27
38.336 -102.808 3.561 56383.56
38.336 -101.661 3.508 57787.72
38.336 -100.515 3.502 59328.08
38.336 -99.368 3.595 59233.82
38.336 -98.222 3.608 62256.72
38.336 -97.075 3.558 67227.11
38.336 -95.928 3.624 67587.15
38.336 -94.782 3.640 68765.43
38.336 -93.635 3.516 75959.03
38.336 -92.489 3.499 88009.93
38.336 -91.342 3.511 99387.62
38.336 -90.196 3.580 90325.23
38.336 -89.049 3.638 91437.13
38.336 -87.902 3.636 75763.25
38.336 -86.756 3.436 46369.21
38.336 -85.609 3.454 38756.56
38.336 -84.463 3.432 36450.96
38.336 -83.316 3.422 33690.94
38.336 -82.170 3.398 41644.05
38.336 -81.023 3.358 41497.98
38.336 -79.876 3.481 42477.78
38.336 -78.730 3.639 44567.27
38.336 -77.583 3.695 20875.39
38.336 -76.437 3.671 1576.74
38.336 -75.290 3.601 182.96
38.336 -74.143 3.532 0.00
38.336 -72.997 3.518 11.20
38.336 -71.850 3.525 0.00
38.336 -70.704 3.528 0.00
38.336 -69.557 3.527 0.00
38.336 -68.411 3.527 0.00
38.336 -67.264 3.527 0.00
39.236 -131.880 3.524 0.00
39.236 -130.719 3.522 0.00
39.236 -129.558 3.524 0.00
39.236 -128.397 3.543 0.00
39.236 -127.235 3.579 0.00
39.236 -126.074 3.644 129.88
39.236 -124.913 3.705 20.98
39.236 -123.752 3.691 1586.46
39.236 -122.591 3.669 15471.91
39.236 -121.430 3.537 24608.08
39.236 -120.269 3.449 44986.74
39.236 -119.107 3.457 74159.26
39.236 -117.946 3.498 51669.45
39.236 -116.785 3.595 51066.15
39.236 -115.624 3.537 56693.33
39.236 -114.463 3.537 61575.33
39.236 -113.302 3.451 71966.24
39.236 -112.141 3.353 72175.74
39.236 -110.980 3.325 62547.88
39.236 -109.818 3.350 58033.28
39.236 -108.657 3.347 64368.88
39.236 -107.496 3.193 66243.45
39.236 -106.335 3.136 60966.80
39.236 -105.174 3.295 44195.29
39.236 -104.013 3.485 39183.25
39.236 -102.852 3.591 46336.20
39.236 -101.690 3.571 43575.19
39.236 -100.529 3.550 39889.84
39.236 -99.368 3.553 40351.19
39.236 -98.207 3.632 43324.04
39.236 -97.046 3.628 54372.32
39.236 -95.885 3.628 53519.75
39.236 -94.724 3.601 56039.07
39.236 -93.563 3.584 67943.27
39.236 -92.401 3.587 68205.68
39.236 -91.240 3.573 80117.21
39.236 -90.079 3.542 72631.35
39.236 -88.918 3.527 74374.87
39.236 -87.757 3.471 61441.19
39.236 -86.596 3.507 45370.43
39.236 -85.435 3.568 35168.12
39.236 -84.273 3.513 37296.84
39.236 -83.112 3.450 37374.89
39.236 -81.951 3.472 38882.92
39.236 -80.790 3.443 32321.71
39.236 -79.629 3.505 25613.11
39.236 -78.468 3.571 13527.24
39.236 -77.307 3.673 6905.98
39.236 -76.145 3.658 3298.40
39.236 -74.984 3.595 647.67
39.236 -73.823 3.533 0.00
39.236 -72.662 3.511 11.20
39.236 -71.501 3.519 0.00
39.236 -70.340 3.527 0.00
39.236 -69.179 3.528 0.00
39.236 -68.018 3.528 0.00
39.236 -66.856 3.526 0.00
40.135 -132.306 3.519 0.00
40.135 -131.130 3.521 0.00
40.135 -129.954 3.543 0.00
40.135 -128.777 3.569 0.00
40.135 -127.601 3.605 101.90
40.135 -126.424 3.655 50.95
40.135 -125.248 3.655 0.00
40.135 -124.072 3.485 12510.92
40.135 -122.895 3.331 33396.61
40.135 -121.719 3.258 37078.00
40.135 -120.543 3.374 72963.39
40.135 -119.366 3.457 76460.91
40.135 -118.190 3.549 55017.93
40.135 -117.014 3.615 57521.20
40.135 -115.837 3.603 56875.41
40.135 -114.661 3.563 71407.62
40.135 -113.484 3.509 76202.84
40.135 -112.308 3.373 73770.08
40.135 -111.132 3.287 61012.33
40.135 -109.955 3.258 56722.61
40.135 -108.779 3.241 65266.21
40.135 -107.603 3.239 63869.47
40.135 -106.426 3.219 48872.98
40.135 -105.250 3.328 42492.76
40.135 -104.074 3.445 37095.73
40.135 -102.897 3.527 36156.04
40.135 -101.721 3.482 35108.60
40.135 -100.545 3.452 33192.09
40.135 -99.368 3.447 32731.67
40.135 -98.192 3.482 35902.28
40.135 -97.015 3.472 46106.68
40.135 -95.839 3.438 53044.72
40.135 -94.663 3.412 53676.45
40.135 -93.486 3.484 57398.07
40.135 -92.310 3.622 58502.05
40.135 -91.134 3.614 54634.55
40.135 -89.957 3.497 39603.27
40.135 -88.781 3.437 35397.17
40.135 -87.605 3.444 40246.73
40.135 -86.428 3.514 35090.04
40.135 -85.252 3.586 41414.27
40.135 -84.076 3.517 41063.39
40.135 -82.899 3.487 33340.18
40.135 -81.723 3.538 30868.42
40.135 -80.546 3.528 26069.27
40.135 -79.370 3.516 22631.43
40.135 -78.194 3.502 15768.46
40.135 -77.017 3.546 12836.31
40.135 -75.841 3.636 5312.14
40.135 -74.665 3.636 2162.78
40.135 -73.488 3.596 0.00
40.135 -72.312 3.537 11.20
40.135 -71.136 3.514 0.00
40.135 -69.959 3.521 0.00
40.135 -68.783 3.527 0.00
40.135 -67.607 3.528 0.00
40.135 -66.430 3.524 0.00
41.034 -132.752 3.524 0.00
41.034 -131.560 3.529 0.00
41.034 -130.368 3.563 0.00
41.034 -129.175 3.594 75.93
41.034 -127.983 3.650 79.93
41.034 -126.791 3.733 0.00
41.034 -125.598 3.715 303.74
41.034 -124.406 3.338 59982.62
41.034 -123.214 3.167 46170.29
41.034 -122.022 3.133 43948.97
41.034 -120.829 3.308 38696.49
41.034 -119.637 3.309 58273.64
41.034 -118.445 3.502 59282.48
41.034 -117.252 3.576 52502.50
41.034 -116.060 3.678 50640.85
41.034 -114.868 3.735 83307.47
41.034 -113.676 3.666 67082.76
41.034 -112.483 3.418 64907.16
41.034 -111.291 3.238 60307.02
41.034 -110.099 3.099 71955.51
41.034 -108.906 3.139 55165.89
41.034 -107.714 3.199 49853.84
41.034 -106.522 3.296 42142.00
41.034 -105.330 3.375 37360.18
41.034 -104.137 3.420 33423.77
41.034 -102.945 3.431 28305.24
41.034 -101.753 3.409 30735.97
41.034 -100.560 3.441 29878.45
41.034 -99.368 3.439 32480.95
41.034 -98.176 3.436 38455.19
41.034 -96.984 3.425 46248.62
41.034 -95.791 3.485 50885.66
41.034 -94.599 3.471 55526.80
41.034 -93.407 3.544 55138.87
41.034 -92.215 3.605 49014.95
41.034 -91.022 3.582 36839.75
41.034 -89.830 3.546 28428.66
41.034 -88.638 3.556 25905.42
41.034 -87.445 3.575 28456.58
41.034 -86.253 3.614 27688.25
41.034 -85.061 3.589 34323.21
41.034 -83.869 3.505 31572.36
41.034 -82.676 3.489 29838.90
41.034 -81.484 3.501 25680.17
41.034 -80.292 3.506 23151.05
41.034 -79.099 3.379 21188.97
41.034 -77.907 3.327 20728.57
41.034 -76.715 3.412 15407.39
41.034 -75.523 3.596 13452.26
41.034 -74.330 3.735 8121.30
41.034 -73.138 3.747 1184.01
41.034 -71.946 3.640 360.06
41.034 -70.753 3.542 77.64
41.034 -69.561 3.516 0.00
41.034 -68.369 3.523 0.00
41.034 -67.177 3.524 0.00
41.034 -65.984 3.527 0.00
41.934 -133.219 3.546 0.00
41.934 -132.010 3.551 0.00
41.934 -130.801 3.588 53.95
41.934 -129.592 3.640 104.90
41.934 -128.383 3.721 0.00
41.934 -127.174 3.865 76.92
41.934 -125.965 3.930 1970.08
41.934 -124.756 3.615 14806.64
41.934 -123.547 3.325 27723.67
41.934 -122.338 3.269 31121.89
41.934 -121.129 3.335 31354.78
41.934 -119.920 3.370 41376.72
41.934 -118.711 3.501 43469.55
41.934 -117.502 3.436 47138.45
41.934 -116.293 3.485 54811.83
41.934 -115.085 3.563 66478.44
41.934 -113.876 3.655 56633.40
41.934 -112.667 3.678 62925.93
41.934 -111.458 3.476 75106.62
41.934 -110.249 3.338 68620.08
41.934 -109.040 3.277 55423.27
41.934 -107.831 3.258 45780.91
41.934 -106.622 3.336 39595.69
41.934 -105.413 3.381 36679.45
41.934 -104.204 3.460 29585.33
41.934 -102.995 3.411 28234.05
41.934 -101.786 3.453 28560.71
41.934 -100.577 3.470 32807.97
41.934 -99.368 3.465 37421.36
41.934 -98.159 3.506 39899.18
41.934 -96.950 3.504 46567.83
41.934 -95.741 3.509 53278.82
41.934 -94.532 3.521 53127.16
41.934 -93.323 3.546 46992.62
41.934 -92.115 3.554 40715.34
41.934 -90.906 3.605 37335.68
41.934 -89.697 3.650 25268.17
41.934 -88.488 3.674 25550.61
41.934 -87.279 3.629 22874.81
41.934 -86.070 3.631 24626.01
41.934 -84.861 3.587 29515.94
41.934 -83.652 3.519 26560.05
41.934 -82.443 3.554 22126.28
41.934 -81.234 3.529 24248.26
41.934 -80.025 3.471 24325.29
41.934 -78.816 3.367 23823.76
41.934 -77.607 3.346 20723.08
41.934 -76.398 3.469 17212.39
41.934 -75.189 3.631 13325.51
41.934 -73.980 3.789 10072.46
41.934 -72.771 3.850 4446.52
41.934 -71.562 3.733 1442.74
41.934 -70.353 3.593 393.45
41.934 -69.145 3.526 0.00
41.934 -67.936 3.516 0.00
41.934 -66.727 3.517 0.00
41.934 -65.518 3.535 0.00
42.833 -133.707 3.581 0.00
42.833 -132.481 3.591 35.97
42.833 -131.254 3.617 126.88
42.833 -130.028 3.654 0.00
42.833 -128.802 3.739 7.99
42.833 -127.575 3.812 305.70
42.833 -126.349 3.681 10884.45
42.833 -125.122 3.424 14673.61
42.833 -123.896 3.362 11890.10
42.833 -122.670 3.363 23353.38
42.833 -121.443 3.386 26354.00
42.833 -120.217 3.420 29663.79
42.833 -118.990 3.486 35505.04
42.833 -117.764 3.487 43288.03
42.833 -116.538 3.491 53965.65
42.833 -115.311 3.385 48795.54
42.833 -114.085 3.416 51201.23
42.833 -112.858 3.460 53078.58
42.833 -111.632 3.392 58765.93
42.833 -110.406 3.343 57625.77
42.833 -109.179 3.278 53789.71
42.833 -107.953 3.315 43362.99
42.833 -106.727 3.406 40551.18
42.833 -105.500 3.352 37869.48
42.833 -104.274 3.388 36646.18
42.833 -103.047 3.402 32671.98
42.833 -101.821 3.540 32542.35
42.833 -100.595 3.551 33421.68
42.833 -99.368 3.531 33777.24
42.833 -98.142 3.500 41505.10
42.833 -96.915 3.454 46640.59
42.833 -95.689 3.495 46055.41
42.833 -94.463 3.540 44069.29
42.833 -93.236 3.598 37675.43
42.833 -92.010 3.616 31892.34
42.833 -90.783 3.594 39972.31
42.833 -89.557 3.624 24079.33
42.833 -88.331 3.716 21935.96
42.833 -87.104 3.698 20860.93
42.833 -85.878 3.656 20426.56
42.833 -84.652 3.662 22093.63
42.833 -83.425 3.606 21043.63
42.833 -82.199 3.592 22693.12
42.833 -80.972 3.567 24061.49
42.833 -79.746 3.470 23638.50
42.833 -78.520 3.380 24234.24
42.833 -77.293 3.378 19922.39
42.833 -76.067 3.535 16005.26
42.833 -74.840 3.682 14777.83
42.833 -73.614 3.711 17273.36
42.833 -72.388 3.771 15868.33
42.833 -71.161 3.717 2725.59
42.833 -69.935 3.609 45.95
42.833 -68.708 3.547 0.00
42.833 -67.482 3.523 0.00
42.833 -66.256 3.516 0.00
42.833 -65.029 3.547 0.00
43.732 -134.219 3.621 22.98
43.732 -132.974 3.629 143.87
43.732 -131.729 3.632 0.00
43.732 -130.485 3.708 0.00
43.732 -129.240 3.782 283.72
43.732 -127.995 3.564 213.69
43.732 -126.751 3.148 43167.77
43.732 -125.506 3.007 23674.12
43.732 -124.261 3.106 16644.17
43.732 -123.017 3.239 20666.31
43.732 -121.772 3.249 24291.42
43.732 -120.527 3.297 28181.41
43.732 -119.283 3.418 32449.93
43.732 -118.038 3.513 37614.30
43.732 -116.793 3.513 45997.94
43.732 -115.549 3.456 41346.02
43.732 -114.304 3.458 43510.64
43.732 -113.059 3.411 37714.80
43.732 -111.815 3.255 41272.40
43.732 -110.570 3.202 47799.66
43.732 -109.325 3.254 41151.87
43.732 -108.081 3.398 40388.58
43.732 -106.836 3.464 38225.83
43.732 -105.591 3.557 33132.99
43.732 -104.347 3.515 34194.31
43.732 -103.102 3.469 32017.52
43.732 -101.858 3.530 31191.08
43.732 -100.613 3.509 34024.25
43.732 -99.368 3.527 39697.08
43.732 -98.124 3.582 40639.89
43.732 -96.879 3.553 48086.94
43.732 -95.634 3.496 45114.50
43.732 -94.390 3.466 37528.58
43.732 -93.145 3.508 35790.65
43.732 -91.900 3.562 30413.99
43.732 -90.656 3.554 36905.08
43.732 -89.411 3.608 25192.76
43.732 -88.166 3.708 21869.12
43.732 -86.922 3.696 20812.34
43.732 -85.677 3.628 20936.42
43.732 -84.432 3.633 15170.39
43.732 -83.188 3.649 15533.76
43.732 -81.943 3.644 15597.11
43.732 -80.698 3.591 19210.82
43.732 -79.454 3.538 20064.81
43.732 -78.209 3.451 21458.18
43.732 -76.964 3.487 20347.67
43.732 -75.720 3.646 14580.81
43.732 -74.475 3.725 15869.82
43.732 -73.230 3.713 10793.45
43.732 -71.986 3.759 9876.24
43.732 -70.741 3.683 11330.28
43.732 -69.496 3.610 1114.81
43.732 -68.252 3.576 144.86
43.732 -67.007 3.557 115.89
43.732 -65.763 3.547 0.00
43.732 -64.518 3.575 0.00
44.632 -134.754 3.658 171.84
44.632 -133.490 3.645 0.00
44.632 -132.227 3.697 0.00
44.632 -130.963 3.827 215.79
44.632 -129.699 3.849 211.78
44.632 -128.435 3.556 316.42
44.632 -127.172 3.066 2833.79
44.632 -125.908 2.948 10495.74
44.632 -124.644 3.082 12968.30
44.632 -123.380 3.255 20008.41
44.632 -122.116 3.295 22611.01
44.632 -120.853 3.374 23510.19
44.632 -119.589 3.536 27082.31
44.632 -118.325 3.532 37042.11
44.632 -117.061 3.492 40088.56
44.632 -115.797 3.491 34664.56
44.632 -114.534 3.482 35872.70
44.632 -113.270 3.510 37465.32
44.632 -112.006 3.375 33621.21
44.632 -110.742 3.299 38620.11
44.632 -109.479 3.403 32625.64
44.632 -108.215 3.499 29036.53
44.632 -106.951 3.456 30228.70
44.632 -105.687 3.604 28516.73
44.632 -104.423 3.616 26191.70
44.632 -103.160 3.485 27603.09
44.632 -101.896 3.487 27980.63
44.632 -100.632 3.546 26976.97
44.632 -99.368 3.598 29826.44
44.632 -98.104 3.631 32148.56
44.632 -96.841 3.633 39175.46
44.632 -95.577 3.605 36742.02
44.632 -94.313 3.461 35656.62
44.632 -93.049 3.404 31112.76
44.632 -91.785 3.515 30551.62
44.632 -90.522 3.575 27847.29
44.632 -89.258 3.573 28571.39
44.632 -87.994 3.595 19642.10
44.632 -86.730 3.590 18303.19
44.632 -85.467 3.580 17794.79
44.632 -84.203 3.621 15657.06
44.632 -82.939 3.667 13354.48
44.632 -81.675 3.653 13881.76
44.632 -80.411 3.605 14117.39
44.632 -79.148 3.528 18196.81
44.632 -77.884 3.460 25750.88
44.632 -76.620 3.504 21411.82
44.632 -75.356 3.728 16980.38
44.632 -74.092 3.715 12048.00
44.632 -72.829 3.627 7257.26
44.632 -71.565 3.666 4778.94
44.632 -70.301 3.663 3748.80
44.632 -69.037 3.635 3075.24
44.632 -67.773 3.620 2664.09
44.632 -66.510 3.615 127.88
44.632 -65.246 3.619 228.79
44.632 -63.982 3.639 197.98
45.531 -135.316 3.701 161.85
45.531 -134.032 3.692 0.00
45.531 -132.748 3.765 150.34
45.531 -131.464 3.877 231.24
45.531 -130.180 3.930 169.45
45.531 -128.897 3.760 338.68
45.531 -127.613 3.430 1374.94
45.531 -126.329 3.461 2099.94
45.531 -125.045 3.457 4236.59
45.531 -123.761 3.348 11288.59
45.531 -122.477 3.294 16434.15
45.531 -121.193 3.382 21120.60
45.531 -119.910 3.578 25316.63
45.531 -118.626 3.610 36765.90
45.531 -117.342 3.529 34149.15
45.531 -116.058 3.534 28751.66
45.531 -114.774 3.531 29657.91
45.531 -113.490 3.563 29622.93
45.531 -112.207 3.578 36773.32
45.531 -110.923 3.459 27846.07
45.531 -109.639 3.515 22872.39
45.531 -108.355 3.538 22546.87
45.531 -107.071 3.451 24859.67
45.531 -105.787 3.514 25685.52
45.531 -104.504 3.589 21763.60
45.531 -103.220 3.540 21008.16
45.531 -101.936 3.512 24005.94
45.531 -100.652 3.561 25161.70
45.531 -99.368 3.686 26468.01
45.531 -98.084 3.662 30625.62
45.531 -96.801 3.638 33837.17
45.531 -95.517 3.602 32943.35
45.531 -94.233 3.465 29901.08
45.531 -92.949 3.349 24518.68
45.531 -91.665 3.401 28145.23
45.531 -90.381 3.573 22702.26
45.531 -89.097 3.617 20881.20
45.531 -87.814 3.559 15590.14
45.531 -86.530 3.521 16095.90
45.531 -85.246 3.559 15615.98
45.531 -83.962 3.745 11532.09
45.531 -82.678 3.804 13310.45
45.531 -81.394 3.751 12645.17
45.531 -80.111 3.704 13813.81
45.531 -78.827 3.634 14621.65
45.531 -77.543 3.516 21280.86
45.531 -76.259 3.464 25059.16
45.531 -74.975 3.649 7381.27
45.531 -73.691 3.658 6867.71
45.531 -72.408 3.567 5279.61
45.531 -71.124 3.599 4465.27
45.531 -69.840 3.639 4263.91
45.531 -68.556 3.660 1355.33
45.531 -67.272 3.676 1314.03
45.531 -65.988 3.687 1020.09
45.531 -64.705 3.687 427.97
45.531 -63.421 3.707 439.83
46.431 -135.904 3.745 361.99
46.431 -134.600 3.759 111.15
46.431 -133.295 3.795 252.49
46.431 -131.990 3.803 152.86
46.431 -130.685 3.858 196.81
46.431 -129.380 3.892 328.67
46.431 -128.075 3.889 1272.62
46.431 -126.770 4.154 2030.43
46.431 -125.466 3.966 2937.56
46.431 -124.161 3.531 6696.89
46.431 -122.856 3.326 12457.04
46.431 -121.551 3.284 20434.62
46.431 -120.246 3.511 27481.19
46.431 -118.941 3.699 31857.57
46.431 -117.636 3.624 24117.90
46.431 -116.331 3.606 22239.17
46.431 -115.027 3.602 24451.54
46.431 -113.722 3.579 26623.62
46.431 -112.417 3.606 24070.95
46.431 -111.112 3.524 16901.19
46.431 -109.807 3.493 17705.81
46.431 -108.502 3.477 19068.17
46.431 -107.197 3.462 19137.04
46.431 -105.893 3.488 24872.38
46.431 -104.588 3.560 18061.58
46.431 -103.283 3.547 17568.35
46.431 -101.978 3.479 18061.81
46.431 -100.673 3.541 16575.35
46.431 -99.368 3.681 20049.27
46.431 -98.063 3.715 22246.86
46.431 -96.758 3.714 26695.58
46.431 -95.454 3.689 27338.10
46.431 -94.149 3.572 24528.39
46.431 -92.844 3.488 21230.13
46.431 -91.539 3.447 16679.06
46.431 -90.234 3.524 14842.24
46.431 -88.929 3.587 11495.15
46.431 -87.624 3.531 8505.09
46.431 -86.320 3.482 11350.78
46.431 -85.015 3.604 11313.84
46.431 -83.710 3.777 9925.11
46.431 -82.405 3.862 7948.13
46.431 -81.100 3.846 8210.81
46.431 -79.795 3.816 8476.43
46.431 -78.490 3.777 7374.58
46.431 -77.185 3.675 6621.88
46.431 -75.881 3.589 6392.80
46.431 -74.576 3.595 4802.72
46.431 -73.271 3.542 6230.32
46.431 -71.966 3.461 4687.01
46.431 -70.661 3.503 2696.15
46.431 -69.356 3.582 1896.53
46.431 -68.051 3.644 1081.04
46.431 -66.747 3.691 430.84
46.431 -65.442 3.707 481.32
46.431 -64.137 3.681 573.40
46.431 -62.832 3.688 223.74
47.330 -136.522 3.807 297.30
47.330 -135.195 3.812 416.86
47.330 -133.868 3.791 144.86
47.330 -132.541 3.788 140.87
47.330 -131.214 3.820 159.85
47.330 -129.887 3.891 419.58
47.330 -128.561 4.078 1453.54
47.330 -127.234 4.441 2845.95
47.330 -125.907 4.188 2718.46
47.330 -124.580 3.719 5326.36
47.330 -123.253 3.445 13462.23
47.330 -121.926 3.375 18608.41
47.330 -120.599 3.566 23304.32
47.330 -119.272 3.765 21106.63
47.330 -117.945 3.697 17804.36
47.330 -116.618 3.632 19086.48
47.330 -115.291 3.521 20868.87
47.330 -113.964 3.507 19117.52
47.330 -112.637 3.556 18238.11
47.330 -111.311 3.531 14601.09
47.330 -109.984 3.440 14027.36
47.330 -108.657 3.337 14644.04
47.330 -107.330 3.376 15354.11
47.330 -106.003 3.359 16599.20
47.330 -104.676 3.401 16842.61
47.330 -103.349 3.468 14533.88
47.330 -102.022 3.495 15392.57
47.330 -100.695 3.543 17131.43
47.330 -99.368 3.633 17158.29
47.330 -98.041 3.697 20666.17
47.330 -96.714 3.655 20497.55
47.330 -95.387 3.658 18117.16
47.330 -94.061 3.646 15580.40
47.330 -92.734 3.598 11082.52
47.330 -91.407 3.564 8123.66
47.330 -90.080 3.606 8251.50
47.330 -88.753 3.637 8754.41
47.330 -87.426 3.576 7456.96
47.330 -86.099 3.547 6259.64
47.330 -84.772 3.644 5231.37
47.330 -83.445 3.745 5072.96
47.330 -82.118 3.807 4781.21
47.330 -80.791 3.804 5184.60
47.330 -79.464 3.790 5241.70
47.330 -78.137 3.827 4627.38
47.330 -76.811 3.814 4169.04
47.330 -75.484 3.766 3474.75
47.330 -74.157 3.657 3535.70
47.330 -72.830 3.570 2811.59
47.330 -71.503 3.514 2876.30
47.330 -70.176 3.524 2045.00
47.330 -68.849 3.580 345.31
47.330 -67.522 3.634 384.79
47.330 -66.195 3.669 489.71
47.330 -64.868 3.657 402.37
47.330 -63.541 3.622 217.23
47.330 -62.214 3.699 288.55
48.229 -137.170 3.942 428.40
48.229 -135.820 3.905 130.75
48.229 -134.470 3.844 262.02
48.229 -133.120 3.837 378.91
48.229 -131.770 3.838 328.36
48.229 -130.420 3.892 943.73
48.229 -129.070 4.094 1764.03
48.229 -127.720 4.355 2804.43
48.229 -126.370 4.110 2825.14
48.229 -125.020 3.773 7289.81
48.229 -123.670 3.591 16777.53
48.229 -122.320 3.554 17137.01
48.229 -120.969 3.587 18275.20
48.229 -119.619 3.741 14578.89
48.229 -118.269 3.705 15089.72
48.229 -116.919 3.569 17508.88
48.229 -115.569 3.398 15097.85
48.229 -114.219 3.429 13985.46
48.229 -112.869 3.573 12991.20
48.229 -111.519 3.623 9421.50
48.229 -110.169 3.472 10876.58
48.229 -108.819 3.324 11405.53
48.229 -107.469 3.376 13776.90
48.229 -106.119 3.356 11060.30
48.229 -104.769 3.382 17719.18
48.229 -103.418 3.463 13557.14
48.229 -102.068 3.513 14715.11
48.229 -100.718 3.531 14337.05
48.229 -99.368 3.615 14016.33
48.229 -98.018 3.646 12110.67
48.229 -96.668 3.612 14166.00
48.229 -95.318 3.641 11504.02
48.229 -93.968 3.691 8517.52
48.229 -92.618 3.677 5794.98
48.229 -91.268 3.633 5261.09
48.229 -89.918 3.696 3938.29
48.229 -88.568 3.705 4811.14
48.229 -87.217 3.661 3473.38
48.229 -85.867 3.634 2874.38
48.229 -84.517 3.683 2658.27
48.229 -83.167 3.755 2653.44
48.229 -81.817 3.790 2872.82
48.229 -80.467 3.800 2906.40
48.229 -79.117 3.789 3164.80
48.229 -77.767 3.841 3346.91
48.229 -76.417 3.903 2314.90
48.229 -75.067 3.808 1572.40
48.229 -73.717 3.651 1892.06
48.229 -72.367 3.571 1014.95
48.229 -71.017 3.551 831.16
48.229 -69.666 3.586 264.73
48.229 -68.316 3.638 82.90
48.229 -66.966 3.667 424.57
48.229 -65.616 3.638 389.62
48.229 -64.266 3.601 368.63
48.229 -62.916 3.625 241.75
48.229 -61.566 3.786 243.51
49.129 -137.851 4.119 576.42
49.129 -136.477 4.082 167.83
49.129 -135.103 3.946 302.70
49.129 -133.728 3.868 405.59
49.129 -132.354 3.862 672.32
49.129 -130.979 3.966 1021.89
49.129 -129.605 4.137 1163.87
49.129 -128.231 4.144 3190.34
49.129 -126.856 3.923 4532.87
49.129 -125.482 3.717 15406.98
49.129 -124.107 3.634 19191.98
49.129 -122.733 3.510 14836.61
49.129 -121.359 3.518 13299.67
49.129 -119.984 3.641 13894.37
49.129 -118.610 3.584 11455.42
49.129 -117.235 3.441 10583.30
49.129 -115.861 3.304 8002.03
49.129 -114.487 3.372 8626.22
49.129 -113.112 3.533 10030.86
49.129 -111.738 3.620 8336.00
49.129 -110.363 3.510 8338.14
49.129 -108.989 3.448 9224.78
49.129 -107.615 3.489 9686.57
49.129 -106.240 3.502 10636.23
49.129 -104.866 3.491 12344.62
49.129 -103.491 3.532 14654.32
49.129 -102.117 3.616 12040.18
49.129 -100.743 3.571 11718.79
49.129 -99.368 3.605 9744.91
49.129 -97.994 3.627 8918.40
49.129 -96.619 3.673 7605.73
49.129 -95.245 3.711 5948.07
49.129 -93.871 3.745 3086.76
49.129 -92.496 3.665 2917.00
49.129 -91.122 3.546 3058.94
49.129 -89.747 3.613 3823.41
49.129 -88.373 3.733 3816.10
49.129 -86.999 3.792 3444.80
49.129 -85.624 3.814 3574.45
49.129 -84.250 3.853 3197.79
49.129 -82.875 3.874 3123.88
49.129 -81.501 3.873 2002.94
49.129 -80.127 3.863 2935.46
49.129 -78.752 3.813 2423.52
49.129 -77.378 3.831 1148.19
49.129 -76.003 3.857 1171.57
49.129 -74.629 3.715 948.08
49.129 -73.255 3.600 941.99
49.129 -71.880 3.593 513.48
49.129 -70.506 3.620 334.63
49.129 -69.131 3.653 364.65
49.129 -67.757 3.678 575.68
49.129 -66.383 3.642 234.78
49.129 -65.008 3.616 156.88
49.129 -63.634 3.650 97.76
49.129 -62.259 3.768 143.94
49.129 -60.885 3.980 466.54
50.028 -138.567 4.195 625.39
50.028 -137.167 4.152 785.48
50.028 -135.767 3.918 574.42
50.028 -134.367 3.811 526.44
50.028 -132.967 3.884 294.72
50.028 -131.567 4.015 821.09
50.028 -130.167 4.033 1400.64
50.028 -128.767 3.823 4305.62
50.028 -127.368 3.703 15947.82
50.028 -125.968 3.613 20112.80
50.028 -124.568 3.467 17389.50
50.028 -123.168 3.410 13813.27
50.028 -121.768 3.465 13747.19
50.028 -120.368 3.528 10674.95
50.028 -118.968 3.451 8730.06
50.028 -117.568 3.344 9931.13
50.028 -116.168 3.274 7972.82
50.028 -114.768 3.408 8372.78
50.028 -113.368 3.541 8335.81
50.028 -111.968 3.580 7822.42
50.028 -110.568 3.527 6473.96
50.028 -109.168 3.583 8520.43
50.028 -107.768 3.531 8454.86
50.028 -106.368 3.478 9189.99
50.028 -104.968 3.434 9759.12
50.028 -103.568 3.535 14762.85
50.028 -102.168 3.636 10343.22
50.028 -100.768 3.591 9108.69
50.028 -99.368 3.635 6492.35
50.028 -97.968 3.694 5718.25
50.028 -96.568 3.753 7744.45
50.028 -95.168 3.798 3124.19
50.028 -93.768 3.793 2534.94
50.028 -92.368 3.666 1888.01
50.028 -90.968 3.500 3088.79
50.028 -89.568 3.614 2914.04
50.028 -88.168 3.766 2759.13
50.028 -86.769 3.765 1905.16
50.028 -85.369 3.771 1808.13
50.028 -83.969 3.819 2095.81
50.028 -82.569 3.833 2549.34
50.028 -81.169 3.825 2828.23
50.028 -79.769 3.799 2018.72
50.028 -78.369 3.756 1344.61
50.028 -76.969 3.796 1122.44
50.028 -75.569 3.785 1458.55
50.028 -74.169 3.663 1347.84
50.028 -72.769 3.621 502.48
50.028 -71.369 3.656 326.66
50.028 -69.969 3.693 498.44
50.028 -68.569 3.696 389.63
50.028 -67.169 3.666 408.73
50.028 -65.769 3.667 90.15
50.028 -64.369 3.719 133.33
50.028 -62.969 3.834 163.84
50.028 -61.569 3.960 525.50
50.028 -60.169 4.038 151.86
50.927 -139.320 4.099 993.06
50.927 -137.893 4.054 848.19
50.927 -136.466 3.836 350.64
50.927 -135.040 3.777 2.00
50.927 -133.613 3.875 598.37
50.927 -132.186 3.928 642.30
50.927 -130.759 3.781 2293.33
50.927 -129.332 3.591 20610.63
50.927 -127.905 3.583 26655.76
50.927 -126.478 3.485 18073.42
50.927 -125.052 3.416 17857.81
50.927 -123.625 3.450 13230.55
50.927 -122.198 3.470 11186.56
50.927 -120.771 3.500 10139.63
50.927 -119.344 3.466 10161.38
50.927 -117.917 3.369 10368.78
50.927 -116.490 3.349 7515.45
50.927 -115.064 3.512 6872.22
50.927 -113.637 3.619 6869.57
50.927 -112.210 3.588 7460.25
50.927 -110.783 3.574 6008.84
50.927 -109.356 3.609 6745.22
50.927 -107.929 3.532 8517.54
50.927 -106.502 3.394 9690.92
50.927 -105.076 3.332 11220.24
50.927 -103.649 3.484 13054.96
50.927 -102.222 3.658 11722.03
50.927 -100.795 3.653 7598.19
50.927 -99.368 3.699 5401.40
50.927 -97.941 3.815 4130.11
50.927 -96.514 3.830 3496.64
50.927 -95.088 3.838 2831.11
50.927 -93.661 3.855 2348.49
50.927 -92.234 3.712 2699.17
50.927 -90.807 3.552 3587.35
50.927 -89.380 3.697 2274.91
50.927 -87.953 3.821 1658.29
50.927 -86.526 3.767 2093.97
50.927 -85.100 3.706 2244.67
50.927 -83.673 3.706 1547.45
50.927 -82.246 3.717 2427.46
50.927 -80.819 3.715 2448.99
50.927 -79.392 3.715 948.05
50.927 -77.965 3.758 933.88
50.927 -76.538 3.818 936.32
50.927 -75.112 3.793 1236.75
50.927 -73.685 3.712 893.99
50.927 -72.258 3.715 404.60
50.927 -70.831 3.734 516.25
50.927 -69.404 3.712 327.82
50.927 -67.977 3.704 368.14
50.927 -66.550 3.733 200.54
50.927 -65.124 3.820 259.76
50.927 -63.697 3.937 306.71
50.927 -62.270 3.996 479.53
50.927 -60.843 3.943 320.70
50.927 -59.416 3.937 749.30
51.827 -140.113 3.996 1076.00
51.827 -138.658 3.961 218.79
51.827 -137.203 3.779 21.97
51.827 -135.747 3.764 155.82
51.827 -134.292 3.870 820.15
51.827 -132.837 3.879 631.33
51.827 -131.382 3.655 29746.13
51.827 -129.927 3.591 42107.59
51.827 -128.472 3.606 21406.86
51.827 -127.016 3.582 16782.43
51.827 -125.561 3.561 14012.16
51.827 -124.106 3.635 12125.72
51.827 -122.651 3.643 9870.11
51.827 -121.196 3.637 8010.68
51.827 -119.741 3.577 7507.84
51.827 -118.285 3.442 6813.22
51.827 -116.830 3.458 5535.61
51.827 -115.375 3.586 5310.84
51.827 -113.920 3.659 5270.26
51.827 -112.465 3.581 6528.65
51.827 -111.010 3.604 7130.85
51.827 -109.554 3.633 7305.36
51.827 -108.099 3.569 8333.96
51.827 -106.644 3.414 11569.17
51.827 -105.189 3.375 12060.40
51.827 -103.734 3.506 10959.07
51.827 -102.279 3.678 12488.54
51.827 -100.823 3.714 7421.37
51.827 -99.368 3.768 4461.37
51.827 -97.913 3.845 4075.28
51.827 -96.458 3.828 2386.61
51.827 -95.003 3.814 2835.10
51.827 -93.548 3.846 2551.33
51.827 -92.092 3.753 2214.72
51.827 -90.637 3.618 3038.39
51.827 -89.182 3.759 2378.40
51.827 -87.727 3.888 1995.83
51.827 -86.272 3.804 2060.06
51.827 -84.817 3.683 1898.11
51.827 -83.361 3.677 1927.10
51.827 -81.906 3.677 2146.12
51.827 -80.451 3.690 1411.41
51.827 -78.996 3.772 1530.48
51.827 -77.541 3.886 1280.10
51.827 -76.085 3.943 1241.17
51.827 -74.630 3.917 1086.65
51.827 -73.175 3.829 1017.91
51.827 -71.720 3.801 531.99
51.827 -70.265 3.795 671.31
51.827 -68.810 3.789 177.84
51.827 -67.354 3.805 200.79
51.827 -65.899 3.877 194.82
51.827 -64.444 3.973 637.41
51.827 -62.989 3.993 673.35
51.827 -61.534 3.915 546.49
51.827 -60.079 3.844 703.35
51.827 -58.623 3.860 361.66
52.726 -140.948 3.958 432.60
52.726 -139.463 3.908 91.89
52.726 -137.978 3.768 135.84
52.726 -136.493 3.804 560.43
52.726 -135.008 3.924 733.29
52.726 -133.523 3.965 797.14
52.726 -132.038 3.809 4938.85
52.726 -130.553 3.734 10711.07
52.726 -129.068 3.694 8609.51
52.726 -127.583 3.673 8240.00
52.726 -126.098 3.629 8299.37
52.726 -124.613 3.623 8386.49
52.726 -123.128 3.590 5977.75
52.726 -121.643 3.572 6623.45
52.726 -120.158 3.512 6423.67
52.726 -118.673 3.415 6258.76
52.726 -117.188 3.498 5562.47
52.726 -115.703 3.610 5163.79
52.726 -114.218 3.702 4304.34
52.726 -112.733 3.651 7573.67
52.726 -111.248 3.679 8105.61
52.726 -109.763 3.689 7383.21
52.726 -108.278 3.630 9063.60
52.726 -106.793 3.514 12450.02
52.726 -105.308 3.485 11243.24
52.726 -103.823 3.548 11535.06
52.726 -102.338 3.678 10876.49
52.726 -100.853 3.718 8500.29
52.726 -99.368 3.732 4363.08
52.726 -97.883 3.753 2567.31
52.726 -96.398 3.753 2064.82
52.726 -94.913 3.774 2988.93
52.726 -93.428 3.863 2276.09
52.726 -91.943 3.817 2162.98
52.726 -90.458 3.615 2455.19
52.726 -88.973 3.706 1948.67
52.726 -87.488 3.797 1748.24
52.726 -86.003 3.745 2061.24
52.726 -84.518 3.645 1926.80
52.726 -83.033 3.645 1379.39
52.726 -81.548 3.678 1242.36
52.726 -80.063 3.727 1922.40
52.726 -78.578 3.828 1778.18
52.726 -77.093 3.930 1523.81
52.726 -75.608 3.961 1311.72
52.726 -74.123 3.883 1401.50
52.726 -72.638 3.815 808.23
52.726 -71.153 3.835 907.10
52.726 -69.668 3.893 615.42
52.726 -68.183 3.927 451.57
52.726 -66.698 3.956 534.49
52.726 -65.213 3.989 826.23
52.726 -63.728 3.958 533.50
52.726 -62.243 3.894 530.48
52.726 -60.758 3.831 456.57
52.726 -59.273 3.810 36.97
52.726 -57.788 3.851 332.70
53.625 -141.829 3.910 586.42
53.625 -140.313 3.872 174.83
53.625 -138.796 3.772 382.65
53.625 -137.280 3.807 636.34
53.625 -135.763 3.890 297.67
53.625 -134.247 3.972 641.29
53.625 -132.730 3.933 1288.48
53.625 -131.214 3.822 2696.85
53.625 -129.697 3.793 3171.43
53.625 -128.181 3.735 3830.06
53.625 -126.665 3.645 4555.98
53.625 -125.148 3.601 5400.51
53.625 -123.632 3.568 3579.43
53.625 -122.115 3.550 4746.32
53.625 -120.599 3.480 4865.09
53.625 -119.082 3.444 4409.69
53.625 -117.566 3.538 5089.93
53.625 -116.049 3.610 4647.21
53.625 -114.533 3.665 5036.71
53.625 -113.016 3.673 6476.35
53.625 -111.500 3.694 8117.83
53.625 -109.983 3.677 9161.65
53.625 -108.467 3.647 10732.80
53.625 -106.951 3.579 12302.15
53.625 -105.434 3.539 11263.40
53.625 -103.918 3.566 8461.26
53.625 -102.401 3.639 8614.87
53.625 -100.885 3.662 9728.03
53.625 -99.368 3.649 4203.12
53.625 -97.852 3.668 2899.91
53.625 -96.335 3.708 2470.33
53.625 -94.819 3.748 2136.81
53.625 -93.302 3.879 1622.33
53.625 -91.786 3.830 1984.98
53.625 -90.269 3.601 1821.14
53.625 -88.753 3.655 1897.19
53.625 -87.237 3.684 1893.95
53.625 -85.720 3.646 1845.45
53.625 -84.204 3.544 1283.69
53.625 -82.687 3.571 1031.74
53.625 -81.171 3.649 1319.35
53.625 -79.654 3.709 1789.55
53.625 -78.138 3.770 1319.40
53.625 -76.621 3.806 1325.45
53.625 -75.105 3.794 1334.70
53.625 -73.588 3.750 1829.58
53.625 -72.072 3.781 1092.93
53.625 -70.555 3.870 888.12
53.625 -69.039 3.972 665.33
53.625 -67.523 4.044 860.16
53.625 -66.006 4.001 681.37
53.625 -64.490 3.908 441.59
53.625 -62.973 3.840 423.57
53.625 -61.457 3.799 267.75
53.625 -59.940 3.782 110.90
53.625 -58.424 3.799 435.59
53.625 -56.907 3.820 265.72
54.525 -142.759 3.832 258.74
54.525 -141.209 3.804 317.70
54.525 -139.660 3.739 304.67
54.525 -138.110 3.768 316.70
54.525 -136.560 3.819 399.53
54.525 -135.011 3.902 604.40
54.525 -133.461 3.977 974.17
54.525 -131.911 3.836 2700.10
54.525 -130.362 3.856 2980.66
54.525 -128.812 3.754 3750.31
54.525 -127.262 3.664 3977.54
54.525 -125.713 3.646 4177.88
54.525 -124.163 3.605 3296.72
54.525 -122.613 3.591 4298.71
54.525 -121.064 3.547 3671.39
54.525 -119.514 3.541 3548.55
54.525 -117.964 3.633 4254.83
54.525 -116.415 3.608 4808.75
54.525 -114.865 3.611 5446.45
54.525 -113.315 3.702 6063.91
54.525 -111.766 3.697 8616.31
54.525 -110.216 3.675 10601.68
54.525 -108.666 3.695 12081.74
54.525 -107.117 3.653 12268.32
54.525 -105.567 3.586 9314.34
54.525 -104.017 3.566 6380.33
