37.437 -112.960 3.080 87740.22
37.437 -111.827 3.125 71450.12
37.437 -110.695 3.124 69271.06
37.437 -109.562 3.146 60758.81
37.437 -108.429 3.151 59911.87
37.437 -107.297 3.050 65478.59
37.437 -106.164 2.931 74909.44
37.437 -105.032 3.005 100833.94
37.437 -103.899 3.132 90530.17
37.437 -102.766 3.146 104370.16
37.437 -101.634 3.047 101403.68
37.437 -100.501 3.118 108304.65
37.437 -99.368 3.174 109305.74
37.437 -98.236 3.216 110081.58
37.437 -97.103 3.239 105496.20
37.437 -95.970 3.212 112878.27
37.437 -94.838 3.238 128137.73
37.437 -93.705 3.172 122629.23
37.437 -92.572 3.118 119094.33
37.437 -91.440 3.216 106733.04
37.437 -90.307 3.224 103286.09
37.437 -89.174 3.307 84556.51
37.437 -88.042 3.299 66739.93
37.437 -86.909 3.218 50849.21
37.437 -85.776 3.198 47794.92
37.437 -84.644 3.157 51255.14
37.437 -83.511 3.179 56336.34
37.437 -82.378 3.173 60812.01
37.437 -81.246 3.209 69903.49
37.437 -80.113 3.239 58880.20
37.437 -78.980 3.324 50141.39
37.437 -77.848 3.313 29462.01
37.437 -76.715 3.328 17206.35
37.437 -75.582 3.390 1402.17
37.437 -74.450 3.398 421.73
37.437 -73.317 3.282 34.51
37.437 -72.184 3.218 0.00
37.437 -71.052 3.214 0.00
37.437 -69.919 3.219 0.00
37.437 -68.786 3.220 0.00
37.437 -67.654 3.219 0.00
38.336 -131.472 3.219 0.00
38.336 -130.326 3.219 0.00
38.336 -129.179 3.220 0.00
38.336 -128.033 3.218 0.00
38.336 -126.886 3.212 0.00
38.336 -125.740 3.227 0.00
38.336 -124.593 3.291 2.40
38.336 -123.446 3.344 230.92
38.336 -122.300 3.470 14522.41
38.336 -121.153 3.658 32657.29
38.336 -120.007 3.461 33263.10
38.336 -118.860 3.155 55927.13
38.336 -117.713 2.985 63850.68
38.336 -116.567 3.011 68289.32
38.336 -115.420 3.150 68073.73
38.336 -114.274 3.180 84542.65
38.336 -113.127 3.081 88982.01
38.336 -111.981 3.031 82536.20
38.336 -110.834 3.075 72710.35
38.336 -109.687 3.189 61922.45
38.336 -108.541 3.148 62336.29
38.336 -107.394 2.981 67565.28
38.336 -106.248 2.929 67084.52
38.336 -105.101 3.017 49461.19
38.336 -103.955 3.113 47923.11
38.336 -102.808 3.194 66094.51
38.336 -101.661 3.129 67735.17
38.336 -100.515 3.140 75152.69
38.336 -99.368 3.153 82261.32
38.336 -98.222 3.211 89486.38
38.336 -97.075 3.220 86857.30
38.336 -95.928 3.204 90341.26
38.336 -94.782 3.144 93379.23
38.336 -93.635 3.234 106659.28
38.336 -92.489 3.203 108111.36
38.336 -91.342 3.223 122855.77
38.336 -90.196 3.195 103040.55
38.336 -89.049 3.216 92025.23
38.336 -87.902 3.245 71627.52
38.336 -86.756 3.202 57986.43
38.336 -85.609 3.188 54226.95
38.336 -84.463 3.183 54635.85
38.336 -83.316 3.184 57456.26
38.336 -82.170 3.158 69591.20
38.336 -81.023 3.190 68265.44
38.336 -79.876 3.294 70339.43
38.336 -78.730 3.375 65518.57
38.336 -77.583 3.360 36930.51
38.336 -76.437 3.401 13680.84
38.336 -75.290 3.459 3596.66
38.336 -74.143 3.404 483.70
38.336 -72.997 3.267 34.51
38.336 -71.850 3.211 0.00
38.336 -70.704 3.214 0.00
38.336 -69.557 3.219 0.00
38.336 -68.411 3.220 0.00
38.336 -67.264 3.219 0.00
39.236 -131.880 3.219 0.00
39.236 -130.719 3.219 0.00
39.236 -129.558 3.221 0.00
39.236 -128.397 3.221 0.00
39.236 -127.235 3.218 0.00
39.236 -126.074 3.222 0.00
39.236 -124.913 3.239 0.00
39.236 -123.752 3.197 1210.17
39.236 -122.591 3.191 16203.38
39.236 -121.430 3.271 24143.70
39.236 -120.269 3.212 50343.00
39.236 -119.107 3.179 87109.12
39.236 -117.946 3.179 56676.77
39.236 -116.785 3.248 57498.03
39.236 -115.624 3.214 65962.60
39.236 -114.463 3.224 73858.52
39.236 -113.302 3.340 79799.35
39.236 -112.141 3.161 82664.58
39.236 -110.980 3.072 72677.43
39.236 -109.818 3.052 65979.53
39.236 -108.657 3.098 69477.02
39.236 -107.496 2.992 71195.42
39.236 -106.335 2.930 65617.33
39.236 -105.174 2.971 46887.39
39.236 -104.013 3.065 39887.17
39.236 -102.852 3.172 48339.34
39.236 -101.690 3.156 48436.35
39.236 -100.529 3.106 51846.44
39.236 -99.368 3.119 61213.52
39.236 -98.207 3.158 59457.11
39.236 -97.046 3.170 73109.28
39.236 -95.885 3.249 66992.52
39.236 -94.724 3.204 72041.41
39.236 -93.563 3.218 89763.37
39.236 -92.401 3.239 84633.50
39.236 -91.240 3.224 94060.60
39.236 -90.079 3.185 78607.60
39.236 -88.918 3.177 80979.09
39.236 -87.757 3.241 75575.59
39.236 -86.596 3.233 53636.39
39.236 -85.435 3.216 52756.58
39.236 -84.273 3.214 62517.20
39.236 -83.112 3.205 59097.15
39.236 -81.951 3.150 67368.73
39.236 -80.790 3.170 55727.38
39.236 -79.629 3.209 46349.20
39.236 -78.468 3.229 33125.01
39.236 -77.307 3.304 23074.72
39.236 -76.145 3.402 16192.14
39.236 -74.984 3.456 6145.12
39.236 -73.823 3.384 551.74
39.236 -72.662 3.259 34.51
39.236 -71.501 3.204 0.00
39.236 -70.340 3.210 0.00
39.236 -69.179 3.218 0.00
39.236 -68.018 3.220 0.00
39.236 -66.856 3.220 0.00
40.135 -132.306 3.220 0.00
40.135 -131.130 3.221 0.00
40.135 -129.954 3.223 0.00
40.135 -128.777 3.208 0.00
40.135 -127.601 3.181 0.00
40.135 -126.424 3.203 0.00
40.135 -125.248 3.234 0.00
40.135 -124.072 2.997 12334.70
40.135 -122.895 2.803 34321.82
40.135 -121.719 2.926 34664.09
40.135 -120.543 3.042 73966.55
40.135 -119.366 3.203 82050.76
40.135 -118.190 3.228 58285.45
40.135 -117.014 3.338 63287.30
40.135 -115.837 3.284 67764.83
40.135 -114.661 3.359 87126.99
40.135 -113.484 3.445 84921.52
40.135 -112.308 3.210 82789.61
40.135 -111.132 2.987 71475.84
40.135 -109.955 2.893 66958.13
40.135 -108.779 2.896 72604.91
40.135 -107.603 2.938 67839.85
40.135 -106.426 2.910 53622.67
40.135 -105.250 2.909 46114.96
40.135 -104.074 2.921 38934.20
40.135 -102.897 3.030 38150.93
40.135 -101.721 3.114 38608.12
40.135 -100.545 3.115 40019.77
40.135 -99.368 3.137 47164.40
40.135 -98.192 3.107 50932.00
40.135 -97.015 3.150 64182.87
40.135 -95.839 3.209 70899.45
40.135 -94.663 3.214 70793.42
40.135 -93.486 3.220 68406.09
40.135 -92.310 3.246 71989.91
40.135 -91.134 3.267 64541.24
40.135 -89.957 3.212 50772.07
40.135 -88.781 3.202 44409.09
40.135 -87.605 3.280 51022.41
40.135 -86.428 3.320 44163.33
40.135 -85.252 3.271 62745.86
40.135 -84.076 3.205 68011.62
40.135 -82.899 3.229 52779.07
40.135 -81.723 3.198 59339.95
40.135 -80.546 3.140 48869.61
40.135 -79.370 3.137 45363.29
40.135 -78.194 3.174 33154.90
40.135 -77.017 3.203 33143.06
40.135 -75.841 3.269 15683.58
40.135 -74.665 3.340 10405.28
40.135 -73.488 3.358 1709.13
40.135 -72.312 3.284 34.51
40.135 -71.136 3.213 0.00
40.135 -69.959 3.206 0.00
40.135 -68.783 3.215 0.00
40.135 -67.607 3.219 0.00
40.135 -66.430 3.220 0.00
41.034 -132.752 3.222 0.00
41.034 -131.560 3.223 0.00
41.034 -130.368 3.208 0.00
41.034 -129.175 3.174 0.00
41.034 -127.983 3.206 0.00
41.034 -126.791 3.407 0.00
41.034 -125.598 3.546 238.84
41.034 -124.406 3.118 60641.03
41.034 -123.214 2.843 46257.51
41.034 -122.022 3.026 43226.10
41.034 -120.829 3.157 41411.93
41.034 -119.637 3.149 59021.96
41.034 -118.445 3.228 61458.48
41.034 -117.252 3.316 57159.52
41.034 -116.060 3.241 55126.42
41.034 -114.868 3.386 107164.59
41.034 -113.676 3.536 79230.34
41.034 -112.483 3.342 74123.15
41.034 -111.291 3.023 70146.25
41.034 -110.099 2.903 81420.12
41.034 -108.906 2.902 62731.80
41.034 -107.714 2.940 56343.40
41.034 -106.522 3.034 43042.27
41.034 -105.330 3.102 38137.26
41.034 -104.137 3.030 35349.41
41.034 -102.945 3.024 30065.23
41.034 -101.753 3.108 32667.43
41.034 -100.560 3.053 37234.33
41.034 -99.368 3.036 45502.08
41.034 -98.176 3.127 53207.73
41.034 -96.984 3.110 64118.17
41.034 -95.791 3.068 69932.84
41.034 -94.599 3.097 66413.11
41.034 -93.407 3.166 67619.54
41.034 -92.215 3.191 61244.93
41.034 -91.022 3.222 47976.37
41.034 -89.830 3.185 46721.54
41.034 -88.638 3.212 38714.90
41.034 -87.445 3.247 39701.71
41.034 -86.253 3.264 39878.12
41.034 -85.061 3.251 60426.68
41.034 -83.869 3.219 50070.80
41.034 -82.676 3.204 47254.19
41.034 -81.484 3.180 41890.50
41.034 -80.292 3.174 45029.14
41.034 -79.099 3.141 41252.24
41.034 -77.907 3.167 38270.06
41.034 -76.715 3.225 32376.39
41.034 -75.523 3.289 30242.68
41.034 -74.330 3.360 17519.65
41.034 -73.138 3.406 7524.62
41.034 -71.946 3.386 1132.78
41.034 -70.753 3.280 467.66
41.034 -69.561 3.213 0.00
41.034 -68.369 3.209 0.00
41.034 -67.177 3.217 0.00
41.034 -65.984 3.221 0.00
41.934 -133.219 3.222 0.00
41.934 -132.010 3.215 0.00
41.934 -130.801 3.185 0.00
41.934 -129.592 3.192 0.00
41.934 -128.383 3.368 0.00
41.934 -127.174 3.868 76.92
41.934 -125.965 4.336 1490.20
41.934 -124.756 3.757 17626.02
41.934 -123.547 3.059 28158.25
41.934 -122.338 3.022 28973.34
41.934 -121.129 3.156 31243.83
41.934 -119.920 3.168 42894.32
41.934 -118.711 3.280 45660.99
41.934 -117.502 3.312 53840.39
41.934 -116.293 3.199 66480.24
41.934 -115.085 3.185 79072.47
41.934 -113.876 3.486 66714.09
41.934 -112.667 3.603 69852.66
41.934 -111.458 3.192 85113.10
41.934 -110.249 2.989 80167.48
41.934 -109.040 2.976 65056.58
41.934 -107.831 2.951 51325.12
41.934 -106.622 2.996 43984.96
41.934 -105.413 3.123 37928.61
41.934 -104.204 3.059 31471.41
41.934 -102.995 3.045 28795.43
41.934 -101.786 3.093 30352.99
41.934 -100.577 3.100 35574.06
41.934 -99.368 3.123 48178.38
41.934 -98.159 3.181 50580.20
41.934 -96.950 3.180 62542.10
41.934 -95.741 3.068 70417.50
41.934 -94.532 3.075 69625.72
41.934 -93.323 3.140 63166.95
41.934 -92.115 3.196 50040.55
41.934 -90.906 3.214 54656.71
41.934 -89.697 3.219 38005.76
41.934 -88.488 3.261 40578.29
41.934 -87.279 3.342 40425.70
41.934 -86.070 3.337 45514.57
41.934 -84.861 3.294 47395.42
41.934 -83.652 3.253 38690.50
41.934 -82.443 3.208 35817.48
41.934 -81.234 3.193 37145.74
41.934 -80.025 3.171 38452.13
41.934 -78.816 3.121 42241.71
41.934 -77.607 3.126 37592.46
41.934 -76.398 3.173 35290.50
41.934 -75.189 3.278 29924.40
41.934 -73.980 3.395 22863.26
41.934 -72.771 3.499 12058.27
41.934 -71.562 3.520 6883.87
41.934 -70.353 3.395 4228.15
41.934 -69.145 3.254 0.00
41.934 -67.936 3.204 0.00
41.934 -66.727 3.210 0.00
41.934 -65.518 3.219 0.00
42.833 -133.707 3.210 0.00
42.833 -132.481 3.201 0.00
42.833 -131.254 3.196 0.00
42.833 -130.028 3.270 0.00
42.833 -128.802 3.551 7.99
42.833 -127.575 4.110 305.70
42.833 -126.349 4.342 10331.28
42.833 -125.122 3.704 11664.51
42.833 -123.896 3.212 11087.49
42.833 -122.670 3.051 23152.75
42.833 -121.443 3.037 24906.90
42.833 -120.217 3.070 29480.86
42.833 -118.990 3.152 38405.64
42.833 -117.764 3.340 47995.01
42.833 -116.538 3.313 61436.68
42.833 -115.311 3.190 57047.41
42.833 -114.085 3.341 61134.81
42.833 -112.858 3.382 60458.24
42.833 -111.632 3.071 65262.36
42.833 -110.406 2.897 66117.11
42.833 -109.179 2.984 61822.38
42.833 -107.953 3.058 50042.12
42.833 -106.727 3.045 44717.63
42.833 -105.500 3.120 38734.21
42.833 -104.274 3.180 35429.43
42.833 -103.047 3.169 32345.29
42.833 -101.821 3.129 33835.43
42.833 -100.595 3.133 34901.93
42.833 -99.368 3.252 39403.48
42.833 -98.142 3.274 56329.21
42.833 -96.915 3.234 59046.12
42.833 -95.689 3.209 63043.92
42.833 -94.463 3.139 63555.54
42.833 -93.236 3.149 54487.38
42.833 -92.010 3.259 44346.16
42.833 -90.783 3.303 56122.43
42.833 -89.557 3.270 39834.36
42.833 -88.331 3.295 38061.30
42.833 -87.104 3.329 44607.66
42.833 -85.878 3.285 36877.96
42.833 -84.652 3.261 40257.70
42.833 -83.425 3.266 36160.28
42.833 -82.199 3.236 34563.18
42.833 -80.972 3.210 38965.24
42.833 -79.746 3.224 37641.29
42.833 -78.520 3.114 41565.58
42.833 -77.293 3.159 38840.18
42.833 -76.067 3.223 34724.38
42.833 -74.840 3.365 31134.84
42.833 -73.614 3.474 33230.18
42.833 -72.388 3.608 28846.84
42.833 -71.161 3.645 8249.24
42.833 -69.935 3.486 1490.14
42.833 -68.708 3.319 143.85
42.833 -67.482 3.229 0.00
42.833 -66.256 3.210 0.00
42.833 -65.029 3.211 0.00
43.732 -134.219 3.193 0.00
43.732 -132.974 3.194 0.00
43.732 -131.729 3.259 0.00
43.732 -130.485 3.418 0.00
43.732 -129.240 3.668 283.72
43.732 -127.995 3.749 206.98
43.732 -126.751 3.430 36859.06
43.732 -125.506 3.097 19638.46
43.732 -124.261 2.987 17670.38
43.732 -123.017 3.034 23781.53
43.732 -121.772 3.048 26638.31
43.732 -120.527 3.042 31043.95
43.732 -119.283 3.073 36564.24
43.732 -118.038 3.256 40721.41
43.732 -116.793 3.321 49756.51
43.732 -115.549 3.233 45088.99
43.732 -114.304 3.208 50337.91
43.732 -113.059 3.156 43574.01
43.732 -111.815 3.095 43727.59
43.732 -110.570 2.937 54743.27
43.732 -109.325 2.994 46488.25
43.732 -108.081 3.122 45068.64
43.732 -106.836 3.047 41406.76
43.732 -105.591 3.093 36146.64
43.732 -104.347 3.151 34157.56
43.732 -103.102 3.178 30406.98
43.732 -101.858 3.119 30988.95
43.732 -100.613 3.121 34381.68
43.732 -99.368 3.260 44325.30
43.732 -98.124 3.285 55978.89
43.732 -96.879 3.309 68677.66
43.732 -95.634 3.349 64730.79
43.732 -94.390 3.241 57680.89
43.732 -93.145 3.189 53748.32
43.732 -91.900 3.267 40339.53
43.732 -90.656 3.333 48621.89
43.732 -89.411 3.305 41792.40
43.732 -88.166 3.332 38762.42
43.732 -86.922 3.361 38835.81
43.732 -85.677 3.319 54093.66
43.732 -84.432 3.278 39520.74
43.732 -83.188 3.274 37946.82
43.732 -81.943 3.263 31927.41
43.732 -80.698 3.240 40583.48
43.732 -79.454 3.182 42877.19
43.732 -78.209 3.124 41084.15
43.732 -76.964 3.238 42982.53
43.732 -75.720 3.367 37701.19
43.732 -74.475 3.439 37918.66
43.732 -73.230 3.444 28850.15
43.732 -71.986 3.522 24486.58
43.732 -70.741 3.574 24031.22
43.732 -69.496 3.451 4999.58
43.732 -68.252 3.348 563.65
43.732 -67.007 3.260 115.89
43.732 -65.763 3.229 0.00
43.732 -64.518 3.212 0.00
44.632 -134.754 3.199 0.00
44.632 -133.490 3.216 0.00
44.632 -132.227 3.388 0.00
44.632 -130.963 3.636 215.79
44.632 -129.699 3.769 203.57
44.632 -128.435 3.560 313.66
44.632 -127.172 3.098 2334.66
44.632 -125.908 2.869 10630.86
44.632 -124.644 2.886 14172.15
44.632 -123.380 3.077 24331.04
44.632 -122.116 3.161 24155.42
44.632 -120.853 3.184 26477.90
44.632 -119.589 3.251 28991.63
44.632 -118.325 3.258 39636.62
44.632 -117.061 3.262 43363.08
44.632 -115.797 3.266 38764.28
44.632 -114.534 3.204 40853.03
44.632 -113.270 3.135 45832.72
44.632 -112.006 3.176 41583.24
44.632 -110.742 3.091 42849.51
44.632 -109.479 3.119 35926.56
44.632 -108.215 3.276 29298.12
44.632 -106.951 3.173 29496.08
44.632 -105.687 3.119 27179.67
44.632 -104.423 3.213 24540.85
44.632 -103.160 3.247 25709.21
44.632 -101.896 3.189 27954.78
44.632 -100.632 3.123 29277.13
44.632 -99.368 3.174 35424.60
44.632 -98.104 3.329 47248.62
44.632 -96.841 3.298 64553.11
44.632 -95.577 3.277 58483.28
44.632 -94.313 3.220 54139.36
44.632 -93.049 3.153 47599.82
44.632 -91.785 3.207 43004.11
44.632 -90.522 3.235 42003.78
44.632 -89.258 3.202 42282.40
44.632 -87.994 3.337 33582.07
44.632 -86.730 3.338 33300.39
44.632 -85.467 3.269 37460.11
44.632 -84.203 3.300 37629.28
44.632 -82.939 3.427 23936.13
44.632 -81.675 3.435 22514.43
44.632 -80.411 3.329 25564.45
44.632 -79.148 3.222 33039.96
44.632 -77.884 3.109 44496.95
44.632 -76.620 3.154 42001.37
44.632 -75.356 3.377 37992.93
44.632 -74.092 3.375 35720.04
44.632 -72.829 3.336 25534.37
44.632 -71.565 3.341 19546.38
44.632 -70.301 3.366 15092.65
44.632 -69.037 3.341 9912.62
44.632 -67.773 3.323 8388.80
44.632 -66.510 3.273 23.49
44.632 -65.246 3.235 126.51
44.632 -63.982 3.225 149.53
45.531 -135.316 3.261 0.00
45.531 -134.032 3.299 0.00
45.531 -132.748 3.528 149.62
45.531 -131.464 3.736 221.83
45.531 -130.180 3.794 168.19
45.531 -128.897 3.698 338.68
45.531 -127.613 3.528 802.98
45.531 -126.329 3.503 2338.21
45.531 -125.045 3.356 4958.69
45.531 -123.761 3.171 12542.60
45.531 -122.477 3.114 19160.73
45.531 -121.193 3.189 22485.91
45.531 -119.910 3.325 28142.66
45.531 -118.626 3.298 40245.45
45.531 -117.342 3.164 39005.26
45.531 -116.058 3.214 33539.56
45.531 -114.774 3.179 33868.97
45.531 -113.490 3.199 37027.21
45.531 -112.207 3.337 49008.18
45.531 -110.923 3.197 29121.68
45.531 -109.639 3.119 21193.02
45.531 -108.355 3.205 21164.72
45.531 -107.071 3.163 23657.70
45.531 -105.787 3.083 22553.89
45.531 -104.504 3.180 18047.70
45.531 -103.220 3.225 18156.20
45.531 -101.936 3.203 24939.62
45.531 -100.652 3.238 29337.80
45.531 -99.368 3.270 36936.00
45.531 -98.084 3.380 47717.15
45.531 -96.801 3.351 52292.67
45.531 -95.517 3.248 52730.46
45.531 -94.233 3.179 46322.08
45.531 -92.949 3.111 39103.80
45.531 -91.665 3.173 42909.28
45.531 -90.381 3.267 30446.62
45.531 -89.097 3.265 36821.75
45.531 -87.814 3.313 29421.41
45.531 -86.530 3.289 29971.23
45.531 -85.246 3.210 28603.95
45.531 -83.962 3.308 25424.28
45.531 -82.678 3.466 29685.86
45.531 -81.394 3.523 21598.13
45.531 -80.111 3.514 20247.28
45.531 -78.827 3.384 23529.03
45.531 -77.543 3.177 32428.76
45.531 -76.259 3.102 41106.79
45.531 -74.975 3.361 22020.47
45.531 -73.691 3.449 23796.58
45.531 -72.408 3.356 18721.57
45.531 -71.124 3.300 15649.42
45.531 -69.840 3.281 13587.68
45.531 -68.556 3.264 4918.62
45.531 -67.272 3.264 1353.56
45.531 -65.988 3.243 965.06
45.531 -64.705 3.221 325.74
45.531 -63.421 3.252 106.81
46.431 -135.904 3.386 144.77
46.431 -134.600 3.446 102.79
46.431 -133.295 3.617 243.92
46.431 -131.990 3.673 152.86
46.431 -130.685 3.690 196.81
46.431 -129.380 3.859 311.69
46.431 -128.075 4.280 797.27
46.431 -126.770 4.546 2253.56
46.431 -125.466 4.172 4021.31
46.431 -124.161 3.433 6536.04
46.431 -122.856 3.125 14815.19
46.431 -121.551 3.142 22340.63
46.431 -120.246 3.333 29363.26
46.431 -118.941 3.387 35751.16
46.431 -117.636 3.315 27571.09
46.431 -116.331 3.322 23274.03
46.431 -115.027 3.291 27701.91
46.431 -113.722 3.236 31678.75
46.431 -112.417 3.281 25959.50
46.431 -111.112 3.134 17649.25
46.431 -109.807 3.035 15563.78
46.431 -108.502 3.134 17787.40
46.431 -107.197 3.178 18961.65
46.431 -105.893 3.083 24314.08
46.431 -104.588 3.125 15853.01
46.431 -103.283 3.194 17107.55
46.431 -101.978 3.241 21476.97
46.431 -100.673 3.213 24693.21
46.431 -99.368 3.166 28124.92
46.431 -98.063 3.292 34466.00
46.431 -96.758 3.413 42459.18
46.431 -95.454 3.311 44036.30
46.431 -94.149 3.218 34640.56
46.431 -92.844 3.163 29502.54
46.431 -91.539 3.144 23148.72
46.431 -90.234 3.183 17997.21
46.431 -88.929 3.196 15256.96
46.431 -87.624 3.230 14878.32
46.431 -86.320 3.218 19227.31
46.431 -85.015 3.220 20637.76
46.431 -83.710 3.337 17187.98
46.431 -82.405 3.430 17018.27
46.431 -81.100 3.479 13788.43
46.431 -79.795 3.385 17577.12
46.431 -78.490 3.276 17152.02
46.431 -77.185 3.168 18705.44
46.431 -75.881 3.188 17913.75
46.431 -74.576 3.319 13890.73
46.431 -73.271 3.331 18633.00
46.431 -71.966 3.283 16365.86
46.431 -70.661 3.291 13035.33
46.431 -69.356 3.249 7842.59
46.431 -68.051 3.206 7962.93
46.431 -66.747 3.228 406.41
46.431 -65.442 3.222 542.75
46.431 -64.137 3.205 359.63
46.431 -62.832 3.296 106.88
47.330 -136.522 3.566 175.85
47.330 -135.195 3.612 296.06
47.330 -133.868 3.666 144.86
47.330 -132.541 3.667 140.87
47.330 -131.214 3.728 159.85
47.330 -129.887 4.042 302.70
47.330 -128.561 4.744 1155.90
47.330 -127.234 4.943 2999.77
47.330 -125.907 4.570 3452.70
47.330 -124.580 3.630 5551.46
47.330 -123.253 3.099 14514.19
47.330 -121.926 3.090 20315.91
47.330 -120.599 3.360 23644.24
47.330 -119.272 3.538 20890.41
47.330 -117.945 3.486 20061.88
47.330 -116.618 3.373 21520.00
47.330 -115.291 3.288 22218.69
47.330 -113.964 3.203 19052.13
47.330 -112.637 3.209 17967.87
47.330 -111.311 3.135 13745.03
47.330 -109.984 3.061 12912.88
47.330 -108.657 3.132 13157.48
47.330 -107.330 3.170 15981.01
47.330 -106.003 3.076 16844.55
47.330 -104.676 3.042 16750.32
47.330 -103.349 3.144 14878.28
47.330 -102.022 3.259 19118.90
47.330 -100.695 3.204 21912.63
47.330 -99.368 3.228 20278.82
47.330 -98.041 3.319 31575.46
47.330 -96.714 3.328 32698.64
47.330 -95.387 3.235 28188.68
47.330 -94.061 3.183 25148.40
47.330 -92.734 3.142 18639.62
47.330 -91.407 3.213 12280.09
47.330 -90.080 3.263 12697.49
47.330 -88.753 3.266 12108.50
47.330 -87.426 3.360 8315.35
47.330 -86.099 3.448 5607.60
47.330 -84.772 3.546 4853.15
47.330 -83.445 3.606 4729.47
47.330 -82.118 3.535 5818.22
47.330 -80.791 3.465 6793.80
47.330 -79.464 3.444 8157.92
47.330 -78.137 3.410 7586.96
47.330 -76.811 3.400 10256.04
47.330 -75.484 3.375 8066.50
47.330 -74.157 3.391 6709.74
47.330 -72.830 3.371 5645.47
47.330 -71.503 3.336 5203.76
47.330 -70.176 3.318 6320.23
47.330 -68.849 3.255 688.29
47.330 -67.522 3.218 483.14
47.330 -66.195 3.213 629.27
47.330 -64.868 3.202 415.59
47.330 -63.541 3.213 193.57
47.330 -62.214 3.371 260.46
48.229 -137.170 3.821 390.79
48.229 -135.820 3.809 104.71
48.229 -134.470 3.790 122.62
48.229 -133.120 3.786 241.51
48.229 -131.770 3.882 192.47
48.229 -130.420 4.261 734.91
48.229 -129.070 4.794 1358.49
48.229 -127.720 4.678 3431.58
48.229 -126.370 4.322 3082.04
48.229 -125.020 3.619 7519.51
48.229 -123.670 3.170 17412.03
48.229 -122.320 3.126 17413.76
48.229 -120.969 3.423 17972.00
48.229 -119.619 3.544 14279.21
48.229 -118.269 3.470 15775.82
48.229 -116.919 3.275 18898.09
48.229 -115.569 3.112 14933.55
48.229 -114.219 3.127 13157.74
48.229 -112.869 3.196 14110.76
48.229 -111.519 3.242 9551.07
48.229 -110.169 3.235 10480.37
48.229 -108.819 3.197 9451.91
48.229 -107.469 3.160 13290.84
48.229 -106.119 3.017 11398.66
48.229 -104.769 2.939 17857.40
48.229 -103.418 3.049 12853.47
48.229 -102.068 3.275 16590.90
48.229 -100.718 3.232 16529.46
48.229 -99.368 3.212 18578.52
48.229 -98.018 3.244 16733.70
48.229 -96.668 3.269 19681.29
48.229 -95.318 3.330 21648.23
48.229 -93.968 3.352 13814.58
48.229 -92.618 3.280 5996.96
48.229 -91.268 3.260 5227.36
48.229 -89.918 3.315 3440.35
48.229 -88.568 3.306 4981.32
48.229 -87.217 3.356 3924.77
48.229 -85.867 3.386 3344.07
48.229 -84.517 3.454 2781.26
48.229 -83.167 3.426 2600.11
48.229 -81.817 3.348 3886.34
48.229 -80.467 3.339 4058.28
48.229 -79.117 3.446 4285.73
48.229 -77.767 3.569 4061.20
48.229 -76.417 3.530 3515.09
48.229 -75.067 3.463 2123.41
48.229 -73.717 3.416 2246.27
48.229 -72.367 3.313 1393.59
48.229 -71.017 3.264 945.85
48.229 -69.666 3.265 250.73
48.229 -68.316 3.233 82.90
48.229 -66.966 3.186 377.60
48.229 -65.616 3.177 341.22
48.229 -64.266 3.201 397.15
48.229 -62.916 3.282 397.57
48.229 -61.566 3.559 395.55
49.129 -137.851 4.214 601.83
49.129 -136.477 4.176 167.83
49.129 -135.103 3.945 302.70
49.129 -133.728 3.829 405.59
49.129 -132.354 3.959 672.32
49.129 -130.979 4.477 958.98
49.129 -129.605 4.642 1049.09
49.129 -128.231 4.221 3692.14
49.129 -126.856 3.866 4591.61
49.129 -125.482 3.520 15722.17
49.129 -124.107 3.251 18881.74
49.129 -122.733 3.207 14142.99
49.129 -121.359 3.418 12724.53
49.129 -119.984 3.451 13286.23
49.129 -118.610 3.305 11765.42
49.129 -117.235 3.123 11005.63
49.129 -115.861 3.093 9283.83
49.129 -114.487 3.084 8335.76
49.129 -113.112 3.168 10049.25
49.129 -111.738 3.244 8125.12
49.129 -110.363 3.208 7595.60
49.129 -108.989 3.131 7597.11
49.129 -107.615 3.108 8758.99
49.129 -106.240 3.023 10807.12
49.129 -104.866 2.894 11787.06
49.129 -103.491 2.936 13592.74
49.129 -102.117 3.162 10816.50
49.129 -100.743 3.243 11390.28
49.129 -99.368 3.285 9769.69
49.129 -97.994 3.338 9563.47
49.129 -96.619 3.384 9450.05
49.129 -95.245 3.488 7052.17
49.129 -93.871 3.486 2495.97
49.129 -92.496 3.366 2618.89
49.129 -91.122 3.259 3373.29
49.129 -89.747 3.282 3452.43
49.129 -88.373 3.266 3343.66
49.129 -86.999 3.252 3626.15
49.129 -85.624 3.178 3112.50
49.129 -84.250 3.199 2886.33
49.129 -82.875 3.209 3616.32
49.129 -81.501 3.206 2582.30
49.129 -80.127 3.271 3698.00
49.129 -78.752 3.334 2681.94
49.129 -77.378 3.355 1989.09
49.129 -76.003 3.333 1659.38
49.129 -74.629 3.307 1375.18
49.129 -73.255 3.303 1167.76
49.129 -71.880 3.237 835.17
49.129 -70.506 3.212 486.24
49.129 -69.131 3.208 325.64
49.129 -67.757 3.183 379.33
49.129 -66.383 3.175 239.79
49.129 -65.008 3.224 151.07
49.129 -63.634 3.328 89.13
49.129 -62.259 3.517 142.58
49.129 -60.885 3.920 471.94
50.028 -138.567 4.541 762.27
50.028 -137.167 4.444 920.03
50.028 -135.767 3.904 574.42
50.028 -134.367 3.753 526.44
50.028 -132.967 4.057 311.70
50.028 -131.567 4.532 703.24
50.028 -130.167 4.216 1503.63
50.028 -128.767 3.722 4628.59
50.028 -127.368 3.527 16151.02
50.028 -125.968 3.375 20042.47
50.028 -124.568 3.212 16754.11
50.028 -123.168 3.230 13725.09
50.028 -121.768 3.383 13868.14
50.028 -120.368 3.369 11244.45
50.028 -118.968 3.229 9381.11
50.028 -117.568 3.102 10136.25
50.028 -116.168 3.084 8585.64
50.028 -114.768 3.040 7860.67
50.028 -113.368 3.089 7251.64
50.028 -111.968 3.108 7436.19
50.028 -110.568 3.051 5820.14
50.028 -109.168 3.050 8050.80
50.028 -107.768 3.078 7808.31
50.028 -106.368 3.072 9672.56
50.028 -104.968 3.016 9053.67
50.028 -103.568 2.978 13486.19
50.028 -102.168 3.137 8734.45
50.028 -100.768 3.405 8131.08
50.028 -99.368 3.542 6814.83
50.028 -97.968 3.574 6287.37
50.028 -96.568 3.558 8396.52
50.028 -95.168 3.560 3248.43
50.028 -93.768 3.483 2736.85
50.028 -92.368 3.317 2112.66
50.028 -90.968 3.169 3654.75
50.028 -89.568 3.190 3039.23
50.028 -88.168 3.197 2763.16
50.028 -86.769 3.188 2661.45
50.028 -85.369 3.124 2484.59
50.028 -83.969 3.137 2654.52
50.028 -82.569 3.195 2927.84
50.028 -81.169 3.231 3200.44
50.028 -79.769 3.247 2236.51
50.028 -78.369 3.249 1404.47
50.028 -76.969 3.241 1883.55
50.028 -75.569 3.226 1635.40
50.028 -74.169 3.249 1262.62
50.028 -72.769 3.260 625.39
50.028 -71.369 3.218 337.69
50.028 -69.969 3.193 325.77
50.028 -68.569 3.193 244.79
50.028 -67.169 3.222 466.37
50.028 -65.769 3.317 81.82
50.028 -64.369 3.457 130.69
50.028 -62.969 3.645 163.84
50.028 -61.569 3.870 525.50
50.028 -60.169 4.137 166.81
50.927 -139.320 4.453 976.02
50.927 -137.893 4.322 832.79
50.927 -136.466 3.786 350.64
50.927 -135.040 3.760 2.00
50.927 -133.613 4.128 677.30
50.927 -132.186 4.267 460.51
50.927 -130.759 3.787 2517.25
50.927 -129.332 3.481 20682.86
50.927 -127.905 3.450 26872.33
50.927 -126.478 3.319 18186.06
50.927 -125.052 3.209 17513.92
50.927 -123.625 3.280 13743.16
50.927 -122.198 3.368 11617.92
50.927 -120.771 3.341 9737.73
50.927 -119.344 3.163 9347.95
50.927 -117.917 2.999 10102.86
50.927 -116.490 2.976 7231.32
50.927 -115.064 2.985 7076.14
50.927 -113.637 3.026 6257.33
50.927 -112.210 3.028 6802.61
50.927 -110.783 3.004 5562.10
50.927 -109.356 3.127 6724.90
50.927 -107.929 3.263 6813.78
50.927 -106.502 3.394 9162.06
50.927 -105.076 3.458 10350.88
50.927 -103.649 3.286 12279.74
50.927 -102.222 3.261 10455.61
50.927 -100.795 3.546 6679.15
50.927 -99.368 3.641 5689.73
50.927 -97.941 3.636 5164.84
50.927 -96.514 3.536 3431.01
50.927 -95.088 3.384 2999.95
50.927 -93.661 3.274 2325.59
50.927 -92.234 3.158 2813.37
50.927 -90.807 3.140 3395.17
50.927 -89.380 3.246 2253.83
50.927 -87.953 3.287 2332.77
50.927 -86.526 3.305 2966.64
50.927 -85.100 3.292 2659.99
50.927 -83.673 3.361 1577.90
50.927 -82.246 3.366 3044.90
50.927 -80.819 3.307 2934.00
50.927 -79.392 3.265 1172.81
50.927 -77.965 3.272 1831.12
50.927 -76.538 3.300 1267.71
50.927 -75.112 3.311 1524.44
50.927 -73.685 3.332 1037.85
50.927 -72.258 3.326 454.56
50.927 -70.831 3.290 523.55
50.927 -69.404 3.261 371.20
50.927 -67.977 3.308 434.11
50.927 -66.550 3.448 199.70
50.927 -65.124 3.657 259.76
50.927 -63.697 3.861 306.71
50.927 -62.270 3.955 496.60
50.927 -60.843 3.954 332.61
50.927 -59.416 4.053 710.20
51.827 -140.113 4.154 1069.76
51.827 -138.658 4.055 218.79
51.827 -137.203 3.714 21.97
51.827 -135.747 3.799 155.82
51.827 -134.292 4.153 838.16
51.827 -132.837 4.112 671.30
51.827 -131.382 3.694 30093.14
51.827 -129.927 3.611 42459.54
51.827 -128.472 3.538 21859.87
51.827 -127.016 3.407 16183.38
51.827 -125.561 3.401 13209.44
51.827 -124.106 3.329 11256.40
51.827 -122.651 3.282 9133.31
51.827 -121.196 3.281 6370.76
51.827 -119.741 3.224 6888.01
51.827 -118.285 3.089 6165.66
51.827 -116.830 3.076 5232.12
51.827 -115.375 3.108 4240.86
51.827 -113.920 3.203 4762.92
51.827 -112.465 3.189 6129.13
51.827 -111.010 3.171 5964.72
51.827 -109.554 3.360 6961.45
51.827 -108.099 3.583 7579.95
51.827 -106.644 3.723 10589.82
51.827 -105.189 3.708 11841.13
51.827 -103.734 3.385 10516.90
51.827 -102.279 3.233 11269.86
51.827 -100.823 3.383 6529.73
51.827 -99.368 3.428 4421.45
51.827 -97.913 3.364 4636.59
51.827 -96.458 3.246 2270.37
51.827 -95.003 3.198 3102.20
51.827 -93.548 3.196 2739.53
51.827 -92.092 3.159 2221.11
51.827 -90.637 3.217 2866.68
51.827 -89.182 3.348 2376.35
51.827 -87.727 3.411 2826.32
51.827 -86.272 3.493 2903.77
51.827 -84.817 3.532 2216.59
51.827 -83.361 3.516 2464.37
51.827 -81.906 3.460 2309.59
51.827 -80.451 3.371 1452.46
51.827 -78.996 3.333 2008.04
51.827 -77.541 3.370 2026.09
51.827 -76.085 3.426 1380.05
51.827 -74.630 3.480 1092.49
51.827 -73.175 3.496 974.05
51.827 -71.720 3.499 600.64
51.827 -70.265 3.514 822.26
51.827 -68.810 3.522 411.79
51.827 -67.354 3.592 200.79
51.827 -65.899 3.763 198.46
51.827 -64.444 3.936 654.86
51.827 -62.989 3.972 690.61
51.827 -61.534 3.905 529.09
51.827 -60.079 3.867 667.94
51.827 -58.623 3.897 361.66
52.726 -140.948 3.956 432.60
52.726 -139.463 3.877 91.89
52.726 -137.978 3.730 135.84
52.726 -136.493 3.931 702.30
52.726 -135.008 4.177 610.43
52.726 -133.523 4.057 825.11
52.726 -132.038 3.729 4588.22
52.726 -130.553 3.557 8137.61
52.726 -129.068 3.496 6882.93
52.726 -127.583 3.447 6314.70
52.726 -126.098 3.479 6450.99
52.726 -124.613 3.373 7756.16
52.726 -123.128 3.391 5116.37
52.726 -121.643 3.441 4835.71
52.726 -120.158 3.413 5510.80
52.726 -118.673 3.306 5740.62
52.726 -117.188 3.287 4978.11
52.726 -115.703 3.357 4574.56
52.726 -114.218 3.429 4172.85
52.726 -112.733 3.337 7778.59
52.726 -111.248 3.218 7264.61
52.726 -109.763 3.306 6903.14
52.726 -108.278 3.411 8970.49
52.726 -106.793 3.445 11577.58
52.726 -105.308 3.314 11125.52
52.726 -103.823 3.142 10472.58
52.726 -102.338 3.048 10451.22
52.726 -100.853 3.157 7679.43
52.726 -99.368 3.324 4416.43
52.726 -97.883 3.270 3606.05
52.726 -96.398 3.186 2096.25
52.726 -94.913 3.163 2952.90
52.726 -93.428 3.241 1896.61
52.726 -91.943 3.274 2365.74
52.726 -90.458 3.326 2833.98
52.726 -88.973 3.385 2187.77
52.726 -87.488 3.428 2513.19
52.726 -86.003 3.473 2889.35
52.726 -84.518 3.457 2194.46
52.726 -83.033 3.422 1979.77
52.726 -81.548 3.384 1302.76
52.726 -80.063 3.366 1855.89
52.726 -78.578 3.366 2254.84
52.726 -77.093 3.391 1472.51
52.726 -75.608 3.431 1450.55
52.726 -74.123 3.501 1472.44
52.726 -72.638 3.525 840.20
52.726 -71.153 3.614 1058.30
52.726 -69.668 3.765 832.76
52.726 -68.183 3.832 613.74
52.726 -66.698 3.891 551.94
52.726 -65.213 3.946 840.04
52.726 -63.728 3.902 533.50
52.726 -62.243 3.833 499.79
52.726 -60.758 3.803 433.40
52.726 -59.273 3.800 36.97
52.726 -57.788 3.831 332.70
53.625 -141.829 3.813 586.42
53.625 -140.313 3.791 174.83
53.625 -138.796 3.801 382.65
53.625 -137.280 3.976 780.21
53.625 -135.763 4.058 195.80
53.625 -134.247 4.050 1128.87
53.625 -132.730 3.988 1721.29
53.625 -131.214 3.799 2923.74
53.625 -129.697 3.637 3637.87
53.625 -128.181 3.464 4080.01
53.625 -126.665 3.428 4544.56
53.625 -125.148 3.345 5421.18
53.625 -123.632 3.373 3435.53
53.625 -122.115 3.403 3904.14
53.625 -120.599 3.248 4785.09
53.625 -119.082 3.135 4410.76
53.625 -117.566 3.124 4462.31
53.625 -116.049 3.198 4393.44
53.625 -114.533 3.241 5164.56
53.625 -113.016 3.153 6051.03
53.625 -111.500 3.076 7921.29
53.625 -109.983 3.098 8462.65
53.625 -108.467 3.165 10409.70
53.625 -106.951 3.154 12378.91
53.625 -105.434 3.111 10518.30
53.625 -103.918 3.108 8516.16
53.625 -102.401 3.085 8379.36
53.625 -100.885 3.172 8636.72
53.625 -99.368 3.423 4344.17
53.625 -97.852 3.397 2965.82
53.625 -96.335 3.311 2290.97
53.625 -94.819 3.274 2259.66
53.625 -93.302 3.317 2016.90
53.625 -91.786 3.333 2054.29
53.625 -90.269 3.364 2117.80
53.625 -88.753 3.369 2433.68
53.625 -87.237 3.343 2899.97
53.625 -85.720 3.345 2567.36
53.625 -84.204 3.299 1614.36
53.625 -82.687 3.291 1342.65
53.625 -81.171 3.283 1250.67
53.625 -79.654 3.300 2206.72
53.625 -78.138 3.306 1675.82
53.625 -76.621 3.320 1395.22
53.625 -75.105 3.339 1306.73
53.625 -73.588 3.381 1673.96
53.625 -72.072 3.423 989.40
53.625 -70.555 3.590 1113.75
53.625 -69.039 3.841 798.19
53.625 -67.523 3.975 1052.68
53.625 -66.006 3.945 681.37
53.625 -64.490 3.824 441.59
53.625 -62.973 3.742 379.81
53.625 -61.457 3.712 257.23
53.625 -59.940 3.711 110.90
53.625 -58.424 3.735 435.59
53.625 -56.907 3.714 265.72
54.525 -142.759 3.724 258.74
54.525 -141.209 3.728 317.70
54.525 -139.660 3.827 452.53
54.525 -138.110 3.885 317.70
54.525 -136.560 3.861 444.51
54.525 -135.011 3.960 1162.05
54.525 -133.461 4.119 1427.42
54.525 -131.911 3.841 2710.01
54.525 -130.362 3.675 3132.46
54.525 -128.812 3.413 4402.23
54.525 -127.262 3.376 4262.99
54.525 -125.713 3.277 4326.89
54.525 -124.163 3.317 3827.67
54.525 -122.613 3.290 3914.58
54.525 -121.064 3.091 3924.09
54.525 -119.514 3.011 3613.87
54.525 -117.964 3.053 3841.10
54.525 -116.415 3.171 4683.66
54.525 -114.865 3.171 5251.47
54.525 -113.315 3.143 5763.36
54.525 -111.766 3.215 8714.36
54.525 -110.216 3.144 10172.58
54.525 -108.666 3.130 11706.50
54.525 -107.117 3.132 12328.59
54.525 -105.567 3.185 8798.20
54.525 -104.017 3.217 7263.39
54.525 -102.468 3.181 7163.24
54.525 -100.918 3.183 7151.55
54.525 -99.368 3.382 5082.46
54.525 -97.819 3.505 2718.09
54.525 -96.269 3.508 2139.71
54.525 -94.719 3.426 2431.50
54.525 -93.170 3.375 2262.02
54.525 -91.620 3.360 1439.57
54.525 -90.070 3.318 2800.14
54.525 -88.520 3.247 2415.61
54.525 -86.971 3.253 2615.94
54.525 -85.421 3.286 1643.97
54.525 -83.871 3.263 1409.55
54.525 -82.322 3.266 1198.73
54.525 -80.772 3.253 1449.50
54.525 -79.222 3.261 2297.66
54.525 -77.673 3.283 1328.63
54.525 -76.123 3.294 905.79
54.525 -74.573 3.286 1313.60
54.525 -73.024 3.290 1087.89
54.525 -71.474 3.303 693.87
54.525 -69.924 3.422 653.22
54.525 -68.375 3.602 1223.15
54.525 -66.825 3.687 1035.24
54.525 -65.275 3.672 265.84
54.525 -63.726 3.601 286.46
54.525 -62.176 3.544 125.08
54.525 -60.626 3.601 124.86
54.525 -59.077 3.700 416.58
54.525 -57.527 3.672 186.80
54.525 -55.977 3.625 112.89
55.424 -143.742 3.659 495.54
55.424 -142.157 3.659 39.96
55.424 -140.572 3.760 564.41
55.424 -138.988 3.798 179.83
55.424 -137.403 3.820 609.32
55.424 -135.818 3.947 1506.36
55.424 -134.233 4.052 1125.28
55.424 -132.648 3.735 2904.03
55.424 -131.064 3.643 3193.35
55.424 -129.479 3.424 4156.28
55.424 -127.894 3.332 3564.36
55.424 -126.309 3.197 4017.66
55.424 -124.725 3.246 4603.16
55.424 -123.140 3.169 3406.95
55.424 -121.555 3.046 4454.61
55.424 -119.970 3.044 4596.83
55.424 -118.385 3.137 4959.83
55.424 -116.801 3.249 4802.08
55.424 -115.216 3.243 5453.13
55.424 -113.631 3.301 6774.50
55.424 -112.046 3.393 10043.87
55.424 -110.462 3.269 13305.97
55.424 -108.877 3.066 12014.43
55.424 -107.292 3.132 10120.61
55.424 -105.707 3.239 8040.71
55.424 -104.123 3.268 5478.49
55.424 -102.538 3.200 4567.02
55.424 -100.953 3.131 6354.15
55.424 -99.368 3.305 7632.31
55.424 -97.783 3.586 2313.27
55.424 -96.199 3.670 2688.29
55.424 -94.614 3.539 1412.58
55.424 -93.029 3.381 2124.22
55.424 -91.444 3.323 1749.27
55.424 -89.860 3.236 2762.23
55.424 -88.275 3.153 1848.59
55.424 -86.690 3.216 2511.58
55.424 -85.105 3.286 1353.57
55.424 -83.520 3.283 1708.21
55.424 -81.936 3.253 1106.84
55.424 -80.351 3.224 2145.99
55.424 -78.766 3.261 1708.82
55.424 -77.181 3.297 1211.70
55.424 -75.597 3.292 760.49
55.424 -74.012 3.294 1317.44
55.424 -72.427 3.281 689.88
55.424 -70.842 3.254 660.03
55.424 -69.257 3.285 874.81
55.424 -67.673 3.358 1186.84
55.424 -66.088 3.407 546.50
55.424 -64.503 3.412 446.65
55.424 -62.918 3.384 224.74
55.424 -61.334 3.418 142.44
55.424 -59.749 3.551 248.76
55.424 -58.164 3.629 117.89
55.424 -56.579 3.574 348.67
55.424 -54.995 3.534 293.73
56.324 -144.782 3.630 49.95
56.324 -143.160 3.647 453.52
56.324 -141.538 3.699 169.82
56.324 -139.916 3.776 423.57
56.324 -138.294 3.889 1128.81
56.324 -136.672 3.965 1306.15
56.324 -135.050 3.897 1062.51
56.324 -133.428 3.621 2564.37
56.324 -131.806 3.617 3735.04
56.324 -130.184 3.467 4159.33
56.324 -128.563 3.252 2742.22
56.324 -126.941 3.132 3455.60
56.324 -125.319 3.145 5535.60
56.324 -123.697 3.073 4325.57
56.324 -122.075 3.078 4994.65
56.324 -120.453 3.158 3858.05
56.324 -118.831 3.269 5185.89
56.324 -117.209 3.359 4495.74
56.324 -115.587 3.267 5808.16
56.324 -113.965 3.235 9028.37
56.324 -112.343 3.239 12674.55
56.324 -110.722 3.170 14573.19
56.324 -109.100 3.031 10474.20
56.324 -107.478 3.077 8640.15
56.324 -105.856 3.260 4526.59
56.324 -104.234 3.353 5640.09
56.324 -102.612 3.264 5461.31
56.324 -100.990 3.170 6100.56
56.324 -99.368 3.318 5897.22
56.324 -97.746 3.542 4218.71
56.324 -96.124 3.608 1821.43
56.324 -94.502 3.527 1878.99
56.324 -92.881 3.393 2916.60
56.324 -91.259 3.332 1521.48
56.324 -89.637 3.203 1835.13
56.324 -88.015 3.131 1996.85
56.324 -86.393 3.216 2074.89
56.324 -84.771 3.255 1122.40
56.324 -83.149 3.238 1469.15
56.324 -81.527 3.195 1593.01
56.324 -79.905 3.183 2026.28
56.324 -78.283 3.260 1351.65
56.324 -76.661 3.320 728.21
56.324 -75.040 3.300 1067.95
56.324 -73.418 3.321 1421.43
56.324 -71.796 3.308 602.36
56.324 -70.174 3.289 737.23
56.324 -68.552 3.291 691.28
56.324 -66.930 3.290 627.89
56.324 -65.308 3.254 468.52
56.324 -63.686 3.243 369.64
56.324 -62.064 3.256 118.90
56.324 -60.442 3.299 93.92
56.324 -58.820 3.393 74.93
56.324 -57.199 3.437 481.56
56.324 -55.577 3.379 61.94
56.324 -53.955 3.421 0.00
57.223 -145.883 3.676 144.85
57.223 -144.222 3.707 501.47
57.223 -142.561 3.727 22.97
57.223 -140.899 3.810 770.20
57.223 -139.238 3.957 1396.31
57.223 -137.577 3.937 1176.81
57.223 -135.916 3.734 1326.14
57.223 -134.254 3.507 2017.89
57.223 -132.593 3.505 3732.80
57.223 -130.932 3.401 3511.27
57.223 -129.271 3.193 3220.70
57.223 -127.609 3.111 3517.97
57.223 -125.948 3.088 5364.68
57.223 -124.287 3.036 5102.92
57.223 -122.626 3.073 4162.36
57.223 -120.964 3.192 3213.54
57.223 -119.303 3.373 4067.84
57.223 -117.642 3.393 4164.78
57.223 -115.981 3.253 7074.15
57.223 -114.319 3.195 11727.08
57.223 -112.658 3.151 15259.99
57.223 -110.997 3.174 13716.93
57.223 -109.336 3.136 9498.17
57.223 -107.674 3.110 6447.28
57.223 -106.013 3.316 5060.00
57.223 -104.352 3.483 4528.80
57.223 -102.691 3.357 6196.66
57.223 -101.029 3.200 4071.90
57.223 -99.368 3.207 4320.04
57.223 -97.707 3.372 6088.36
57.223 -96.046 3.398 3249.28
57.223 -94.384 3.401 2456.59
57.223 -92.723 3.415 2430.16
57.223 -91.062 3.417 1272.93
57.223 -89.401 3.264 1840.08
57.223 -87.739 3.148 1663.67
57.223 -86.078 3.201 1543.48
57.223 -84.417 3.210 1891.21
57.223 -82.756 3.200 1669.30
57.223 -81.094 3.180 1948.01
57.223 -79.433 3.188 1577.37
57.223 -77.772 3.274 1106.81
57.223 -76.111 3.341 932.02
57.223 -74.449 3.307 1139.86
57.223 -72.788 3.304 960.98
57.223 -71.127 3.288 607.41
57.223 -69.466 3.295 174.54
57.223 -67.805 3.304 553.32
57.223 -66.143 3.276 287.73
57.223 -64.482 3.216 142.63
57.223 -62.821 3.189 184.63
57.223 -61.160 3.193 285.74
57.223 -59.498 3.211 373.66
57.223 -57.837 3.234 100.92
57.223 -56.176 3.229 132.44
57.223 -54.515 3.207 339.79
57.223 -52.853 3.343 9.99
58.122 -147.051 3.778 590.38
58.122 -145.348 3.807 84.91
58.122 -143.645 3.829 339.65
58.122 -141.942 3.892 1186.76
58.122 -140.239 3.975 1224.43
58.122 -138.537 3.845 1307.66
58.122 -136.834 3.575 742.02
58.122 -135.131 3.369 2535.55
58.122 -133.428 3.351 4314.81
58.122 -131.725 3.340 3493.73
58.122 -130.022 3.212 4681.51
58.122 -128.319 3.167 2962.65
58.122 -126.616 3.131 4864.93
58.122 -124.913 3.059 5417.26
58.122 -123.210 3.101 3763.86
58.122 -121.507 3.207 4341.34
58.122 -119.804 3.386 3956.35
58.122 -118.101 3.393 5598.94
58.122 -116.398 3.344 9739.69
58.122 -114.695 3.317 16742.07
58.122 -112.992 3.293 15136.52
58.122 -111.289 3.379 11755.97
58.122 -109.586 3.327 6323.48
58.122 -107.883 3.271 5784.51
58.122 -106.180 3.266 4851.65
58.122 -104.477 3.370 4095.74
58.122 -102.774 3.341 4506.33
58.122 -101.071 3.181 4346.33
58.122 -99.368 3.082 4505.22
58.122 -97.665 3.219 6407.29
58.122 -95.962 3.267 4592.34
58.122 -94.259 3.292 3247.05
58.122 -92.556 3.409 1916.12
58.122 -90.853 3.509 1770.09
58.122 -89.150 3.327 1638.25
58.122 -87.447 3.161 1788.72
58.122 -85.744 3.213 1809.18
58.122 -84.041 3.230 1976.00
58.122 -82.339 3.227 1739.24
58.122 -80.636 3.228 1265.72
58.122 -78.933 3.228 1330.18
58.122 -77.230 3.302 812.17
58.122 -75.527 3.341 1401.59
58.122 -73.824 3.288 1343.55
58.122 -72.121 3.258 489.55
58.122 -70.418 3.243 323.98
58.122 -68.715 3.252 175.46
58.122 -67.012 3.276 445.57
58.122 -65.309 3.251 144.86
58.122 -63.606 3.221 176.82
58.122 -61.903 3.228 29.94
58.122 -60.200 3.229 168.63
58.122 -58.497 3.205 132.50
58.122 -56.794 3.179 284.73
58.122 -55.091 3.144 239.78
58.122 -53.388 3.140 140.89
58.122 -51.685 3.295 416.74
59.022 -148.292 3.772 807.19
59.022 -146.545 3.822 109.77
59.022 -144.798 3.871 1051.91
59.022 -143.050 3.937 1196.74
59.022 -141.303 3.894 1225.29
59.022 -139.556 3.707 807.21
59.022 -137.808 3.472 932.30
59.022 -136.061 3.353 4295.43
59.022 -134.314 3.411 6053.52
59.022 -132.567 3.490 3677.59
59.022 -130.819 3.441 3965.15
59.022 -129.072 3.370 2955.97
59.022 -127.325 3.317 5242.73
59.022 -125.577 3.230 6024.30
59.022 -123.830 3.227 4522.99
59.022 -122.083 3.278 3865.87
59.022 -120.336 3.439 3948.22
59.022 -118.588 3.446 7996.98
59.022 -116.841 3.503 16299.70
59.022 -115.094 3.490 18472.31
59.022 -113.346 3.558 12951.32
59.022 -111.599 3.510 7753.79
59.022 -109.852 3.345 5120.42
59.022 -108.105 3.211 5533.41
59.022 -106.357 3.124 3056.11
59.022 -104.610 3.146 4041.94
59.022 -102.863 3.280 3883.10
59.022 -101.115 3.251 4628.16
59.022 -99.368 3.095 5017.68
59.022 -97.621 3.135 3604.62
59.022 -95.874 3.264 5865.82
59.022 -94.126 3.322 3138.38
59.022 -92.379 3.415 1137.85
59.022 -90.632 3.459 1324.61
59.022 -88.884 3.313 1284.68
59.022 -87.137 3.221 2397.19
59.022 -85.390 3.315 1596.39
59.022 -83.643 3.330 1995.97
59.022 -81.895 3.303 1510.45
59.022 -80.148 3.264 901.11
59.022 -78.401 3.243 1435.52
59.022 -76.654 3.291 1104.88
59.022 -74.906 3.323 1007.97
59.022 -73.159 3.279 1147.94
59.022 -71.412 3.244 505.03
59.022 -69.664 3.233 78.93
59.022 -67.917 3.243 369.64
59.022 -66.170 3.245 229.63
59.022 -64.423 3.236 104.89
59.022 -62.675 3.246 11.99
59.022 -60.928 3.267 117.90
59.022 -59.181 3.261 96.91
59.022 -57.433 3.228 10.36
59.022 -55.686 3.192 90.91
59.022 -53.939 3.171 140.51
59.022 -52.192 3.172 224.79
59.022 -50.444 3.284 236.78
59.921 -149.612 3.558 1269.31
59.921 -147.818 3.619 439.50
59.921 -146.023 3.723 1013.51
59.921 -144.229 3.793 1406.54
59.921 -142.434 3.723 1082.67
59.921 -140.640 3.536 444.67
59.921 -138.845 3.392 1917.53
59.921 -137.051 3.530 2532.36
59.921 -135.257 3.764 3618.49
59.921 -133.462 3.923 3704.96
59.921 -131.668 3.835 3066.18
59.921 -129.873 3.690 3505.11
59.921 -128.079 3.563 4716.10
59.921 -126.284 3.401 6722.61
59.921 -124.490 3.354 6108.73
59.921 -122.696 3.317 3746.18
59.921 -120.901 3.345 5223.66
59.921 -119.107 3.326 14364.36
59.921 -117.312 3.279 21748.42
59.921 -115.518 3.360 14318.08
59.921 -113.724 3.415 7593.65
59.921 -111.929 3.424 6272.36
59.921 -110.135 3.294 5218.69
59.921 -108.340 3.165 3992.88
59.921 -106.546 3.073 3424.48
59.921 -104.751 3.032 4970.72
59.921 -102.957 3.163 4675.52
59.921 -101.163 3.298 4275.56
59.921 -99.368 3.223 3845.97
59.921 -97.574 3.180 4830.11
59.921 -95.779 3.342 5343.77
59.921 -93.985 3.330 2498.05
59.921 -92.191 3.357 1022.08
59.921 -90.396 3.353 1187.80
59.921 -88.602 3.262 1323.66
59.921 -86.807 3.271 2175.62
59.921 -85.013 3.420 2060.94
59.921 -83.218 3.436 2455.50
59.921 -81.424 3.366 1255.68
59.921 -79.630 3.270 1267.68
59.921 -77.835 3.244 1203.81
59.921 -76.041 3.277 737.27
59.921 -74.246 3.299 1420.12
59.921 -72.452 3.271 639.11
59.921 -70.657 3.256 329.63
59.921 -68.863 3.242 172.82
59.921 -67.069 3.250 344.67
59.921 -65.274 3.239 120.88
59.921 -63.480 3.240 64.93
59.921 -61.685 3.260 35.97
59.921 -59.891 3.267 65.95
59.921 -58.097 3.249 14.99
59.921 -56.302 3.228 75.93
59.921 -54.508 3.216 21.98
59.921 -52.713 3.217 31.33
59.921 -50.919 3.233 127.88
59.921 -49.124 3.298 302.09
60.820 -151.018 3.350 683.37
60.820 -149.173 3.363 1805.19
60.820 -147.329 3.469 1354.67
60.820 -145.484 3.524 2203.63
60.820 -143.639 3.482 1183.75
60.820 -141.795 3.311 469.72
60.820 -139.950 3.271 1829.99
60.820 -138.106 3.443 1575.94
60.820 -136.261 3.549 2892.49
60.820 -134.416 3.694 4390.47
60.820 -132.572 3.580 2730.25
60.820 -130.727 3.420 3268.11
60.820 -128.882 3.337 4011.35
60.820 -127.038 3.231 7750.20
60.820 -125.193 3.195 5227.14
60.820 -123.348 3.150 4071.49
60.820 -121.504 3.127 10473.91
60.820 -119.659 3.148 25980.77
60.820 -117.815 3.195 17099.07
60.820 -115.970 3.211 7226.35
60.820 -114.125 3.288 7088.94
60.820 -112.281 3.366 5082.75
60.820 -110.436 3.351 4704.08
60.820 -108.591 3.223 4472.52
60.820 -106.747 3.138 5084.78
60.820 -104.902 3.099 3502.86
60.820 -103.057 3.110 2937.05
60.820 -101.213 3.250 3806.83
60.820 -99.368 3.350 4608.28
60.820 -97.524 3.272 4536.19
60.820 -95.679 3.345 3275.32
60.820 -93.834 3.323 5554.54
60.820 -91.990 3.323 1085.67
60.820 -90.145 3.298 1276.75
60.820 -88.300 3.227 1082.89
60.820 -86.456 3.245 2450.08
60.820 -84.611 3.386 3241.72
60.820 -82.766 3.446 2246.64
60.820 -80.922 3.397 728.26
60.820 -79.077 3.315 1452.77
60.820 -77.233 3.267 1174.15
60.820 -75.388 3.261 868.90
60.820 -73.543 3.268 1154.07
60.820 -71.699 3.280 528.43
60.820 -69.854 3.279 207.76
60.820 -68.009 3.258 426.59
60.820 -66.165 3.242 175.83
60.820 -64.320 3.238 100.89
60.820 -62.475 3.252 6.99
60.820 -60.631 3.262 94.92
60.820 -58.786 3.248 0.00
60.820 -56.942 3.232 0.00
60.820 -55.097 3.226 0.00
60.820 -53.252 3.230 54.95
60.820 -51.408 3.240 59.94
60.820 -49.563 3.258 0.00
60.820 -47.718 3.289 169.74
61.720 -152.518 3.302 498.27
61.720 -150.620 3.306 540.13
61.720 -148.722 3.340 2660.46
61.720 -146.824 3.338 2590.00
61.720 -144.926 3.272 2742.03
61.720 -143.027 3.156 2063.23
61.720 -141.129 3.205 1669.81
61.720 -139.231 3.300 1877.80
61.720 -137.333 3.273 2713.90
61.720 -135.434 3.383 4117.25
61.720 -133.536 3.312 3049.82
61.720 -131.638 3.155 5103.16
61.720 -129.740 3.122 3650.92
61.720 -127.842 3.080 8005.68
61.720 -125.943 3.102 4708.75
61.720 -124.045 3.074 6382.29
61.720 -122.147 3.052 30862.76
61.720 -120.249 3.136 21491.36
61.720 -118.350 3.195 7492.53
61.720 -116.452 3.240 5190.71
61.720 -114.554 3.325 5736.36
61.720 -112.656 3.437 5066.49
61.720 -110.758 3.402 5638.31
61.720 -108.859 3.223 4914.97
61.720 -106.961 3.202 3765.20
61.720 -105.063 3.242 3036.22
61.720 -103.165 3.218 2604.91
61.720 -101.266 3.207 2959.05
61.720 -99.368 3.294 4109.39
61.720 -97.470 3.310 4207.50
61.720 -95.572 3.342 3401.74
61.720 -93.674 3.386 4561.98
61.720 -91.775 3.342 2997.67
61.720 -89.877 3.261 1370.65
61.720 -87.979 3.169 1341.66
61.720 -86.081 3.201 2813.73
61.720 -84.182 3.330 2590.40
61.720 -82.284 3.389 1325.63
61.720 -80.386 3.381 1132.84
61.720 -78.488 3.329 1701.85
61.720 -76.590 3.289 841.31
61.720 -74.691 3.262 848.52
61.720 -72.793 3.259 858.08
61.720 -70.895 3.307 591.46
61.720 -68.997 3.289 318.67
61.720 -67.098 3.258 313.70
61.720 -65.200 3.241 130.87
61.720 -63.302 3.253 13.99
61.720 -61.404 3.264 101.92
61.720 -59.505 3.251 0.00
61.720 -57.607 3.235 0.00
61.720 -55.709 3.230 0.00
61.720 -53.811 3.236 0.00
61.720 -51.913 3.240 0.00
61.720 -50.014 3.239 123.86
61.720 -48.116 3.244 224.75
61.720 -46.218 3.263 102.89
62.619 -154.123 3.289 255.32
62.619 -152.167 3.294 570.65
62.619 -150.212 3.322 692.08
62.619 -148.256 3.303 1471.95
62.619 -146.301 3.239 2346.35
62.619 -144.345 3.168 3598.78
62.619 -142.390 3.265 2955.36
62.619 -140.434 3.250 2914.30
62.619 -138.479 3.147 4733.15
62.619 -136.523 3.217 4374.94
62.619 -134.567 3.196 4090.67
62.619 -132.612 3.034 5452.46
62.619 -130.656 2.985 5642.37
62.619 -128.701 3.003 6804.29
62.619 -126.745 3.046 5201.90
62.619 -124.790 3.071 34760.30
62.619 -122.834 3.085 29130.55
62.619 -120.879 3.146 7857.39
62.619 -118.923 3.251 5102.40
62.619 -116.968 3.333 5534.46
62.619 -115.012 3.388 6238.72
62.619 -113.057 3.398 4477.96
62.619 -111.101 3.355 4706.76
62.619 -109.146 3.245 5209.94
62.619 -107.190 3.263 3914.15
62.619 -105.235 3.367 3183.82
62.619 -103.279 3.372 2117.87
62.619 -101.324 3.256 1958.64
62.619 -99.368 3.157 2515.64
62.619 -97.413 3.189 3360.47
62.619 -95.457 3.275 4419.27
62.619 -93.502 3.468 3015.57
62.619 -91.546 3.366 6776.37
62.619 -89.591 3.232 1483.55
62.619 -87.635 3.142 1907.23
62.619 -85.680 3.190 3396.31
62.619 -83.724 3.310 1605.39
62.619 -81.769 3.322 1152.21
62.619 -79.813 3.292 703.59
62.619 -77.858 3.277 1484.09
62.619 -75.902 3.289 1061.88
62.619 -73.946 3.279 1322.63
62.619 -71.991 3.279 456.53
62.619 -70.035 3.342 499.43
62.619 -68.080 3.301 435.58
62.619 -66.124 3.252 180.82
62.619 -64.169 3.248 61.94
62.619 -62.213 3.263 80.93
