50.028 -93.768 3.936 1266.70
50.028 -92.368 3.964 1297.60
50.028 -90.968 3.945 1703.21
50.028 -89.568 3.989 1610.33
50.028 -88.168 4.025 1795.12
50.028 -86.769 4.005 1214.72
50.028 -85.369 4.037 1233.68
50.028 -83.969 4.030 1081.85
50.028 -82.569 3.988 907.06
50.028 -81.169 3.989 1169.80
50.028 -79.769 4.009 1076.14
50.028 -78.369 3.976 609.37
50.028 -76.969 3.920 410.17
50.028 -75.569 3.845 266.74
50.028 -74.169 3.791 526.75
50.028 -72.769 3.822 115.87
50.028 -71.369 3.858 335.69
50.028 -69.969 3.838 301.67
50.028 -68.569 3.798 218.80
50.028 -67.169 3.793 258.74
50.028 -65.769 3.795 72.93
50.028 -64.369 3.820 127.88
50.028 -62.969 3.841 163.84
50.028 -61.569 3.859 525.50
50.028 -60.169 3.895 151.86
50.927 -139.320 3.967 913.13
50.927 -137.893 3.965 805.23
50.927 -136.466 3.872 350.64
50.927 -135.040 3.825 2.00
50.927 -133.613 3.823 651.34
50.927 -132.186 3.781 535.43
50.927 -130.759 3.706 1591.63
50.927 -129.332 3.702 18923.23
50.927 -127.905 3.711 24933.36
50.927 -126.478 3.780 16938.41
50.927 -125.052 3.702 15144.82
50.927 -123.625 3.597 11542.86
50.927 -122.198 3.553 9194.76
50.927 -120.771 3.550 7891.72
50.927 -119.344 3.548 7586.70
50.927 -117.917 3.590 6958.94
50.927 -116.490 3.742 5441.02
50.927 -115.064 3.832 4403.77
50.927 -113.637 3.876 4151.96
50.927 -112.210 3.945 3541.60
50.927 -110.783 3.935 3037.70
50.927 -109.356 3.911 3035.89
50.927 -107.929 3.853 5745.01
50.927 -106.502 3.832 5583.90
50.927 -105.076 3.823 7426.62
50.927 -103.649 3.839 9177.94
50.927 -102.222 3.909 9040.20
50.927 -100.795 4.006 5998.88
50.927 -99.368 4.021 4072.82
50.927 -97.941 3.972 3025.06
50.927 -96.514 3.969 1834.15
50.927 -95.088 3.931 1478.44
50.927 -93.661 3.922 1575.32
50.927 -92.234 3.911 1362.53
50.927 -90.807 3.910 1929.00
50.927 -89.380 3.983 1176.00
50.927 -87.953 3.982 871.16
50.927 -86.526 3.957 1401.50
50.927 -85.100 4.010 1366.53
50.927 -83.673 4.034 852.14
50.927 -82.246 4.013 1111.82
50.927 -80.819 4.018 731.22
50.927 -79.392 4.004 550.43
50.927 -77.965 3.934 210.79
50.927 -76.538 3.858 542.49
50.927 -75.112 3.805 221.76
50.927 -73.685 3.793 430.51
50.927 -72.258 3.819 349.65
50.927 -70.831 3.832 435.57
50.927 -69.404 3.823 172.84
50.927 -67.977 3.818 249.76
50.927 -66.550 3.823 198.80
50.927 -65.124 3.838 259.76
50.927 -63.697 3.862 306.71
50.927 -62.270 3.876 479.53
50.927 -60.843 3.875 311.71
50.927 -59.416 3.896 651.39
51.827 -140.113 3.944 1059.01
51.827 -138.658 3.932 218.79
51.827 -137.203 3.847 21.97
51.827 -135.747 3.830 155.82
51.827 -134.292 3.836 822.18
51.827 -132.837 3.748 489.50
51.827 -131.382 3.607 28243.86
51.827 -129.927 3.581 39420.46
51.827 -128.472 3.545 18976.96
51.827 -127.016 3.486 13820.82
51.827 -125.561 3.424 10820.84
51.827 -124.106 3.402 8898.34
51.827 -122.651 3.476 6574.49
51.827 -121.196 3.558 4582.69
51.827 -119.741 3.593 3718.49
51.827 -118.285 3.632 3996.18
51.827 -116.830 3.775 3111.91
51.827 -115.375 3.880 2450.58
51.827 -113.920 3.932 3135.56
51.827 -112.465 3.990 2922.89
51.827 -111.010 3.936 3348.10
51.827 -109.554 3.920 3953.31
51.827 -108.099 3.917 5853.46
51.827 -106.644 3.924 7557.95
51.827 -105.189 3.937 7670.33
51.827 -103.734 3.951 9236.78
51.827 -102.279 3.963 9225.01
51.827 -100.823 3.996 5625.18
51.827 -99.368 3.960 3628.25
51.827 -97.913 3.905 2151.84
51.827 -96.458 3.895 1145.83
51.827 -95.003 3.916 1805.15
51.827 -93.548 3.935 1478.47
51.827 -92.092 3.973 1261.68
51.827 -90.637 4.009 1616.74
51.827 -89.182 4.054 1106.79
51.827 -87.727 3.978 1487.40
51.827 -86.272 3.927 1265.65
51.827 -84.817 3.990 1009.94
51.827 -83.361 4.051 1173.78
51.827 -81.906 4.039 1009.25
51.827 -80.451 4.021 525.44
51.827 -78.996 3.963 622.39
51.827 -77.541 3.874 281.72
51.827 -76.085 3.804 429.58
51.827 -74.630 3.797 679.32
51.827 -73.175 3.821 610.35
51.827 -71.720 3.830 437.59
51.827 -70.265 3.838 288.71
51.827 -68.810 3.845 223.80
51.827 -67.354 3.859 200.79
51.827 -65.899 3.864 194.82
51.827 -64.444 3.878 637.41
51.827 -62.989 3.880 673.35
51.827 -61.534 3.874 509.52
51.827 -60.079 3.867 615.43
51.827 -58.623 3.882 361.66
52.726 -140.948 3.907 432.60
52.726 -139.463 3.877 91.89
52.726 -137.978 3.827 135.84
52.726 -136.493 3.840 641.37
52.726 -135.008 3.788 654.38
52.726 -133.523 3.648 466.53
52.726 -132.038 3.456 2805.59
52.726 -130.553 3.389 6653.30
52.726 -129.068 3.462 5744.56
52.726 -127.583 3.533 5628.90
52.726 -126.098 3.521 5311.69
52.726 -124.613 3.543 5462.99
52.726 -123.128 3.632 4258.56
52.726 -121.643 3.709 3585.72
52.726 -120.158 3.744 3199.60
52.726 -118.673 3.774 3812.56
52.726 -117.188 3.855 3547.03
52.726 -115.703 3.981 3024.68
52.726 -114.218 4.028 2780.85
52.726 -112.733 4.036 3818.14
52.726 -111.248 3.974 4438.26
52.726 -109.763 3.906 4723.86
52.726 -108.278 3.912 5390.94
52.726 -106.793 3.905 7579.09
52.726 -105.308 3.956 8404.21
52.726 -103.823 3.993 9423.24
52.726 -102.338 4.014 8202.79
52.726 -100.853 4.002 6481.68
52.726 -99.368 3.973 2682.28
52.726 -97.883 3.919 1255.76
52.726 -96.398 3.901 1321.65
52.726 -94.913 3.899 1176.75
52.726 -93.428 3.949 1088.84
52.726 -91.943 4.065 1076.86
52.726 -90.458 4.123 1788.06
52.726 -88.973 4.125 1268.61
52.726 -87.488 3.981 1211.79
52.726 -86.003 3.924 1047.91
52.726 -84.518 3.995 1265.81
52.726 -83.033 4.040 424.58
52.726 -81.548 4.023 461.47
52.726 -80.063 4.006 495.48
52.726 -78.578 3.915 789.04
52.726 -77.093 3.844 678.33
52.726 -75.608 3.825 546.47
52.726 -74.123 3.851 714.23
52.726 -72.638 3.874 662.37
52.726 -71.153 3.879 578.45
52.726 -69.668 3.880 391.62
52.726 -68.183 3.886 563.48
52.726 -66.698 3.879 534.49
52.726 -65.213 3.872 826.23
52.726 -63.728 3.868 533.50
52.726 -62.243 3.859 463.55
52.726 -60.758 3.850 396.63
52.726 -59.273 3.866 36.97
52.726 -57.788 3.879 332.70
53.625 -141.829 3.852 586.42
53.625 -140.313 3.833 174.83
53.625 -138.796 3.832 382.65
53.625 -137.280 3.861 637.38
53.625 -135.763 3.808 184.80
53.625 -134.247 3.708 357.63
53.625 -132.730 3.604 666.36
53.625 -131.214 3.623 2306.69
53.625 -129.697 3.679 2775.30
53.625 -128.181 3.706 2801.11
53.625 -126.665 3.668 2814.08
53.625 -125.148 3.637 3394.64
53.625 -123.632 3.694 2118.86
53.625 -122.115 3.799 2073.13
53.625 -120.599 3.858 2087.96
53.625 -119.082 3.885 2419.64
53.625 -117.566 3.942 2881.06
53.625 -116.049 4.023 2436.38
53.625 -114.533 4.055 2668.42
53.625 -113.016 4.001 3597.19
53.625 -111.500 3.949 4564.32
53.625 -109.983 3.869 5185.67
53.625 -108.467 3.886 5894.43
53.625 -106.951 3.942 7739.42
53.625 -105.434 3.989 9073.61
53.625 -103.918 4.020 7154.58
53.625 -102.401 4.054 6889.92
53.625 -100.885 4.069 6001.47
53.625 -99.368 4.050 2526.36
53.625 -97.852 3.990 2003.87
53.625 -96.335 3.933 920.98
53.625 -94.819 3.917 957.97
53.625 -93.302 4.005 894.01
53.625 -91.786 4.082 1278.67
53.625 -90.269 4.089 1307.65
53.625 -88.753 4.071 1042.93
53.625 -87.237 3.958 1230.80
53.625 -85.720 3.936 1273.67
53.625 -84.204 4.001 741.25
53.625 -82.687 4.050 357.65
53.625 -81.171 4.025 539.40
53.625 -79.654 3.986 356.61
53.625 -78.138 3.909 279.72
53.625 -76.621 3.868 668.55
53.625 -75.105 3.867 808.20
53.625 -73.588 3.884 1122.32
53.625 -72.072 3.910 632.38
53.625 -70.555 3.943 539.47
53.625 -69.039 3.953 431.58
53.625 -67.523 3.939 942.10
53.625 -66.006 3.888 681.37
53.625 -64.490 3.859 441.59
53.625 -62.973 3.840 326.67
53.625 -61.457 3.830 236.78
53.625 -59.940 3.841 110.90
53.625 -58.424 3.871 435.59
53.625 -56.907 3.873 265.72
54.525 -142.759 3.854 258.74
54.525 -141.209 3.855 317.70
54.525 -139.660 3.867 396.60
54.525 -138.110 3.828 227.80
54.525 -136.560 3.798 217.74
54.525 -135.011 3.760 382.66
54.525 -133.461 3.741 650.62
54.525 -131.911 3.849 2249.31
54.525 -130.362 3.914 2336.14
54.525 -128.812 3.862 2575.36
54.525 -127.262 3.738 2541.39
54.525 -125.713 3.686 2859.11
54.525 -124.163 3.742 1787.73
54.525 -122.613 3.897 1585.53
54.525 -121.064 3.999 1526.54
54.525 -119.514 4.020 1637.44
54.525 -117.964 4.027 1815.22
54.525 -116.415 4.053 2542.30
54.525 -114.865 4.081 2931.95
54.525 -113.315 4.019 3352.56
54.525 -111.766 3.963 4440.41
54.525 -110.216 3.926 6158.63
54.525 -108.666 3.921 6830.83
54.525 -107.117 4.000 9031.75
54.525 -105.567 3.999 7720.97
54.525 -104.017 4.027 4853.96
54.525 -102.468 4.072 5698.25
54.525 -100.918 4.096 4620.97
54.525 -99.368 4.078 3737.29
54.525 -97.819 3.996 1663.19
54.525 -96.269 3.928 1268.64
54.525 -94.719 3.946 956.96
54.525 -93.170 3.991 1019.93
54.525 -91.620 4.017 832.13
54.525 -90.070 4.023 1673.24
54.525 -88.520 4.030 1209.78
54.525 -86.971 3.947 1155.84
54.525 -85.421 3.935 618.24
54.525 -83.871 4.016 593.38
54.525 -82.322 4.053 420.54
54.525 -80.772 4.024 304.66
54.525 -79.222 4.004 479.51
54.525 -77.673 3.938 304.70
54.525 -76.123 3.879 578.45
54.525 -74.573 3.870 512.46
54.525 -73.024 3.899 495.46
54.525 -71.474 3.948 566.42
54.525 -69.924 4.005 467.32
54.525 -68.375 4.029 865.02
54.525 -66.825 3.975 543.84
54.525 -65.275 3.900 250.77
54.525 -63.726 3.849 229.77
54.525 -62.176 3.829 121.87
54.525 -60.626 3.843 124.86
54.525 -59.077 3.883 416.58
54.525 -57.527 3.891 186.80
54.525 -55.977 3.880 112.89
55.424 -143.742 3.858 495.54
55.424 -142.157 3.865 39.96
55.424 -140.572 3.863 414.58
55.424 -138.988 3.791 226.78
55.424 -137.403 3.771 147.83
55.424 -135.818 3.756 641.42
55.424 -134.233 3.750 600.42
55.424 -132.648 3.859 2474.37
55.424 -131.064 3.888 1966.00
55.424 -129.479 3.786 2238.56
55.424 -127.894 3.660 1935.05
55.424 -126.309 3.665 2635.39
55.424 -124.725 3.721 2035.48
55.424 -123.140 3.891 1456.49
55.424 -121.555 4.032 1675.44
55.424 -119.970 4.072 2356.77
55.424 -118.385 4.085 1843.07
55.424 -116.801 4.071 2840.07
55.424 -115.216 4.039 3211.59
55.424 -113.631 4.001 3537.37
55.424 -112.046 3.981 4862.02
55.424 -110.462 3.968 6889.89
55.424 -108.877 3.963 9428.21
55.424 -107.292 3.966 7179.35
55.424 -105.707 3.987 6248.36
55.424 -104.123 3.981 3621.33
55.424 -102.538 4.001 3339.53
55.424 -100.953 4.015 4096.74
55.424 -99.368 4.054 5592.31
55.424 -97.783 4.015 1970.83
55.424 -96.199 3.980 1352.63
55.424 -94.614 3.928 714.27
55.424 -93.029 3.894 716.23
55.424 -91.444 3.931 731.27
55.424 -89.860 3.989 2087.82
55.424 -88.275 4.022 737.22
55.424 -86.690 3.964 823.20
55.424 -85.105 3.966 902.03
55.424 -83.520 4.033 699.25
55.424 -81.936 4.053 447.50
55.424 -80.351 4.024 305.64
55.424 -78.766 3.974 567.41
55.424 -77.181 3.905 309.69
55.424 -75.597 3.845 315.68
55.424 -74.012 3.834 610.31
55.424 -72.427 3.868 366.61
55.424 -70.842 3.905 420.52
55.424 -69.257 3.913 412.57
55.424 -67.673 3.898 613.39
55.424 -66.088 3.856 310.69
55.424 -64.503 3.827 335.45
55.424 -62.918 3.807 224.74
55.424 -61.334 3.818 142.44
55.424 -59.749 3.869 248.76
55.424 -58.164 3.905 117.89
55.424 -56.579 3.893 348.67
55.424 -54.995 3.857 293.73
56.324 -144.782 3.860 49.95
56.324 -143.160 3.870 376.61
56.324 -141.538 3.825 91.91
56.324 -139.916 3.768 255.75
56.324 -138.294 3.769 287.70
56.324 -136.672 3.748 775.26
56.324 -135.050 3.719 871.13
56.324 -133.428 3.781 1729.36
56.324 -131.806 3.802 2083.99
56.324 -130.184 3.719 2030.84
56.324 -128.563 3.628 1610.33
56.324 -126.941 3.684 1600.66
56.324 -125.319 3.732 2349.84
56.324 -123.697 3.871 1798.42
56.324 -122.075 3.995 1897.78
56.324 -120.453 4.089 2433.53
56.324 -118.831 4.145 2002.85
56.324 -117.209 4.044 2078.92
56.324 -115.587 3.953 3906.93
56.324 -113.965 3.978 5277.46
56.324 -112.343 4.009 6761.09
56.324 -110.722 4.013 8600.01
56.324 -109.100 4.010 8596.17
56.324 -107.478 3.983 6379.37
56.324 -105.856 3.989 3341.96
56.324 -104.234 3.968 3861.85
56.324 -102.612 3.951 2977.84
56.324 -100.990 3.927 4621.16
56.324 -99.368 4.010 4784.57
56.324 -97.746 4.079 3402.05
56.324 -96.124 4.017 1056.93
56.324 -94.502 3.917 462.49
56.324 -92.881 3.854 1354.59
56.324 -91.259 3.919 1193.79
56.324 -89.637 3.980 1184.72
56.324 -88.015 4.026 478.54
56.324 -86.393 3.964 786.20
56.324 -84.771 3.947 620.32
56.324 -83.149 3.997 366.61
56.324 -81.527 4.019 591.37
56.324 -79.905 3.967 252.04
56.324 -78.283 3.889 411.60
56.324 -76.661 3.837 220.78
56.324 -75.040 3.805 325.77
56.324 -73.418 3.809 633.27
56.324 -71.796 3.839 416.57
56.324 -70.174 3.847 379.59
56.324 -68.552 3.819 355.62
56.324 -66.930 3.774 545.44
56.324 -65.308 3.768 328.70
56.324 -63.686 3.772 169.83
56.324 -62.064 3.784 4.00
56.324 -60.442 3.808 26.98
56.324 -58.820 3.846 74.93
56.324 -57.199 3.869 371.88
56.324 -55.577 3.843 61.94
56.324 -53.955 3.827 0.00
57.223 -145.883 3.871 144.85
57.223 -144.222 3.865 341.66
57.223 -142.561 3.794 0.00
57.223 -140.899 3.761 363.65
57.223 -139.238 3.775 562.42
57.223 -137.577 3.741 736.29
57.223 -135.916 3.700 1070.23
57.223 -134.254 3.748 1455.45
57.223 -132.593 3.787 1578.33
57.223 -130.932 3.727 1658.27
57.223 -129.271 3.666 1773.13
57.223 -127.609 3.729 1360.11
57.223 -125.948 3.752 2508.55
57.223 -124.287 3.863 2515.12
57.223 -122.626 3.985 2127.95
57.223 -120.964 4.127 1508.46
57.223 -119.303 4.162 1755.12
57.223 -117.642 4.039 2695.28
57.223 -115.981 3.959 4612.28
57.223 -114.319 3.990 7067.63
57.223 -112.658 4.045 9162.48
57.223 -110.997 4.068 9807.89
57.223 -109.336 4.032 6869.88
57.223 -107.674 4.004 3988.98
57.223 -106.013 3.980 2811.01
57.223 -104.352 3.990 4333.98
57.223 -102.691 3.950 3164.15
57.223 -101.029 3.913 3680.10
57.223 -99.368 3.957 3484.40
57.223 -97.707 4.056 4481.59
57.223 -96.046 4.003 1850.10
57.223 -94.384 3.951 1181.78
57.223 -92.723 3.912 1309.64
57.223 -91.062 3.982 662.30
57.223 -89.401 4.038 1174.75
57.223 -87.739 4.022 541.44
57.223 -86.078 3.938 587.41
57.223 -84.417 3.924 691.23
57.223 -82.756 3.951 524.43
57.223 -81.094 3.972 468.50
57.223 -79.433 3.923 282.70
57.223 -77.772 3.842 309.67
57.223 -76.111 3.798 329.66
57.223 -74.449 3.795 316.65
57.223 -72.788 3.831 346.65
57.223 -71.127 3.854 289.72
57.223 -69.466 3.830 15.98
57.223 -67.805 3.786 383.63
57.223 -66.143 3.760 300.71
57.223 -64.482 3.766 183.80
57.223 -62.821 3.770 153.84
57.223 -61.160 3.774 94.92
57.223 -59.498 3.786 177.85
57.223 -57.837 3.798 6.99
57.223 -56.176 3.805 0.00
57.223 -54.515 3.796 89.25
57.223 -52.853 3.808 9.99
58.122 -147.051 3.887 458.53
58.122 -145.348 3.855 49.95
58.122 -143.645 3.778 107.90
58.122 -141.942 3.764 645.35
58.122 -140.239 3.780 526.50
58.122 -138.537 3.738 875.09
58.122 -136.834 3.724 927.05
58.122 -135.131 3.790 1430.48
58.122 -133.428 3.874 1907.99
58.122 -131.725 3.825 1733.35
58.122 -130.022 3.749 2121.70
58.122 -128.319 3.785 1749.97
58.122 -126.616 3.816 2669.32
58.122 -124.913 3.896 1664.30
58.122 -123.210 4.024 2037.12
58.122 -121.507 4.173 1985.99
58.122 -119.804 4.159 1836.12
58.122 -118.101 4.045 3006.89
58.122 -116.398 3.979 5543.27
58.122 -114.695 4.016 9908.81
58.122 -112.992 4.079 12031.48
58.122 -111.289 4.067 7969.78
58.122 -109.586 4.021 4274.66
58.122 -107.883 3.995 2850.10
58.122 -106.180 3.989 3088.72
58.122 -104.477 3.985 2925.88
58.122 -102.774 3.980 3880.84
58.122 -101.071 3.939 2972.26
58.122 -99.368 3.882 3732.08
58.122 -97.665 3.953 4727.10
58.122 -95.962 3.978 2836.57
58.122 -94.259 3.994 1707.28
58.122 -92.556 4.022 1024.95
58.122 -90.853 4.077 802.12
58.122 -89.150 4.087 1054.84
58.122 -87.447 4.001 740.21
58.122 -85.744 3.899 750.23
58.122 -84.041 3.877 632.32
58.122 -82.339 3.907 303.66
58.122 -80.636 3.949 305.68
58.122 -78.933 3.917 267.73
58.122 -77.230 3.834 155.84
58.122 -75.527 3.794 365.64
58.122 -73.824 3.800 594.36
58.122 -72.121 3.833 200.81
58.122 -70.418 3.845 99.89
58.122 -68.715 3.815 138.85
58.122 -67.012 3.776 329.69
58.122 -65.309 3.784 144.86
58.122 -63.606 3.789 176.82
58.122 -61.903 3.789 87.90
58.122 -60.200 3.786 203.81
58.122 -58.497 3.775 58.95
58.122 -56.794 3.766 68.94
58.122 -55.091 3.766 76.94
58.122 -53.388 3.771 21.98
58.122 -51.685 3.797 76.91
59.022 -148.292 3.875 573.41
59.022 -146.545 3.840 86.37
59.022 -144.798 3.771 615.39
59.022 -143.050 3.776 321.66
59.022 -141.303 3.782 878.11
59.022 -139.556 3.742 674.31
59.022 -137.808 3.764 1298.65
59.022 -136.061 3.841 1963.77
59.022 -134.314 3.954 3953.36
59.022 -132.567 3.904 2072.30
59.022 -130.819 3.810 1224.10
59.022 -129.072 3.841 1241.71
59.022 -127.325 3.881 2527.45
59.022 -125.577 3.924 2070.91
59.022 -123.830 4.063 1430.68
59.022 -122.083 4.189 1280.73
59.022 -120.336 4.115 2177.75
59.022 -118.588 4.035 5019.78
59.022 -116.841 3.990 9400.27
59.022 -115.094 3.993 13303.29
59.022 -113.346 4.050 10317.22
59.022 -111.599 4.063 4834.14
59.022 -109.852 4.012 2649.36
59.022 -108.105 3.975 2414.45
59.022 -106.357 3.973 2676.18
59.022 -104.610 3.987 2231.63
59.022 -102.863 3.974 3425.48
59.022 -101.115 3.935 2838.10
59.022 -99.368 3.858 4425.40
59.022 -97.621 3.883 3579.24
59.022 -95.874 3.995 4165.12
59.022 -94.126 4.022 1092.20
59.022 -92.379 4.079 457.52
59.022 -90.632 4.102 1265.64
59.022 -88.884 4.067 746.21
59.022 -87.137 3.980 616.39
59.022 -85.390 3.866 715.25
59.022 -83.643 3.848 602.33
59.022 -81.895 3.890 216.76
59.022 -80.148 3.941 306.68
59.022 -78.401 3.915 424.58
59.022 -76.654 3.840 260.74
59.022 -74.906 3.792 296.69
59.022 -73.159 3.799 421.54
59.022 -71.412 3.829 250.76
59.022 -69.664 3.823 38.96
59.022 -67.917 3.791 369.64
59.022 -66.170 3.787 214.79
59.022 -64.423 3.803 104.89
59.022 -62.675 3.808 11.99
59.022 -60.928 3.804 117.90
59.022 -59.181 3.790 124.88
59.022 -57.433 3.773 103.89
59.022 -55.686 3.762 85.92
59.022 -53.939 3.763 8.99
59.022 -52.192 3.764 54.96
59.022 -50.444 3.779 77.94
59.921 -149.612 3.818 385.04
59.921 -147.818 3.799 222.77
59.921 -146.023 3.767 508.47
59.921 -144.229 3.790 590.35
59.921 -142.434 3.775 838.21
59.921 -140.640 3.729 380.82
59.921 -138.845 3.757 1353.58
59.921 -137.051 3.821 1186.41
59.921 -135.257 3.890 2318.07
59.921 -133.462 3.842 2088.53
59.921 -131.668 3.755 1407.48
59.921 -129.873 3.807 1366.58
59.921 -128.079 3.852 1656.34
59.921 -126.284 3.897 3121.81
59.921 -124.490 4.037 1708.31
59.921 -122.696 4.119 1252.72
59.921 -120.901 4.067 3027.99
59.921 -119.107 4.007 8178.53
59.921 -117.312 3.999 14342.20
59.921 -115.518 3.960 10905.79
59.921 -113.724 3.978 4588.40
59.921 -111.929 4.054 3431.37
59.921 -110.135 4.016 2555.33
59.921 -108.340 3.979 2654.22
59.921 -106.546 3.961 2118.85
59.921 -104.751 3.959 2580.30
59.921 -102.957 3.964 3365.51
59.921 -101.163 3.944 3916.91
59.921 -99.368 3.934 3556.89
59.921 -97.574 3.923 3567.03
59.921 -95.779 4.020 3837.65
59.921 -93.985 4.017 1699.70
59.921 -92.191 4.041 359.62
59.921 -90.396 4.019 767.15
59.921 -88.602 4.018 800.20
59.921 -86.807 3.964 921.04
59.921 -85.013 3.880 648.33
59.921 -83.218 3.878 573.36
59.921 -81.424 3.909 424.53
59.921 -79.630 3.934 420.57
59.921 -77.835 3.883 416.58
59.921 -76.041 3.815 287.71
59.921 -74.246 3.782 402.55
59.921 -72.452 3.809 283.72
59.921 -70.657 3.830 125.87
59.921 -68.863 3.812 172.82
59.921 -67.069 3.781 344.67
59.921 -65.274 3.799 120.88
59.921 -63.480 3.812 64.93
59.921 -61.685 3.816 35.97
59.921 -59.891 3.809 65.95
59.921 -58.097 3.792 14.99
59.921 -56.302 3.776 75.93
59.921 -54.508 3.766 92.90
59.921 -52.713 3.763 112.88
59.921 -50.919 3.765 44.96
59.921 -49.124 3.773 20.03
60.820 -151.018 3.777 329.66
60.820 -149.173 3.770 448.91
60.820 -147.329 3.768 445.67
60.820 -145.484 3.795 870.84
60.820 -143.639 3.758 630.01
60.820 -141.795 3.720 759.15
60.820 -139.950 3.773 858.12
60.820 -138.106 3.804 579.57
60.820 -136.261 3.829 1256.22
60.820 -134.416 3.778 1157.63
60.820 -132.572 3.716 824.80
60.820 -130.727 3.779 729.34
60.820 -128.882 3.823 739.22
60.820 -127.038 3.879 2944.28
60.820 -125.193 3.997 1496.52
60.820 -123.348 4.037 1622.32
60.820 -121.504 3.995 6148.66
60.820 -119.659 3.962 16209.25
60.820 -117.815 3.937 13247.33
60.820 -115.970 3.919 4364.57
60.820 -114.125 3.925 2705.22
60.820 -112.281 3.998 3449.33
60.820 -110.436 4.046 2973.79
60.820 -108.591 4.020 2280.71
60.820 -106.747 3.991 2700.21
60.820 -104.902 3.986 2630.31
60.820 -103.057 4.014 2317.55
60.820 -101.213 4.036 4000.85
60.820 -99.368 4.050 2663.88
60.820 -97.524 4.003 4052.34
60.820 -95.679 3.993 3205.12
60.820 -93.834 3.963 3760.17
60.820 -91.990 3.958 451.50
60.820 -90.145 3.948 715.21
60.820 -88.300 3.959 509.48
60.820 -86.456 3.936 905.07
60.820 -84.611 3.909 1364.57
60.820 -82.766 3.934 894.02
60.820 -80.922 3.952 304.67
60.820 -79.077 3.928 498.38
60.820 -77.233 3.855 331.66
60.820 -75.388 3.787 299.70
60.820 -73.543 3.778 500.45
60.820 -71.699 3.814 243.77
60.820 -69.854 3.821 56.94
60.820 -68.009 3.795 426.59
60.820 -66.165 3.794 175.83
60.820 -64.320 3.810 100.89
60.820 -62.475 3.816 6.99
60.820 -60.631 3.815 94.92
60.820 -58.786 3.802 0.00
60.820 -56.942 3.789 0.00
60.820 -55.097 3.780 0.00
60.820 -53.252 3.772 54.95
60.820 -51.408 3.766 94.90
60.820 -49.563 3.763 111.88
60.820 -47.718 3.766 197.79
61.720 -152.518 3.770 266.69
61.720 -150.620 3.770 39.96
61.720 -148.722 3.765 759.93
61.720 -146.824 3.769 712.04
61.720 -144.926 3.728 704.17
61.720 -143.027 3.708 926.57
61.720 -141.129 3.777 567.46
61.720 -139.231 3.782 438.43
61.720 -137.333 3.773 998.78
61.720 -135.434 3.746 1055.15
61.720 -133.536 3.737 510.66
61.720 -131.638 3.790 1056.53
61.720 -129.740 3.804 651.35
61.720 -127.842 3.888 2621.21
61.720 -125.943 3.991 1845.13
61.720 -124.045 4.013 3196.70
61.720 -122.147 3.960 19112.15
61.720 -120.249 3.901 16177.36
61.720 -118.350 3.900 3827.14
61.720 -116.452 3.906 2263.58
61.720 -114.554 3.937 2412.46
61.720 -112.656 4.052 3106.79
61.720 -110.758 4.118 3027.87
61.720 -108.859 4.061 2483.40
61.720 -106.961 4.026 2084.88
61.720 -105.063 4.043 2346.37
61.720 -103.165 4.082 2427.36
61.720 -101.266 4.137 2731.49
61.720 -99.368 4.102 3487.40
61.720 -97.470 4.026 3859.99
61.720 -95.572 3.953 3133.67
61.720 -93.674 3.951 2996.65
61.720 -91.775 3.952 1628.58
61.720 -89.877 3.953 829.09
61.720 -87.979 3.941 541.43
61.720 -86.081 3.910 714.27
61.720 -84.182 3.890 715.25
61.720 -82.284 3.946 895.04
61.720 -80.386 3.982 747.21
61.720 -78.488 3.937 419.57
61.720 -76.590 3.839 241.75
61.720 -74.691 3.782 378.60
61.720 -72.793 3.796 457.52
61.720 -70.895 3.828 187.81
61.720 -68.997 3.813 246.75
61.720 -67.098 3.786 313.70
61.720 -65.200 3.804 130.87
61.720 -63.302 3.816 13.99
61.720 -61.404 3.817 101.92
61.720 -59.505 3.803 0.00
61.720 -57.607 3.791 0.00
61.720 -55.709 3.784 0.00
61.720 -53.811 3.781 0.00
61.720 -51.913 3.779 0.00
61.720 -50.014 3.774 123.86
61.720 -48.116 3.767 224.75
61.720 -46.218 3.763 178.80
62.619 -154.123 3.756 240.75
62.619 -152.167 3.762 115.79
62.619 -150.212 3.773 303.68
62.619 -148.256 3.771 690.31
62.619 -146.301 3.720 842.10
62.619 -144.345 3.702 807.05
62.619 -142.390 3.766 908.62
62.619 -140.434 3.770 427.09
62.619 -138.479 3.763 1243.43
62.619 -136.523 3.772 705.26
62.619 -134.567 3.793 585.82
62.619 -132.612 3.810 881.42
62.619 -130.656 3.803 949.85
62.619 -128.701 3.961 2811.25
62.619 -126.745 4.081 1795.20
62.619 -124.790 4.072 21208.28
62.619 -122.834 4.057 20751.65
62.619 -120.879 3.995 3626.27
62.619 -118.923 3.932 2240.57
62.619 -116.968 3.958 2197.63
62.619 -115.012 4.044 2649.81
62.619 -113.057 4.073 2236.63
62.619 -111.101 4.140 2827.55
62.619 -109.146 4.107 2561.19
62.619 -107.190 4.058 2079.52
62.619 -105.235 4.047 1875.94
62.619 -103.279 4.068 1817.14
62.619 -101.324 4.083 2049.88
62.619 -99.368 4.066 4189.72
62.619 -97.413 4.005 3066.85
62.619 -95.457 3.927 4085.75
62.619 -93.502 3.970 2530.03
62.619 -91.546 3.991 3743.75
62.619 -89.591 3.993 555.42
62.619 -87.635 3.954 362.63
62.619 -85.680 3.896 673.29
62.619 -83.724 3.860 788.16
62.619 -81.769 3.912 723.20
62.619 -79.813 3.967 251.72
62.619 -77.858 3.926 675.57
62.619 -75.902 3.835 435.54
62.619 -73.946 3.804 563.38
62.619 -71.991 3.838 264.75
62.619 -70.035 3.847 93.90
62.619 -68.080 3.807 435.58
62.619 -66.124 3.800 180.82
62.619 -64.169 3.814 61.94
62.619 -62.213 3.819 80.93
62.619 -60.258 3.807 20.98
62.619 -58.302 3.793 0.00
62.619 -56.347 3.784 0.00
62.619 -54.391 3.780 124.14
62.619 -52.436 3.780 126.85
62.619 -50.480 3.781 133.84
62.619 -48.525 3.781 33.96
62.619 -46.569 3.776 0.00
62.619 -44.614 3.762 51.95
63.518 -155.841 3.732 295.68
63.518 -153.824 3.742 285.68
63.518 -151.807 3.784 232.69
63.518 -149.790 3.782 348.34
63.518 -147.773 3.746 519.89
63.518 -145.757 3.739 1033.95
63.518 -143.740 3.778 733.31
63.518 -141.723 3.768 318.73
63.518 -139.706 3.773 1195.53
63.518 -137.689 3.807 1116.03
63.518 -135.672 3.814 723.52
63.518 -133.655 3.812 963.62
63.518 -131.638 3.819 929.04
63.518 -129.622 4.020 1801.59
63.518 -127.605 4.138 3216.17
63.518 -125.588 4.165 22210.33
63.518 -123.571 4.139 3310.65
63.518 -121.554 4.130 2351.62
63.518 -119.537 4.096 1825.24
63.518 -117.520 4.088 2061.92
63.518 -115.503 4.069 1885.84
63.518 -113.486 4.080 1654.58
63.518 -111.470 4.112 1765.98
63.518 -109.453 4.109 1619.32
63.518 -107.436 4.048 2108.80
63.518 -105.419 3.986 1681.35
63.518 -103.402 3.973 1797.19
63.518 -101.385 3.976 1966.91
63.518 -99.368 3.993 2724.21
63.518 -97.351 3.981 3784.08
63.518 -95.334 3.916 4472.40
63.518 -93.318 3.957 2894.98
63.518 -91.301 3.975 3158.40
63.518 -89.284 4.020 2090.40
63.518 -87.267 3.981 503.48
63.518 -85.250 3.918 747.22
63.518 -83.233 3.873 717.27
63.518 -81.216 3.913 713.24
63.518 -79.199 3.967 368.60
63.518 -77.182 3.915 612.37
63.518 -75.166 3.847 505.48
63.518 -73.149 3.847 831.10
63.518 -71.132 3.883 666.31
63.518 -69.115 3.862 635.87
63.518 -67.098 3.816 290.72
63.518 -65.081 3.813 103.89
63.518 -63.064 3.819 54.96
63.518 -61.047 3.811 47.96
63.518 -59.030 3.796 0.00
63.518 -57.014 3.787 0.00
63.518 -54.997 3.784 0.00
63.518 -52.980 3.783 0.00
63.518 -50.963 3.784 0.00
63.518 -48.946 3.784 0.00
63.518 -46.929 3.782 0.00
63.518 -44.912 3.773 0.00
63.518 -42.895 3.760 15.98
64.418 -157.686 3.730 352.61
64.418 -155.603 3.741 107.88
64.418 -153.520 3.773 153.84
64.418 -151.437 3.788 228.90
64.418 -149.355 3.776 171.81
64.418 -147.272 3.775 1062.99
64.418 -145.189 3.797 718.29
64.418 -143.106 3.788 238.75
64.418 -141.023 3.794 977.90
64.418 -138.941 3.797 598.42
64.418 -136.858 3.770 523.52
64.418 -134.775 3.790 908.21
64.418 -132.692 3.808 869.25
64.418 -130.610 3.976 1861.95
64.418 -128.527 4.066 5759.27
64.418 -126.444 4.068 3331.87
64.418 -124.361 4.067 2424.18
64.418 -122.279 4.088 2059.99
64.418 -120.196 4.086 1797.58
64.418 -118.113 4.047 961.30
64.418 -116.030 4.029 687.98
64.418 -113.948 4.038 613.42
64.418 -111.865 4.046 1300.75
64.418 -109.782 4.078 1954.13
64.418 -107.699 4.029 1492.42
64.418 -105.616 3.956 1839.05
64.418 -103.534 3.904 1740.28
64.418 -101.451 3.892 1834.10
64.418 -99.368 3.901 1825.08
64.418 -97.285 3.917 4014.88
64.418 -95.203 3.906 3945.65
64.418 -93.120 3.903 3754.08
64.418 -91.037 3.921 1551.36
64.418 -88.954 3.977 4124.68
64.418 -86.872 3.966 471.52
64.418 -84.789 3.936 834.12
64.418 -82.706 3.909 694.30
64.418 -80.623 3.945 711.24
64.418 -78.541 3.978 305.68
64.418 -76.458 3.910 537.46
64.418 -74.375 3.856 724.25
64.418 -72.292 3.874 611.40
64.418 -70.210 3.885 273.73
64.418 -68.127 3.845 562.46
64.418 -66.044 3.825 202.15
64.418 -63.961 3.820 37.97
64.418 -61.878 3.813 72.94
64.418 -59.796 3.798 0.00
64.418 -57.713 3.788 0.00
64.418 -55.630 3.785 0.00
64.418 -53.547 3.786 0.00
64.418 -51.465 3.786 0.00
64.418 -49.382 3.786 0.00
64.418 -47.299 3.785 0.00
64.418 -45.216 3.778 2.27
64.418 -43.134 3.762 292.63
64.418 -41.051 3.756 143.83
65.317 -159.670 3.749 0.00
65.317 -157.516 3.752 45.96
65.317 -155.363 3.762 107.89
65.317 -153.209 3.768 119.87
65.317 -151.055 3.770 201.78
65.317 -148.902 3.780 252.31
65.317 -146.748 3.790 356.33
65.317 -144.595 3.786 437.53
65.317 -142.441 3.795 503.50
65.317 -140.287 3.775 271.73
65.317 -138.134 3.741 386.61
65.317 -135.980 3.790 563.46
65.317 -133.826 3.814 529.50
65.317 -131.673 3.911 1291.85
65.317 -129.519 3.993 2165.96
65.317 -127.365 4.019 621.85
65.317 -125.212 4.053 435.69
65.317 -123.058 4.032 627.49
65.317 -120.905 3.961 1159.92
65.317 -118.751 3.937 1159.94
65.317 -116.597 3.942 840.27
65.317 -114.444 3.956 740.38
65.317 -112.290 3.978 920.83
65.317 -110.136 4.036 1051.29
65.317 -107.983 4.047 1447.47
65.317 -105.829 3.980 1815.10
65.317 -103.675 3.911 1673.28
65.317 -101.522 3.881 1690.34
65.317 -99.368 3.886 1994.88
65.317 -97.215 3.893 2945.97
65.317 -95.061 3.910 3850.98
65.317 -92.907 3.887 4988.79
65.317 -90.754 3.912 2080.39
65.317 -88.600 3.928 453.46
65.317 -86.446 3.946 713.26
65.317 -84.293 3.939 844.11
65.317 -82.139 3.931 560.44
65.317 -79.985 3.973 708.24
65.317 -77.832 3.982 507.48
65.317 -75.678 3.887 570.43
65.317 -73.525 3.841 687.27
65.317 -71.371 3.860 383.63
65.317 -69.217 3.854 443.57
65.317 -67.064 3.832 257.75
65.317 -64.910 3.826 81.26
65.317 -62.756 3.819 97.92
65.317 -60.603 3.801 0.00
65.317 -58.449 3.790 0.00
65.317 -56.295 3.786 0.00
65.317 -54.142 3.786 0.00
65.317 -51.988 3.786 0.00
65.317 -49.835 3.787 0.00
65.317 -47.681 3.788 0.00
65.317 -45.527 3.788 0.00
65.317 -43.374 3.786 0.00
65.317 -41.220 3.781 76.94
65.317 -39.066 3.774 216.82
66.216 -161.810 3.761 253.77
66.216 -159.580 3.759 88.91
66.216 -157.350 3.755 93.90
66.216 -155.120 3.749 170.83
66.216 -152.890 3.745 209.78
66.216 -150.660 3.749 264.72
66.216 -148.430 3.761 337.63
66.216 -146.200 3.769 604.36
66.216 -143.970 3.781 493.52
66.216 -141.740 3.752 551.44
66.216 -139.510 3.710 718.35
66.216 -137.279 3.793 942.80
66.216 -135.049 3.882 534.55
66.216 -132.819 3.923 837.21
66.216 -130.589 3.959 862.16
66.216 -128.359 3.963 270.72
66.216 -126.129 3.973 604.37
66.216 -123.899 3.933 544.43
66.216 -121.669 3.898 186.82
66.216 -119.439 3.881 575.46
66.216 -117.209 3.876 835.15
66.216 -114.979 3.887 759.22
66.216 -112.749 3.924 826.21
66.216 -110.519 3.986 867.21
66.216 -108.288 4.027 1644.31
66.216 -106.058 4.000 1231.75
66.216 -103.828 3.958 2162.75
66.216 -101.598 3.933 2009.03
66.216 -99.368 3.929 1916.08
66.216 -97.138 3.937 2098.79
66.216 -94.908 3.939 4388.51
66.216 -92.678 3.941 5085.90
66.216 -90.448 3.926 3684.41
66.216 -88.218 3.903 618.82
66.216 -85.988 3.942 760.28
66.216 -83.758 3.936 924.06
66.216 -81.528 3.941 897.12
66.216 -79.298 3.997 776.18
66.216 -77.067 3.974 703.28
66.216 -74.837 3.872 430.56
66.216 -72.607 3.838 653.31
66.216 -70.377 3.853 304.69
66.216 -68.147 3.840 551.48
66.216 -65.917 3.837 206.80
66.216 -63.687 3.834 123.90
66.216 -61.457 3.815 0.00
66.216 -59.227 3.799 0.00
66.216 -56.997 3.794 0.00
66.216 -54.767 3.793 0.00
66.216 -52.537 3.791 0.00
66.216 -50.307 3.788 0.00
66.216 -48.077 3.787 0.00
66.216 -45.846 3.787 0.00
66.216 -43.616 3.788 0.00
66.216 -41.386 3.789 0.00
66.216 -39.156 3.789 0.00
66.216 -36.926 3.789 0.00
67.116 -164.125 3.796 182.85
67.116 -161.812 3.796 73.96
67.116 -159.499 3.786 65.96
67.116 -157.186 3.775 0.00
67.116 -154.874 3.766 34.97
67.116 -152.561 3.758 104.90
67.116 -150.248 3.759 302.42
67.116 -147.935 3.778 342.73
67.116 -145.623 3.795 545.53
67.116 -143.310 3.764 437.66
67.116 -140.997 3.720 575.39
67.116 -138.685 3.819 752.22
67.116 -136.372 3.932 492.54
67.116 -134.059 3.986 1180.88
67.116 -131.746 3.997 1131.90
67.116 -129.434 3.967 518.46
67.116 -127.121 3.926 475.50
67.116 -124.808 3.917 464.52
67.116 -122.495 3.909 370.60
67.116 -120.183 3.879 253.73
67.116 -117.870 3.846 354.65
67.116 -115.557 3.828 550.46
67.116 -113.245 3.837 503.49
67.116 -110.932 3.888 603.42
67.116 -108.619 3.951 839.16
67.116 -106.306 3.990 1640.30
67.116 -103.994 3.973 1634.34
67.116 -101.681 3.953 2359.54
67.116 -99.368 3.959 2299.75
67.116 -97.055 3.968 2479.45
67.116 -94.743 3.971 3228.68
67.116 -92.430 3.979 4622.35
67.116 -90.117 3.948 5119.67
67.116 -87.805 3.910 1486.37
67.116 -85.492 3.949 470.53
67.116 -83.179 3.932 781.17
67.116 -80.866 3.926 765.22
67.116 -78.554 3.985 673.28
67.116 -76.241 3.935 526.47
67.116 -73.928 3.857 930.03
67.116 -71.615 3.849 559.45
67.116 -69.303 3.851 615.41
67.116 -66.990 3.850 315.70
67.116 -64.677 3.847 187.83
67.116 -62.365 3.832 119.89
67.116 -60.052 3.813 98.91
67.116 -57.739 3.804 95.91
67.116 -55.426 3.803 94.91
67.116 -53.114 3.802 91.91
67.116 -50.801 3.797 60.95
67.116 -48.488 3.790 0.00
67.116 -46.176 3.787 0.00
67.116 -43.863 3.786 0.00
67.116 -41.550 3.787 0.00
67.116 -39.237 3.787 0.00
67.116 -36.925 3.788 0.00
67.116 -34.612 3.792 0.00
68.015 -166.634 3.804 15.99
68.015 -164.232 3.808 69.93
68.015 -161.829 3.804 42.96
68.015 -159.427 3.799 74.96
68.015 -157.025 3.792 76.96
68.015 -154.622 3.782 71.96
68.015 -152.220 3.774 65.94
68.015 -149.818 3.781 183.80
68.015 -147.415 3.789 363.62
68.015 -145.013 3.767 238.74
68.015 -142.611 3.731 603.35
68.015 -140.208 3.824 845.12
68.015 -137.806 3.919 452.54
68.015 -135.404 3.990 1284.74
68.015 -133.001 4.007 1469.51
68.015 -130.599 3.976 346.63
68.015 -128.196 3.926 115.87
68.015 -125.794 3.894 128.86
68.015 -123.392 3.879 256.74
68.015 -120.989 3.853 223.76
68.015 -118.587 3.825 188.82
68.015 -116.185 3.797 289.72
68.015 -113.782 3.782 475.53
68.015 -111.380 3.809 393.60
68.015 -108.978 3.880 530.49
68.015 -106.575 3.955 1296.64
68.015 -104.173 3.962 1215.73
68.015 -101.771 3.947 1699.23
68.015 -99.368 3.937 2421.51
68.015 -96.966 3.956 2328.72
68.015 -94.563 3.978 2755.13
68.015 -92.161 3.994 5012.86
68.015 -89.759 3.972 5677.08
68.015 -87.356 3.958 2731.10
68.015 -84.954 3.960 817.15
68.015 -82.552 3.953 938.02
68.015 -80.149 3.929 1007.97
68.015 -77.747 3.957 408.54
68.015 -75.345 3.889 629.36
68.015 -72.942 3.831 729.22
68.015 -70.540 3.839 385.61
68.015 -68.138 3.839 424.60
68.015 -65.735 3.835 102.90
68.015 -63.333 3.823 41.96
68.015 -60.931 3.805 0.00
68.015 -58.528 3.794 0.00
68.015 -56.126 3.793 0.00
68.015 -53.723 3.795 0.00
68.015 -51.321 3.794 0.00
68.015 -48.919 3.792 0.00
68.015 -46.516 3.788 0.00
68.015 -44.114 3.786 0.00
68.015 -41.712 3.786 0.00
68.015 -39.309 3.787 0.00
68.015 -36.907 3.786 0.00
68.015 -34.505 3.786 0.00
68.015 -32.102 3.788 0.00
68.915 -169.364 3.794 0.00
68.915 -166.864 3.796 0.00
68.915 -164.364 3.801 35.97
68.915 -161.865 3.805 69.93
68.915 -159.365 3.802 17.98
68.915 -156.865 3.796 6.00
68.915 -154.365 3.789 79.96
68.915 -151.865 3.786 98.94
68.915 -149.365 3.781 213.97
68.915 -146.865 3.757 265.73
68.915 -144.366 3.731 557.39
68.915 -141.866 3.804 809.13
68.915 -139.366 3.864 350.65
68.915 -136.866 3.902 392.60
68.915 -134.366 3.926 441.55
68.915 -131.866 3.912 379.62
68.915 -129.366 3.882 206.78
68.915 -126.867 3.852 22.98
68.915 -124.367 3.837 71.91
68.915 -121.867 3.836 244.75
68.915 -119.367 3.830 237.75
68.915 -116.867 3.811 246.76
68.915 -114.367 3.787 270.75
68.915 -111.867 3.780 490.53
68.915 -109.368 3.818 411.57
68.915 -106.868 3.893 430.59
68.915 -104.368 3.951 1179.75
68.915 -101.868 3.940 1352.61
68.915 -99.368 3.927 2140.74
68.915 -96.868 3.935 2608.33
68.915 -94.368 3.968 2671.27
68.915 -91.869 3.979 3811.99
68.915 -89.369 3.979 6214.51
68.915 -86.869 3.988 4466.25
68.915 -84.369 3.979 995.01
68.915 -81.869 3.987 1014.77
68.915 -79.369 3.953 975.99
68.915 -76.870 3.951 541.42
68.915 -74.370 3.861 739.23
68.915 -71.870 3.821 590.38
68.915 -69.370 3.830 590.44
68.915 -66.870 3.831 151.85
68.915 -64.370 3.817 65.94
68.915 -61.870 3.798 0.00
68.915 -59.371 3.787 0.00
68.915 -56.871 3.784 0.00
68.915 -54.371 3.786 0.00
68.915 -51.871 3.787 0.00
68.915 -49.371 3.787 0.00
68.915 -46.871 3.787 0.00
68.915 -44.371 3.786 0.00
68.915 -41.872 3.786 0.00
68.915 -39.372 3.787 0.00
68.915 -36.872 3.787 0.00
68.915 -34.372 3.787 0.00
68.915 -31.872 3.786 0.00
68.915 -29.372 3.786 0.00
69.814 -172.344 3.787 0.00
69.814 -169.737 3.787 0.00
69.814 -167.131 3.791 0.00
69.814 -164.525 3.796 0.00
69.814 -161.919 3.802 53.95
69.814 -159.312 3.804 70.93
69.814 -156.706 3.799 2.00
69.814 -154.100 3.794 0.00
69.814 -151.494 3.786 0.00
69.814 -148.887 3.766 85.94
69.814 -146.281 3.748 460.55
69.814 -143.675 3.777 282.69
69.814 -141.069 3.808 265.71
69.814 -138.462 3.826 396.58
69.814 -135.856 3.843 364.64
69.814 -133.250 3.848 460.54
69.814 -130.643 3.850 431.58
69.814 -128.037 3.848 372.62
69.814 -125.431 3.845 86.91
69.814 -122.825 3.844 33.96
69.814 -120.218 3.845 214.78
69.814 -117.612 3.841 259.73
69.814 -115.006 3.821 262.74
69.814 -112.400 3.792 272.74
69.814 -109.793 3.788 511.51
69.814 -107.187 3.836 468.52
69.814 -104.581 3.909 878.10
69.814 -101.974 3.932 786.17
69.814 -99.368 3.929 1334.61
69.814 -96.762 3.930 2376.49
69.814 -94.156 3.958 2691.27
69.814 -91.549 3.977 3015.85
69.814 -88.943 3.966 5604.16
69.814 -86.337 3.972 6932.70
69.814 -83.731 3.977 1316.62
69.814 -81.124 4.002 1057.83
69.814 -78.518 3.982 1115.84
69.814 -75.912 3.947 622.34
69.814 -73.306 3.862 918.03
69.814 -70.699 3.830 602.41
69.814 -68.093 3.833 313.70
69.814 -65.487 3.822 86.92
69.814 -62.880 3.801 0.00
69.814 -60.274 3.787 0.00
69.814 -57.668 3.783 0.00
69.814 -55.062 3.784 0.00
69.814 -52.455 3.785 0.00
69.814 -49.849 3.786 0.00
69.814 -47.243 3.786 0.00
69.814 -44.637 3.786 0.00
69.814 -42.030 3.786 0.00
69.814 -39.424 3.787 0.00
69.814 -36.818 3.787 0.00
69.814 -34.211 3.787 0.00
69.814 -31.605 3.787 0.00
69.814 -28.999 3.787 0.00
69.814 -26.393 3.786 0.00
70.713 -175.608 3.786 0.00
70.713 -172.885 3.785 0.00
70.713 -170.162 3.786 0.00
70.713 -167.439 3.789 0.00
70.713 -164.717 3.793 0.00
70.713 -161.994 3.797 0.00
70.713 -159.271 3.803 69.93
70.713 -156.548 3.803 60.94
70.713 -153.825 3.798 0.00
70.713 -151.102 3.787 0.00
70.713 -148.379 3.775 0.00
70.713 -145.657 3.776 71.93
70.713 -142.934 3.778 217.76
70.713 -140.211 3.785 283.69
70.713 -137.488 3.803 311.66
70.713 -134.765 3.822 404.60
70.713 -132.042 3.840 449.56
70.713 -129.320 3.853 515.50
70.713 -126.597 3.861 415.59
70.713 -123.874 3.862 262.73
70.713 -121.151 3.859 31.97
70.713 -118.428 3.856 129.86
70.713 -115.705 3.852 306.69
70.713 -112.982 3.830 274.71
70.713 -110.260 3.802 296.72
70.713 -107.537 3.803 451.57
70.713 -104.814 3.853 600.39
70.713 -102.091 3.911 979.99
70.713 -99.368 3.916 803.16
70.713 -96.645 3.933 1534.40
70.713 -93.923 3.955 2968.87
70.713 -91.200 3.990 3250.71
70.713 -88.477 3.984 4279.51
70.713 -85.754 3.960 7988.60
70.713 -83.031 3.999 3061.78
70.713 -80.308 4.018 1086.86
70.713 -77.585 4.007 1145.81
70.713 -74.863 3.936 851.11
70.713 -72.140 3.870 930.02
70.713 -69.417 3.842 614.41
70.713 -66.694 3.830 129.88
70.713 -63.971 3.805 0.00
70.713 -61.248 3.789 0.00
70.713 -58.525 3.784 0.00
70.713 -55.803 3.784 0.00
70.713 -53.080 3.786 0.00
70.713 -50.357 3.786 0.00
70.713 -47.634 3.787 0.00
70.713 -44.911 3.787 0.00
70.713 -42.188 3.787 0.00
70.713 -39.466 3.786 0.00
70.713 -36.743 3.787 0.00
70.713 -34.020 3.787 0.00
70.713 -31.297 3.787 0.00
70.713 -28.574 3.787 0.00
70.713 -25.851 3.787 0.00
70.713 -23.128 3.787 0.00
71.613 -179.198 3.787 0.00
71.613 -176.347 3.786 0.00
71.613 -173.496 3.786 0.00
71.613 -170.645 3.786 0.00
71.613 -167.794 3.787 0.00
71.613 -164.943 3.789 0.00
71.613 -162.092 3.794 0.00
71.613 -159.241 3.799 11.99
71.613 -156.390 3.804 72.93
71.613 -153.539 3.802 49.95
71.613 -150.688 3.794 0.00
71.613 -147.837 3.789 0.00
71.613 -144.985 3.780 12.99
71.613 -142.134 3.774 110.89
71.613 -139.283 3.779 250.73
71.613 -136.432 3.796 304.68
71.613 -133.581 3.820 410.58
71.613 -130.730 3.837 403.61
71.613 -127.879 3.852 510.50
71.613 -125.028 3.864 552.46
71.613 -122.177 3.870 443.55
71.613 -119.326 3.870 155.84
71.613 -116.475 3.868 40.95
71.613 -113.624 3.865 272.72
71.613 -110.773 3.845 303.68
71.613 -107.921 3.818 375.63
71.613 -105.070 3.824 387.64
71.613 -102.219 3.872 1059.92
71.613 -99.368 3.901 684.29
71.613 -96.517 3.912 859.11
71.613 -93.666 3.952 1924.98
71.613 -90.815 3.992 3564.26
71.613 -87.964 4.023 3947.98
71.613 -85.113 3.994 7116.53
71.613 -82.262 4.042 7237.40
71.613 -79.411 4.076 1228.71
71.613 -76.560 4.044 1307.62
71.613 -73.708 3.928 1278.67
71.613 -70.857 3.858 864.15
71.613 -68.006 3.847 215.79
71.613 -65.155 3.814 5.00
71.613 -62.304 3.789 0.00
71.613 -59.453 3.782 0.00
71.613 -56.602 3.783 0.00
71.613 -53.751 3.786 0.00
71.613 -50.900 3.787 0.00
71.613 -48.049 3.789 0.00
71.613 -45.198 3.790 0.00
71.613 -42.347 3.790 0.00
71.613 -39.496 3.788 0.00
71.613 -36.644 3.787 0.00
71.613 -33.793 3.787 0.00
71.613 -30.942 3.787 0.00
71.613 -28.091 3.787 0.00
71.613 -25.240 3.787 0.00
71.613 -22.389 3.787 0.00
71.613 -19.538 3.787 0.00
72.512 -177.180 3.787 0.00
72.512 -174.187 3.786 0.00
72.512 -171.194 3.786 0.00
72.512 -168.202 3.786 0.00
72.512 -165.209 3.787 0.00
72.512 -162.216 3.790 0.00
72.512 -159.223 3.795 0.00
72.512 -156.231 3.801 23.98
72.512 -153.238 3.804 74.93
72.512 -150.245 3.801 42.96
72.512 -147.252 3.794 0.00
72.512 -144.260 3.785 0.00
72.512 -141.267 3.779 31.97
72.512 -138.274 3.777 153.83
72.512 -135.281 3.784 265.72
72.512 -132.289 3.804 332.65
72.512 -129.296 3.827 490.50
72.512 -126.303 3.844 486.53
72.512 -123.310 3.859 522.49
72.512 -120.318 3.872 595.42
72.512 -117.325 3.882 447.55
72.512 -114.332 3.886 102.89
72.512 -111.339 3.880 145.85
72.512 -108.346 3.867 353.64
72.512 -105.354 3.851 398.59
72.512 -102.361 3.855 424.60
72.512 -99.368 3.894 1161.81
72.512 -96.375 3.897 731.27
72.512 -93.383 3.908 1044.90
72.512 -90.390 3.972 2161.74
72.512 -87.397 4.012 4367.45
72.512 -84.404 4.069 5653.15
72.512 -81.412 4.134 11561.92
72.512 -78.419 4.204 2176.70
72.512 -75.426 4.132 1731.19
72.512 -72.433 3.981 1525.43
72.512 -69.441 3.840 554.47
72.512 -66.448 3.807 24.98
72.512 -63.455 3.792 0.00
72.512 -60.462 3.782 0.00
72.512 -57.470 3.784 0.00
72.512 -54.477 3.788 0.00
72.512 -51.484 3.791 0.00
72.512 -48.491 3.794 0.00
72.512 -45.499 3.796 0.00
72.512 -42.506 3.797 23.97
72.512 -39.513 3.795 55.99
72.512 -36.520 3.790 0.00
72.512 -33.527 3.787 0.00
72.512 -30.535 3.787 0.00
72.512 -27.542 3.787 0.00
72.512 -24.549 3.787 0.00
72.512 -21.556 3.787 0.00
72.512 -18.564 3.787 0.00
72.512 -15.571 3.787 0.00
73.411 -178.120 3.787 0.00
73.411 -174.970 3.787 0.00
73.411 -171.820 3.786 0.00
73.411 -168.670 3.786 0.00
73.411 -165.520 3.786 0.00
73.411 -162.370 3.788 0.00
73.411 -159.220 3.791 0.00
73.411 -156.070 3.796 0.00
73.411 -152.919 3.801 32.97
73.411 -149.769 3.804 75.93
73.411 -146.619 3.800 39.96
73.411 -143.469 3.793 0.00
73.411 -140.319 3.785 0.00
73.411 -137.169 3.777 45.95
73.411 -134.019 3.778 182.80
73.411 -130.869 3.787 296.69
73.411 -127.719 3.809 375.60
73.411 -124.569 3.832 541.45
73.411 -121.419 3.849 583.43
73.411 -118.269 3.868 576.44
73.411 -115.119 3.885 681.33
73.411 -111.969 3.897 468.53
73.411 -108.818 3.901 120.87
73.411 -105.668 3.903 255.75
73.411 -102.518 3.906 455.54
73.411 -99.368 3.918 763.20
73.411 -96.218 3.915 805.19
73.411 -93.068 3.889 1058.93
73.411 -89.918 3.914 1024.96
73.411 -86.768 3.996 2313.60
73.411 -83.618 4.092 5753.00
73.411 -80.468 4.285 10897.69
73.411 -77.318 4.356 8393.17
73.411 -74.168 4.219 2816.06
73.411 -71.018 4.099 1356.64
73.411 -67.867 3.867 50.96
73.411 -64.717 3.764 0.00
73.411 -61.567 3.775 0.00
73.411 -58.417 3.789 0.00
73.411 -55.267 3.795 0.00
73.411 -52.117 3.797 0.00
73.411 -48.967 3.799 7.99
73.411 -45.817 3.802 76.91
73.411 -42.667 3.802 74.91
73.411 -39.517 3.799 49.94
73.411 -36.367 3.794 0.00
73.411 -33.217 3.789 0.00
73.411 -30.067 3.787 0.00
73.411 -26.916 3.786 0.00
73.411 -23.766 3.787 0.00
73.411 -20.616 3.787 0.00
73.411 -17.466 3.787 0.00
73.411 -14.316 3.787 0.00
73.411 -11.166 3.787 0.00
74.311 -179.185 3.787 0.00
74.311 -175.860 3.787 0.00
74.311 -172.534 3.786 0.00
74.311 -169.208 3.786 0.00
74.311 -165.882 3.786 0.00
74.311 -162.557 3.786 0.00
74.311 -159.231 3.788 0.00
74.311 -155.905 3.792 0.00
74.311 -152.580 3.797 0.00
74.311 -149.254 3.802 37.96
74.311 -145.928 3.805 78.92
74.311 -142.602 3.801 44.95
74.311 -139.277 3.793 0.00
74.311 -135.951 3.785 0.00
74.311 -132.625 3.778 48.95
74.311 -129.300 3.779 191.79
74.311 -125.974 3.789 322.66
74.311 -122.648 3.811 423.55
74.311 -119.322 3.834 586.41
74.311 -115.997 3.853 647.37
74.311 -112.671 3.874 689.33
74.311 -109.345 3.896 875.14
74.311 -106.020 3.917 552.45
74.311 -102.694 3.943 343.65
74.311 -99.368 3.966 366.65
74.311 -96.042 3.968 1168.74
74.311 -92.717 3.933 577.39
74.311 -89.391 3.930 769.26
74.311 -86.065 3.974 1183.86
74.311 -82.740 4.126 2439.50
74.311 -79.414 4.340 7904.80
74.311 -76.088 4.440 20154.96
74.311 -72.763 4.245 4293.54
74.311 -69.437 4.131 256.76
74.311 -66.111 3.891 0.00
74.311 -62.785 3.768 0.00
74.311 -59.460 3.780 0.00
74.311 -56.134 3.801 38.95
74.311 -52.808 3.804 81.90
74.311 -49.483 3.804 80.90
74.311 -46.157 3.802 69.92
74.311 -42.831 3.798 0.00
74.311 -39.505 3.795 0.00
74.311 -36.180 3.793 0.00
74.311 -32.854 3.789 0.00
74.311 -29.528 3.787 0.00
74.311 -26.203 3.786 0.00
74.311 -22.877 3.787 0.00
74.311 -19.551 3.787 0.00
74.311 -16.225 3.787 0.00
74.311 -12.900 3.787 0.00
74.311 -9.574 3.787 0.00
74.311 -6.248 3.787 0.00
75.210 -176.874 3.787 0.00
75.210 -173.351 3.787 0.00
75.210 -169.828 3.786 0.00
75.210 -166.305 3.786 0.00
75.210 -162.782 3.786 0.00
75.210 -159.259 3.786 0.00
75.210 -155.736 3.788 0.00
75.210 -152.213 3.792 0.00
75.210 -148.690 3.797 0.00
75.210 -145.167 3.802 34.96
75.210 -141.644 3.805 81.91
75.210 -138.121 3.802 63.93
75.210 -134.598 3.794 0.00
75.210 -131.075 3.787 0.00
75.210 -127.552 3.780 34.96
75.210 -124.029 3.780 157.83
75.210 -120.506 3.788 333.64
75.210 -116.983 3.808 457.51
75.210 -113.460 3.830 613.37
75.210 -109.937 3.850 659.33
75.210 -106.414 3.866 924.08
75.210 -102.891 3.897 992.02
75.210 -99.368 3.938 1005.00
75.210 -95.845 3.958 1027.97
75.210 -92.322 3.940 724.27
75.210 -88.799 3.949 727.26
75.210 -85.276 4.022 897.08
75.210 -81.753 4.089 1400.59
75.210 -78.230 4.205 2931.05
75.210 -74.707 4.315 14703.81
75.210 -71.184 4.168 10527.01
75.210 -67.661 4.059 94.89
75.210 -64.138 3.849 92.89
75.210 -60.615 3.770 89.89
75.210 -57.092 3.796 87.90
75.210 -53.569 3.804 45.95
75.210 -50.046 3.799 0.00
75.210 -46.523 3.796 0.00
75.210 -43.000 3.793 0.00
75.210 -39.477 3.790 0.00
75.210 -35.954 3.788 0.00
75.210 -32.431 3.787 0.00
75.210 -28.908 3.786 0.00
75.210 -25.385 3.786 0.00
75.210 -21.862 3.786 0.00
75.210 -18.339 3.787 0.00
75.210 -14.816 3.787 0.00
75.210 -11.293 3.787 0.00
75.210 -7.770 3.787 0.00
75.210 -4.247 3.787 0.00
75.210 -0.724 3.787 0.00
76.109 -178.038 3.787 0.00
76.109 -174.292 3.787 0.00
76.109 -170.545 3.787 0.00
76.109 -166.799 3.786 0.00
76.109 -163.053 3.786 0.00
76.109 -159.307 3.786 0.00
76.109 -155.561 3.786 0.00
76.109 -151.815 3.788 0.00
76.109 -148.068 3.792 0.00
76.109 -144.322 3.797 0.00
76.109 -140.576 3.802 18.98
76.109 -136.830 3.806 84.91
76.109 -133.084 3.805 86.91
76.109 -129.338 3.798 24.97
76.109 -125.591 3.791 0.00
76.109 -121.845 3.787 0.00
76.109 -118.099 3.784 75.92
76.109 -114.353 3.785 218.76
76.109 -110.607 3.791 358.62
76.109 -106.861 3.805 548.41
76.109 -103.114 3.825 691.26
76.109 -99.368 3.855 888.07
76.109 -95.622 3.877 905.05
76.109 -91.876 3.874 1299.66
76.109 -88.130 3.848 1490.48
76.109 -84.384 3.871 1472.49
76.109 -80.637 3.990 1328.63
76.109 -76.891 4.030 663.31
76.109 -73.145 4.100 28.97
76.109 -69.399 4.010 0.00
76.109 -65.653 3.931 0.00
76.109 -61.906 3.782 0.00
76.109 -58.160 3.768 0.00
76.109 -54.414 3.793 0.00
76.109 -50.668 3.794 0.00
76.109 -46.922 3.789 0.00
76.109 -43.176 3.788 0.00
76.109 -39.429 3.786 0.00
76.109 -35.683 3.786 0.00
76.109 -31.937 3.785 0.00
76.109 -28.191 3.786 0.00
76.109 -24.445 3.786 0.00
76.109 -20.699 3.787 0.00
76.109 -16.952 3.787 0.00
76.109 -13.206 3.787 0.00
76.109 -9.460 3.787 0.00
76.109 -5.714 3.787 0.00
76.109 -1.968 3.787 0.00
76.109 1.778 3.787 0.00
76.109 5.525 3.787 0.00
77.009 -179.380 3.787 0.00
77.009 -175.379 3.787 0.00
77.009 -171.379 3.787 0.00
77.009 -167.378 3.787 0.00
77.009 -163.377 3.786 0.00
77.009 -159.377 3.786 0.00
77.009 -155.376 3.786 0.00
77.009 -151.376 3.786 0.00
77.009 -147.375 3.788 0.00
77.009 -143.375 3.791 0.00
77.009 -139.374 3.796 0.00
77.009 -135.373 3.800 0.00
77.009 -131.373 3.805 62.93
77.009 -127.372 3.808 90.90
77.009 -123.372 3.805 92.90
77.009 -119.371 3.799 72.92
77.009 -115.371 3.790 0.00
77.009 -111.370 3.788 0.00
77.009 -107.369 3.791 0.00
77.009 -103.369 3.795 23.98
77.009 -99.368 3.801 99.90
77.009 -95.368 3.813 119.88
77.009 -91.367 3.830 132.87
77.009 -87.366 3.830 98.90
77.009 -83.366 3.791 96.90
77.009 -79.365 3.789 6.01
77.009 -75.365 3.840 0.00
77.009 -71.364 3.842 0.00
77.009 -67.364 3.845 0.00
77.009 -63.363 3.782 0.00
77.009 -59.362 3.744 0.00
77.009 -55.362 3.775 0.00
77.009 -51.361 3.791 0.00
77.009 -47.361 3.788 0.00
77.009 -43.360 3.785 0.00
77.009 -39.360 3.785 0.00
77.009 -35.359 3.786 0.00
