41.934 -83.652 3.479 29281.55
41.934 -82.443 3.470 24146.29
41.934 -81.234 3.430 26356.23
41.934 -80.025 3.382 26561.57
41.934 -78.816 3.302 25521.87
41.934 -77.607 3.325 22664.17
41.934 -76.398 3.455 19740.53
41.934 -75.189 3.608 16221.48
41.934 -73.980 3.734 11406.80
41.934 -72.771 3.838 4615.77
41.934 -71.562 3.729 1731.59
41.934 -70.353 3.562 557.24
41.934 -69.145 3.478 0.00
41.934 -67.936 3.461 0.00
41.934 -66.727 3.463 0.00
41.934 -65.518 3.485 0.00
42.833 -133.707 3.535 0.00
42.833 -132.481 3.546 35.97
42.833 -131.254 3.574 126.88
42.833 -130.028 3.613 0.00
42.833 -128.802 3.737 7.99
42.833 -127.575 3.904 305.70
42.833 -126.349 3.805 11042.11
42.833 -125.122 3.443 14277.39
42.833 -123.896 3.324 11879.29
42.833 -122.670 3.343 22957.19
42.833 -121.443 3.376 26102.00
42.833 -120.217 3.363 29388.37
42.833 -118.990 3.421 36494.79
42.833 -117.764 3.476 45043.25
42.833 -116.538 3.484 54638.46
42.833 -115.311 3.353 51385.07
42.833 -114.085 3.352 51817.37
42.833 -112.858 3.416 54035.34
42.833 -111.632 3.385 58540.26
42.833 -110.406 3.275 58937.69
42.833 -109.179 3.209 55534.96
42.833 -107.953 3.205 44970.87
42.833 -106.727 3.242 41205.73
42.833 -105.500 3.290 38667.95
42.833 -104.274 3.362 36939.29
42.833 -103.047 3.382 33247.46
42.833 -101.821 3.498 33496.48
42.833 -100.595 3.489 34572.95
42.833 -99.368 3.466 35253.38
42.833 -98.142 3.437 44401.21
42.833 -96.915 3.384 48948.14
42.833 -95.689 3.400 48666.02
42.833 -94.463 3.448 46919.27
42.833 -93.236 3.536 40934.86
42.833 -92.010 3.555 34991.77
42.833 -90.783 3.530 43948.98
42.833 -89.557 3.547 25024.80
42.833 -88.331 3.612 24161.47
42.833 -87.104 3.694 23419.12
42.833 -85.878 3.595 23150.72
42.833 -84.652 3.611 25599.02
42.833 -83.425 3.559 24180.48
42.833 -82.199 3.525 24841.34
42.833 -80.972 3.504 26210.07
42.833 -79.746 3.404 25258.11
42.833 -78.520 3.302 26033.10
42.833 -77.293 3.365 21802.15
42.833 -76.067 3.519 18371.92
42.833 -74.840 3.632 17253.48
42.833 -73.614 3.636 20079.79
42.833 -72.388 3.727 17800.51
42.833 -71.161 3.689 3067.51
42.833 -69.935 3.573 116.92
42.833 -68.708 3.504 0.00
42.833 -67.482 3.471 0.00
42.833 -66.256 3.461 0.00
42.833 -65.029 3.497 0.00
43.732 -134.219 3.579 22.98
43.732 -132.974 3.589 143.87
43.732 -131.729 3.594 0.00
43.732 -130.485 3.682 0.00
43.732 -129.240 3.790 283.72
43.732 -127.995 3.609 214.81
43.732 -126.751 3.180 42620.76
43.732 -125.506 2.980 23394.11
43.732 -124.261 3.056 17205.07
43.732 -123.017 3.232 21961.32
43.732 -121.772 3.258 25708.22
43.732 -120.527 3.298 29999.10
43.732 -119.283 3.372 33961.82
43.732 -118.038 3.472 38248.71
43.732 -116.793 3.504 45398.98
43.732 -115.549 3.433 43199.46
43.732 -114.304 3.420 44222.44
43.732 -113.059 3.359 38300.12
43.732 -111.815 3.243 42121.25
43.732 -110.570 3.179 49170.09
43.732 -109.325 3.239 42195.51
43.732 -108.081 3.304 40155.83
43.732 -106.836 3.325 37992.93
43.732 -105.591 3.475 33775.00
43.732 -104.347 3.495 34523.04
43.732 -103.102 3.449 31580.04
43.732 -101.858 3.467 31358.03
43.732 -100.613 3.401 34439.48
43.732 -99.368 3.440 40530.12
43.732 -98.124 3.566 42132.07
43.732 -96.879 3.543 50759.39
43.732 -95.634 3.472 47873.08
43.732 -94.390 3.450 40029.76
43.732 -93.145 3.463 39441.61
43.732 -91.900 3.506 34083.38
43.732 -90.656 3.504 39974.68
43.732 -89.411 3.550 27528.30
43.732 -88.166 3.652 24006.37
43.732 -86.922 3.649 23019.88
43.732 -85.677 3.548 23404.02
43.732 -84.432 3.578 18244.34
43.732 -83.188 3.586 17640.00
43.732 -81.943 3.576 17185.44
43.732 -80.698 3.521 20477.28
43.732 -79.454 3.480 21649.97
43.732 -78.209 3.387 23004.23
43.732 -76.964 3.476 22068.80
43.732 -75.720 3.598 16497.90
43.732 -74.475 3.667 17274.63
43.732 -73.230 3.637 12802.70
43.732 -71.986 3.692 11639.79
43.732 -70.741 3.644 13310.20
43.732 -69.496 3.566 1815.43
43.732 -68.252 3.532 187.84
43.732 -67.007 3.507 115.89
43.732 -65.763 3.494 0.00
43.732 -64.518 3.525 0.00
44.632 -134.754 3.621 171.84
44.632 -133.490 3.608 0.00
44.632 -132.227 3.672 0.00
44.632 -130.963 3.821 215.79
44.632 -129.699 3.853 213.15
44.632 -128.435 3.563 316.88
44.632 -127.172 3.058 2759.44
44.632 -125.908 2.917 10596.96
44.632 -124.644 3.035 13343.07
44.632 -123.380 3.256 22236.49
44.632 -122.116 3.293 23880.68
44.632 -120.853 3.398 25121.08
44.632 -119.589 3.518 27624.21
44.632 -118.325 3.486 38046.74
44.632 -117.061 3.461 40469.25
44.632 -115.797 3.442 35513.49
44.632 -114.534 3.429 36543.24
44.632 -113.270 3.450 38439.04
44.632 -112.006 3.329 35040.57
44.632 -110.742 3.298 39489.95
44.632 -109.479 3.430 33535.75
44.632 -108.215 3.492 29191.66
44.632 -106.951 3.478 30348.18
44.632 -105.687 3.557 28333.83
44.632 -104.423 3.568 26377.51
44.632 -103.160 3.434 27795.24
44.632 -101.896 3.416 27658.66
44.632 -100.632 3.462 26572.55
44.632 -99.368 3.518 29450.94
44.632 -98.104 3.589 33048.62
44.632 -96.841 3.621 42163.95
44.632 -95.577 3.552 38612.14
44.632 -94.313 3.391 37607.24
44.632 -93.049 3.324 33527.66
44.632 -91.785 3.420 33233.84
44.632 -90.522 3.495 31195.50
44.632 -89.258 3.497 31078.86
44.632 -87.994 3.536 21486.82
44.632 -86.730 3.550 19456.40
44.632 -85.467 3.546 19491.00
44.632 -84.203 3.602 17053.92
44.632 -82.939 3.627 14794.27
44.632 -81.675 3.586 14811.96
44.632 -80.411 3.543 14969.99
44.632 -79.148 3.496 19482.48
44.632 -77.884 3.414 28186.68
44.632 -76.620 3.459 23811.58
44.632 -75.356 3.642 19878.60
44.632 -74.092 3.657 15080.67
44.632 -72.829 3.601 9547.93
44.632 -71.565 3.648 6467.77
44.632 -70.301 3.646 5067.23
44.632 -69.037 3.596 3629.35
44.632 -67.773 3.578 3169.80
44.632 -66.510 3.565 127.88
44.632 -65.246 3.564 228.79
44.632 -63.982 3.588 197.98
45.531 -135.316 3.669 161.85
45.531 -134.032 3.663 0.00
45.531 -132.748 3.755 150.46
45.531 -131.464 3.873 232.81
45.531 -130.180 3.918 169.66
45.531 -128.897 3.762 338.68
45.531 -127.613 3.435 1375.74
45.531 -126.329 3.471 2321.30
45.531 -125.045 3.448 4035.19
45.531 -123.761 3.332 11905.44
45.531 -122.477 3.238 17384.48
45.531 -121.193 3.354 21776.16
45.531 -119.910 3.546 26135.80
45.531 -118.626 3.522 36741.40
45.531 -117.342 3.427 34900.33
45.531 -116.058 3.463 29662.94
45.531 -114.774 3.455 30571.27
45.531 -113.490 3.488 30775.91
45.531 -112.207 3.504 39390.46
45.531 -110.923 3.409 28080.42
45.531 -109.639 3.516 22516.34
45.531 -108.355 3.527 22594.98
45.531 -107.071 3.448 24398.63
45.531 -105.787 3.461 25689.01
45.531 -104.504 3.548 21948.87
45.531 -103.220 3.482 21190.75
45.531 -101.936 3.420 23943.13
45.531 -100.652 3.466 24520.07
45.531 -99.368 3.573 27301.71
45.531 -98.084 3.583 31124.72
45.531 -96.801 3.635 35388.88
45.531 -95.517 3.552 34700.37
45.531 -94.233 3.376 33161.86
45.531 -92.949 3.275 26276.17
45.531 -91.665 3.335 30175.38
45.531 -90.381 3.490 22372.86
45.531 -89.097 3.509 22390.24
45.531 -87.814 3.482 17740.39
45.531 -86.530 3.489 18806.77
45.531 -85.246 3.533 16841.37
45.531 -83.962 3.717 12654.75
45.531 -82.678 3.741 15981.04
45.531 -81.394 3.690 13564.21
45.531 -80.111 3.677 14709.85
45.531 -78.827 3.613 15934.77
45.531 -77.543 3.488 22966.93
45.531 -76.259 3.370 26887.03
45.531 -74.975 3.524 8586.04
45.531 -73.691 3.619 7735.41
45.531 -72.408 3.559 5928.23
45.531 -71.124 3.611 4887.26
45.531 -69.840 3.633 4336.10
45.531 -68.556 3.601 1430.92
45.531 -67.272 3.608 1305.51
45.531 -65.988 3.624 1025.17
45.531 -64.705 3.626 436.81
45.531 -63.421 3.658 431.49
46.431 -135.904 3.719 353.73
46.431 -134.600 3.740 111.32
46.431 -133.295 3.788 253.92
46.431 -131.990 3.786 152.86
46.431 -130.685 3.839 196.81
46.431 -129.380 3.905 328.67
46.431 -128.075 3.934 1350.74
46.431 -126.770 4.213 2189.57
46.431 -125.466 4.001 3294.22
46.431 -124.161 3.536 6545.14
46.431 -122.856 3.269 13198.90
46.431 -121.551 3.210 20740.77
46.431 -120.246 3.474 27494.60
46.431 -118.941 3.640 31646.11
46.431 -117.636 3.598 24763.67
46.431 -116.331 3.654 22648.56
46.431 -115.027 3.589 25477.18
46.431 -113.722 3.515 28082.36
46.431 -112.417 3.518 24144.69
46.431 -111.112 3.401 17086.65
46.431 -109.807 3.411 17697.77
46.431 -108.502 3.452 19212.64
46.431 -107.197 3.392 19444.41
46.431 -105.893 3.400 24677.68
46.431 -104.588 3.497 17941.18
46.431 -103.283 3.477 17691.05
46.431 -101.978 3.407 18301.03
46.431 -100.673 3.491 17685.79
46.431 -99.368 3.603 19879.06
46.431 -98.063 3.627 23434.23
46.431 -96.758 3.655 28899.26
46.431 -95.454 3.615 29431.55
46.431 -94.149 3.479 26176.24
46.431 -92.844 3.394 23534.50
46.431 -91.539 3.360 17108.16
46.431 -90.234 3.438 14522.06
46.431 -88.929 3.494 11869.94
46.431 -87.624 3.463 9496.89
46.431 -86.320 3.409 12748.39
46.431 -85.015 3.542 12353.70
46.431 -83.710 3.738 10726.64
46.431 -82.405 3.821 8820.11
46.431 -81.100 3.809 9158.21
46.431 -79.795 3.814 9333.73
46.431 -78.490 3.770 8242.65
46.431 -77.185 3.632 7540.38
46.431 -75.881 3.512 7504.41
46.431 -74.576 3.526 5207.59
46.431 -73.271 3.534 6974.90
46.431 -71.966 3.444 6077.13
46.431 -70.661 3.459 3298.97
46.431 -69.356 3.498 2355.03
46.431 -68.051 3.532 1581.26
46.431 -66.747 3.598 496.70
46.431 -65.442 3.641 538.68
46.431 -64.137 3.624 573.40
46.431 -62.832 3.644 223.74
47.330 -136.522 3.798 298.40
47.330 -135.195 3.805 417.85
47.330 -133.868 3.773 144.86
47.330 -132.541 3.762 140.87
47.330 -131.214 3.817 159.85
47.330 -129.887 3.930 419.58
47.330 -128.561 4.143 1583.42
47.330 -127.234 4.470 2919.33
47.330 -125.907 4.214 3000.04
47.330 -124.580 3.731 5445.39
47.330 -123.253 3.417 13890.45
47.330 -121.926 3.319 18749.49
47.330 -120.599 3.574 22862.43
47.330 -119.272 3.750 20967.84
47.330 -117.945 3.721 19269.02
47.330 -116.618 3.664 19852.23
47.330 -115.291 3.509 21804.22
47.330 -113.964 3.487 19572.10
47.330 -112.637 3.455 18655.65
47.330 -111.311 3.411 14515.26
47.330 -109.984 3.372 14143.11
47.330 -108.657 3.324 14540.26
47.330 -107.330 3.304 15808.49
47.330 -106.003 3.253 16662.96
47.330 -104.676 3.325 16714.50
47.330 -103.349 3.424 14823.75
47.330 -102.022 3.412 15998.97
47.330 -100.695 3.479 16985.90
47.330 -99.368 3.595 17760.27
47.330 -98.041 3.614 23495.52
47.330 -96.714 3.576 21819.70
47.330 -95.387 3.587 20077.46
47.330 -94.061 3.581 17363.75
47.330 -92.734 3.530 12018.82
47.330 -91.407 3.483 8738.57
47.330 -90.080 3.502 8564.23
47.330 -88.753 3.554 8688.56
47.330 -87.426 3.528 7322.34
47.330 -86.099 3.477 5976.30
47.330 -84.772 3.600 4878.71
47.330 -83.445 3.719 4783.67
47.330 -82.118 3.766 4653.83
47.330 -80.791 3.760 5269.03
47.330 -79.464 3.753 5207.86
47.330 -78.137 3.786 4640.86
47.330 -76.811 3.738 4382.26
47.330 -75.484 3.695 3883.85
47.330 -74.157 3.627 3885.49
47.330 -72.830 3.574 3595.53
47.330 -71.503 3.491 3483.96
47.330 -70.176 3.464 2410.22
47.330 -68.849 3.503 564.16
47.330 -67.522 3.552 420.64
47.330 -66.195 3.606 480.83
47.330 -64.868 3.605 393.58
47.330 -63.541 3.570 208.52
47.330 -62.214 3.664 280.23
48.229 -137.170 3.962 421.78
48.229 -135.820 3.916 122.21
48.229 -134.470 3.826 253.65
48.229 -133.120 3.814 370.53
48.229 -131.770 3.852 320.15
48.229 -130.420 3.948 979.48
48.229 -129.070 4.145 1850.88
48.229 -127.720 4.346 2971.60
48.229 -126.370 4.096 2999.59
48.229 -125.020 3.791 7263.95
48.229 -123.670 3.567 16983.02
48.229 -122.320 3.516 17499.80
48.229 -120.969 3.596 18128.33
48.229 -119.619 3.767 14992.50
48.229 -118.269 3.707 15395.12
48.229 -116.919 3.565 18497.10
48.229 -115.569 3.346 15834.38
48.229 -114.219 3.408 14477.20
48.229 -112.869 3.474 13646.91
48.229 -111.519 3.527 9147.35
48.229 -110.169 3.463 10871.85
48.229 -108.819 3.340 11231.98
48.229 -107.469 3.306 13274.54
48.229 -106.119 3.204 11209.40
48.229 -104.769 3.250 17464.95
48.229 -103.418 3.443 13340.99
48.229 -102.068 3.495 14724.64
48.229 -100.718 3.481 13936.21
48.229 -99.368 3.575 15067.99
48.229 -98.018 3.567 12929.71
48.229 -96.668 3.537 14962.50
48.229 -95.318 3.591 13087.40
48.229 -93.968 3.639 8526.74
48.229 -92.618 3.626 5642.44
48.229 -91.268 3.575 4892.69
48.229 -89.918 3.598 3746.57
48.229 -88.568 3.606 4287.47
48.229 -87.217 3.586 3433.27
48.229 -85.867 3.549 3119.41
48.229 -84.517 3.639 2730.19
48.229 -83.167 3.717 2653.44
48.229 -81.817 3.714 3005.07
48.229 -80.467 3.719 3046.16
48.229 -79.117 3.719 3274.45
48.229 -77.767 3.769 3394.02
48.229 -76.417 3.793 2439.89
48.229 -75.067 3.735 1681.31
48.229 -73.717 3.622 1638.54
48.229 -72.367 3.561 1124.86
48.229 -71.017 3.523 886.20
48.229 -69.666 3.538 214.79
48.229 -68.316 3.587 82.90
48.229 -66.966 3.622 427.30
48.229 -65.616 3.596 397.28
48.229 -64.266 3.553 376.29
48.229 -62.916 3.578 250.30
48.229 -61.566 3.765 244.69
49.129 -137.851 4.166 576.42
49.129 -136.477 4.116 167.83
49.129 -135.103 3.936 302.70
49.129 -133.728 3.855 405.59
49.129 -132.354 3.889 672.32
49.129 -130.979 4.044 1154.77
49.129 -129.605 4.183 1275.77
49.129 -128.231 4.139 3335.79
49.129 -126.856 3.897 4652.66
49.129 -125.482 3.732 15227.39
49.129 -124.107 3.610 19142.09
49.129 -122.733 3.475 15237.06
49.129 -121.359 3.542 13469.12
49.129 -119.984 3.683 14034.04
49.129 -118.610 3.542 11935.49
49.129 -117.235 3.352 10667.90
49.129 -115.861 3.242 8384.21
49.129 -114.487 3.328 8674.63
49.129 -113.112 3.466 10047.81
49.129 -111.738 3.578 7969.39
49.129 -110.363 3.514 7934.97
49.129 -108.989 3.463 8794.40
49.129 -107.615 3.381 9345.98
49.129 -106.240 3.316 10612.00
49.129 -104.866 3.312 12101.74
49.129 -103.491 3.508 14364.46
49.129 -102.117 3.652 11831.25
49.129 -100.743 3.560 12012.19
49.129 -99.368 3.565 9940.43
49.129 -97.994 3.565 8905.73
49.129 -96.619 3.608 8284.91
49.129 -95.245 3.656 5743.22
49.129 -93.871 3.706 3092.76
49.129 -92.496 3.658 2791.13
49.129 -91.122 3.556 2526.97
49.129 -89.747 3.564 3682.57
49.129 -88.373 3.615 3681.20
49.129 -86.999 3.645 3754.02
49.129 -85.624 3.675 3591.49
49.129 -84.250 3.767 3228.74
49.129 -82.875 3.814 3347.80
49.129 -81.501 3.780 2090.95
49.129 -80.127 3.787 2964.18
49.129 -78.752 3.756 2320.61
49.129 -77.378 3.735 1169.01
49.129 -76.003 3.737 1034.67
49.129 -74.629 3.642 937.08
49.129 -73.255 3.556 758.82
49.129 -71.880 3.545 642.06
49.129 -70.506 3.571 358.08
49.129 -69.131 3.601 339.04
49.129 -67.757 3.628 522.70
49.129 -66.383 3.600 234.78
49.129 -65.008 3.576 157.85
49.129 -63.634 3.619 99.20
49.129 -62.259 3.758 144.38
49.129 -60.885 4.005 474.01
50.028 -138.567 4.244 632.79
50.028 -137.167 4.183 774.66
50.028 -135.767 3.898 574.42
50.028 -134.367 3.802 526.44
50.028 -132.967 3.933 311.70
50.028 -131.567 4.093 937.98
50.028 -130.167 4.047 1513.53
50.028 -128.767 3.814 4542.98
50.028 -127.368 3.665 15970.79
50.028 -125.968 3.589 19618.60
50.028 -124.568 3.420 17614.22
50.028 -123.168 3.380 14095.82
50.028 -121.768 3.475 14175.82
50.028 -120.368 3.577 11339.72
50.028 -118.968 3.428 8808.05
50.028 -117.568 3.250 9716.47
50.028 -116.168 3.213 7854.93
50.028 -114.768 3.358 7894.83
50.028 -113.368 3.507 7852.37
50.028 -111.968 3.570 7951.93
50.028 -110.568 3.515 6381.92
50.028 -109.168 3.565 8327.81
50.028 -107.768 3.450 8233.11
50.028 -106.368 3.326 9294.70
50.028 -104.968 3.286 9876.08
50.028 -103.568 3.485 14308.68
50.028 -102.168 3.705 10470.26
50.028 -100.768 3.614 9096.50
50.028 -99.368 3.615 6664.19
50.028 -97.968 3.638 5915.07
50.028 -96.568 3.714 7969.69
50.028 -95.168 3.770 2989.03
50.028 -93.768 3.767 2619.85
50.028 -92.368 3.658 1776.15
50.028 -90.968 3.513 2928.45
50.028 -89.568 3.563 2913.06
50.028 -88.168 3.607 2786.90
50.028 -86.769 3.551 2430.32
50.028 -85.369 3.619 2010.99
50.028 -83.969 3.739 2215.67
50.028 -82.569 3.783 2584.70
50.028 -81.169 3.784 2885.50
50.028 -79.769 3.781 2019.85
50.028 -78.369 3.723 1368.59
50.028 -76.969 3.698 1186.72
50.028 -75.569 3.676 1245.55
50.028 -74.169 3.598 1176.00
50.028 -72.769 3.571 368.61
50.028 -71.369 3.601 335.69
50.028 -69.969 3.645 407.66
50.028 -68.569 3.647 335.70
50.028 -67.169 3.614 409.95
50.028 -65.769 3.629 91.54
50.028 -64.369 3.700 133.77
50.028 -62.969 3.842 163.84
50.028 -61.569 3.996 525.50
50.028 -60.169 4.080 151.86
50.927 -139.320 4.121 961.01
50.927 -137.893 4.062 830.96
50.927 -136.466 3.815 350.64
50.927 -135.040 3.792 2.00
50.927 -133.613 3.944 734.24
50.927 -132.186 3.971 642.30
50.927 -130.759 3.770 2470.49
50.927 -129.332 3.566 20619.11
50.927 -127.905 3.520 26682.02
50.927 -126.478 3.440 18029.46
50.927 -125.052 3.348 18217.86
50.927 -123.625 3.407 13597.78
50.927 -122.198 3.496 11460.58
50.927 -120.771 3.520 9947.12
50.927 -119.344 3.430 9712.31
50.927 -117.917 3.310 9760.62
50.927 -116.490 3.294 7198.98
50.927 -115.064 3.448 6716.50
50.927 -113.637 3.547 6735.86
50.927 -112.210 3.554 7544.02
50.927 -110.783 3.535 6123.72
50.927 -109.356 3.560 6777.12
50.927 -107.929 3.484 8451.58
50.927 -106.502 3.268 9670.81
50.927 -105.076 3.246 11113.73
50.927 -103.649 3.424 12942.21
50.927 -102.222 3.723 11604.15
50.927 -100.795 3.692 7740.06
50.927 -99.368 3.667 5204.60
50.927 -97.941 3.751 4516.76
50.927 -96.514 3.809 3598.18
50.927 -95.088 3.839 2902.96
50.927 -93.661 3.833 2230.63
50.927 -92.234 3.687 2695.98
50.927 -90.807 3.552 3350.98
50.927 -89.380 3.632 2274.94
50.927 -87.953 3.659 1760.62
50.927 -86.526 3.577 2501.91
50.927 -85.100 3.614 2471.48
50.927 -83.673 3.665 1633.37
50.927 -82.246 3.690 2477.12
50.927 -80.819 3.693 2286.07
50.927 -79.392 3.690 925.07
50.927 -77.965 3.687 1067.65
50.927 -76.538 3.708 785.98
50.927 -75.112 3.704 1174.23
50.927 -73.685 3.673 782.10
50.927 -72.258 3.698 426.58
50.927 -70.831 3.719 514.23
50.927 -69.404 3.695 450.09
50.927 -67.977 3.673 369.47
50.927 -66.550 3.702 200.68
50.927 -65.124 3.812 259.76
50.927 -63.697 3.960 306.71
50.927 -62.270 4.034 479.53
50.927 -60.843 3.969 317.09
50.927 -59.416 3.953 710.04
51.827 -140.113 3.982 1069.19
51.827 -138.658 3.945 218.79
51.827 -137.203 3.769 21.97
51.827 -135.747 3.800 155.82
51.827 -134.292 3.941 959.02
51.827 -132.837 3.900 631.33
51.827 -131.382 3.643 29893.47
51.827 -129.927 3.563 42200.71
51.827 -128.472 3.549 21739.53
51.827 -127.016 3.538 16426.57
51.827 -125.561 3.518 13591.04
51.827 -124.106 3.581 11713.61
51.827 -122.651 3.612 9819.79
51.827 -121.196 3.593 7966.43
51.827 -119.741 3.529 7162.25
51.827 -118.285 3.403 6534.27
51.827 -116.830 3.404 5506.50
51.827 -115.375 3.511 5241.25
51.827 -113.920 3.578 5405.26
51.827 -112.465 3.490 6651.76
51.827 -111.010 3.535 7059.12
51.827 -109.554 3.565 7453.79
51.827 -108.099 3.516 8455.88
51.827 -106.644 3.320 11368.26
51.827 -105.189 3.308 11776.67
51.827 -103.734 3.438 10886.14
51.827 -102.279 3.673 12215.35
51.827 -100.823 3.715 7463.33
51.827 -99.368 3.694 4367.50
51.827 -97.913 3.756 4590.43
51.827 -96.458 3.782 2413.58
51.827 -95.003 3.807 2911.98
51.827 -93.548 3.827 2748.15
51.827 -92.092 3.734 2384.25
51.827 -90.637 3.655 2728.50
51.827 -89.182 3.725 2277.52
51.827 -87.727 3.753 2056.44
51.827 -86.272 3.650 2570.33
51.827 -84.817 3.623 2003.07
51.827 -83.361 3.649 1977.21
51.827 -81.906 3.665 2144.17
51.827 -80.451 3.672 1407.65
51.827 -78.996 3.717 1435.57
51.827 -77.541 3.784 1293.99
51.827 -76.085 3.842 1036.60
51.827 -74.630 3.856 1072.32
51.827 -73.175 3.819 830.31
51.827 -71.720 3.815 644.12
51.827 -70.265 3.815 571.74
51.827 -68.810 3.803 395.74
51.827 -67.354 3.796 200.79
51.827 -65.899 3.870 194.82
51.827 -64.444 3.988 637.41
51.827 -62.989 4.018 673.35
51.827 -61.534 3.928 531.66
51.827 -60.079 3.841 668.09
51.827 -58.623 3.842 361.66
52.726 -140.948 3.929 432.60
52.726 -139.463 3.885 91.89
52.726 -137.978 3.775 135.84
52.726 -136.493 3.860 702.30
52.726 -135.008 3.981 733.29
52.726 -133.523 3.958 797.14
52.726 -132.038 3.792 5208.53
52.726 -130.553 3.716 10622.03
52.726 -129.068 3.666 8585.63
52.726 -127.583 3.681 7948.00
52.726 -126.098 3.636 8182.62
52.726 -124.613 3.609 8261.44
52.726 -123.128 3.562 6238.75
52.726 -121.643 3.518 6714.61
52.726 -120.158 3.461 5967.81
52.726 -118.673 3.370 6026.20
52.726 -117.188 3.439 5352.21
52.726 -115.703 3.520 5010.85
52.726 -114.218 3.606 4327.65
52.726 -112.733 3.529 7663.60
52.726 -111.248 3.568 7927.51
52.726 -109.763 3.588 7422.45
52.726 -108.278 3.542 9259.42
52.726 -106.793 3.450 12480.98
52.726 -105.308 3.393 10979.53
52.726 -103.823 3.455 11526.06
52.726 -102.338 3.556 10799.10
52.726 -100.853 3.661 8497.32
52.726 -99.368 3.662 4775.67
52.726 -97.883 3.680 2868.70
52.726 -96.398 3.700 2161.75
52.726 -94.913 3.770 2913.94
52.726 -93.428 3.863 2281.20
52.726 -91.943 3.841 2408.37
52.726 -90.458 3.726 2053.32
52.726 -88.973 3.727 1921.65
52.726 -87.488 3.692 1917.00
52.726 -86.003 3.575 2569.53
52.726 -84.518 3.551 1906.75
52.726 -83.033 3.593 1411.09
52.726 -81.548 3.658 1214.91
52.726 -80.063 3.699 1923.48
52.726 -78.578 3.745 1920.63
52.726 -77.093 3.827 1372.73
52.726 -75.608 3.867 1083.65
52.726 -74.123 3.818 1162.44
52.726 -72.638 3.784 777.26
52.726 -71.153 3.831 957.05
52.726 -69.668 3.907 576.47
52.726 -68.183 3.945 670.46
52.726 -66.698 3.966 534.49
52.726 -65.213 3.996 826.23
52.726 -63.728 3.963 533.50
52.726 -62.243 3.895 503.64
52.726 -60.758 3.821 432.54
52.726 -59.273 3.787 36.97
52.726 -57.788 3.821 332.70
53.625 -141.829 3.879 586.42
53.625 -140.313 3.852 174.83
53.625 -138.796 3.799 382.65
53.625 -137.280 3.870 780.21
53.625 -135.763 3.930 297.67
53.625 -134.247 3.964 763.18
53.625 -132.730 3.927 1673.22
53.625 -131.214 3.803 2896.57
53.625 -129.697 3.763 3356.50
53.625 -128.181 3.707 3696.20
53.625 -126.665 3.611 4339.54
53.625 -125.148 3.580 5239.24
53.625 -123.632 3.549 3896.09
53.625 -122.115 3.506 4834.88
53.625 -120.599 3.429 4753.42
53.625 -119.082 3.378 4242.83
53.625 -117.566 3.448 5053.21
53.625 -116.049 3.502 4850.13
53.625 -114.533 3.574 5169.64
53.625 -113.016 3.578 6639.35
53.625 -111.500 3.574 8347.55
53.625 -109.983 3.577 9335.46
53.625 -108.467 3.553 10701.81
53.625 -106.951 3.518 12561.88
53.625 -105.434 3.441 11389.31
53.625 -103.918 3.438 8418.30
53.625 -102.401 3.480 8350.66
53.625 -100.885 3.599 9630.12
53.625 -99.368 3.633 4850.21
53.625 -97.852 3.650 2707.12
53.625 -96.335 3.700 2525.27
53.625 -94.819 3.752 2069.80
53.625 -93.302 3.864 1622.33
53.625 -91.786 3.861 2017.36
53.625 -90.269 3.738 1423.83
53.625 -88.753 3.698 2164.92
53.625 -87.237 3.575 2165.77
53.625 -85.720 3.457 2208.71
53.625 -84.204 3.426 1180.72
53.625 -82.687 3.500 1044.33
53.625 -81.171 3.610 1311.71
53.625 -79.654 3.658 1812.58
53.625 -78.138 3.680 1366.15
53.625 -76.621 3.708 1190.58
53.625 -75.105 3.704 1320.13
53.625 -73.588 3.680 1561.85
53.625 -72.072 3.729 963.05
53.625 -70.555 3.842 844.16
53.625 -69.039 3.966 665.33
53.625 -67.523 4.056 1080.06
53.625 -66.006 4.012 681.37
53.625 -64.490 3.906 441.59
53.625 -62.973 3.835 384.71
53.625 -61.457 3.781 255.33
53.625 -59.940 3.753 110.90
53.625 -58.424 3.766 435.59
53.625 -56.907 3.790 265.72
54.525 -142.759 3.815 258.74
54.525 -141.209 3.798 317.70
54.525 -139.660 3.785 452.53
54.525 -138.110 3.815 317.70
54.525 -136.560 3.830 399.53
54.525 -135.011 3.896 864.16
54.525 -133.461 3.981 1265.92
54.525 -131.911 3.803 2804.09
54.525 -130.362 3.784 3245.28
54.525 -128.812 3.685 3766.58
54.525 -127.262 3.603 3779.97
54.525 -125.713 3.601 4152.86
54.525 -124.163 3.567 3297.73
54.525 -122.613 3.523 4212.02
54.525 -121.064 3.456 3542.49
54.525 -119.514 3.442 3280.80
54.525 -117.964 3.519 4064.63
54.525 -116.415 3.521 4938.25
54.525 -114.865 3.540 5449.92
54.525 -113.315 3.644 6322.63
54.525 -111.766 3.629 8910.98
54.525 -110.216 3.573 10475.18
54.525 -108.666 3.618 11748.60
54.525 -107.117 3.579 12495.11
54.525 -105.567 3.503 9459.18
54.525 -104.017 3.435 6247.49
54.525 -102.468 3.447 7437.89
54.525 -100.918 3.537 7994.33
54.525 -99.368 3.605 5654.19
54.525 -97.819 3.622 2947.83
54.525 -96.269 3.731 1768.10
54.525 -94.719 3.775 1873.07
54.525 -93.170 3.804 1852.03
54.525 -91.620 3.804 1460.28
54.525 -90.070 3.674 2345.37
54.525 -88.520 3.631 2046.95
54.525 -86.971 3.517 2111.83
54.525 -85.421 3.416 1342.17
54.525 -83.871 3.396 897.79
54.525 -82.322 3.492 948.03
54.525 -80.772 3.555 1293.61
54.525 -79.222 3.555 1799.88
54.525 -77.673 3.583 953.52
54.525 -76.123 3.626 842.16
54.525 -74.573 3.631 1141.15
54.525 -73.024 3.629 1028.92
54.525 -71.474 3.662 848.14
54.525 -69.924 3.728 850.97
54.525 -68.375 3.793 1424.44
54.525 -66.825 3.815 1025.44
54.525 -65.275 3.790 269.91
54.525 -63.726 3.733 288.41
54.525 -62.176 3.684 121.87
54.525 -60.626 3.697 124.86
54.525 -59.077 3.751 416.58
54.525 -57.527 3.766 186.80
54.525 -55.977 3.750 112.89
55.424 -143.742 3.734 495.54
55.424 -142.157 3.713 39.96
55.424 -140.572 3.733 564.41
55.424 -138.988 3.790 281.71
55.424 -137.403 3.843 472.45
55.424 -135.818 3.881 1088.00
55.424 -134.233 3.942 964.05
55.424 -132.648 3.771 3234.45
55.424 -131.064 3.709 2813.22
55.424 -129.479 3.636 3578.54
55.424 -127.894 3.576 3277.02
55.424 -126.309 3.567 3908.32
55.424 -124.725 3.519 4132.43
55.424 -123.140 3.470 3201.88
55.424 -121.555 3.428 4118.56
55.424 -119.970 3.475 4199.66
55.424 -118.385 3.528 5425.46
55.424 -116.801 3.496 5296.41
55.424 -115.216 3.514 5669.11
55.424 -113.631 3.668 6803.09
55.424 -112.046 3.673 9742.12
55.424 -110.462 3.588 12394.20
55.424 -108.877 3.640 12746.65
55.424 -107.292 3.662 10386.26
55.424 -105.707 3.589 8438.20
55.424 -104.123 3.478 5221.74
55.424 -102.538 3.402 4672.14
55.424 -100.953 3.403 6123.85
55.424 -99.368 3.537 8674.07
55.424 -97.783 3.598 2432.34
55.424 -96.199 3.731 2035.97
55.424 -94.614 3.785 1384.50
55.424 -93.029 3.796 1898.82
55.424 -91.444 3.792 1723.29
55.424 -89.860 3.625 2591.92
55.424 -88.275 3.570 1209.93
55.424 -86.690 3.462 1785.04
55.424 -85.105 3.392 1323.63
55.424 -83.520 3.422 1304.61
55.424 -81.936 3.525 924.78
55.424 -80.351 3.539 1636.12
55.424 -78.766 3.524 1412.86
55.424 -77.181 3.555 1074.75
55.424 -75.597 3.587 513.48
55.424 -74.012 3.596 946.37
55.424 -72.427 3.596 604.37
55.424 -70.842 3.584 618.34
55.424 -69.257 3.599 949.04
55.424 -67.673 3.610 1118.89
55.424 -66.088 3.610 537.21
55.424 -64.503 3.604 444.29
55.424 -62.918 3.586 224.74
55.424 -61.334 3.590 142.44
55.424 -59.749 3.660 248.76
55.424 -58.164 3.734 117.89
55.424 -56.579 3.730 348.67
55.424 -54.995 3.684 293.73
56.324 -144.782 3.666 49.95
56.324 -143.160 3.663 453.52
56.324 -141.538 3.718 169.82
56.324 -139.916 3.828 399.58
56.324 -138.294 3.903 700.25
56.324 -136.672 3.877 1263.79
56.324 -135.050 3.849 1038.97
56.324 -133.428 3.744 2513.51
56.324 -131.806 3.668 3222.24
56.324 -130.184 3.594 3412.10
56.324 -128.563 3.565 2780.39
56.324 -126.941 3.540 3026.29
56.324 -125.319 3.454 5178.92
56.324 -123.697 3.438 3895.32
56.324 -122.075 3.420 3908.59
56.324 -120.453 3.503 3734.73
56.324 -118.831 3.503 5383.29
56.324 -117.209 3.489 4527.13
56.324 -115.587 3.553 6407.31
56.324 -113.965 3.699 8761.00
56.324 -112.343 3.674 12070.57
56.324 -110.722 3.625 14035.33
56.324 -109.100 3.640 11043.62
56.324 -107.478 3.703 8744.94
56.324 -105.856 3.719 5022.98
56.324 -104.234 3.553 6258.53
56.324 -102.612 3.363 4270.58
56.324 -100.990 3.295 5616.77
56.324 -99.368 3.473 7221.88
56.324 -97.746 3.550 4868.10
56.324 -96.124 3.660 1494.47
56.324 -94.502 3.778 1634.28
56.324 -92.881 3.813 2877.80
56.324 -91.259 3.799 1525.46
56.324 -89.637 3.626 1699.24
56.324 -88.015 3.562 1290.68
56.324 -86.393 3.439 1360.58
56.324 -84.771 3.340 858.26
56.324 -83.149 3.417 964.87
56.324 -81.527 3.560 1193.77
56.324 -79.905 3.577 1775.07
56.324 -78.283 3.561 1152.47
56.324 -76.661 3.596 768.30
56.324 -75.040 3.615 726.35
56.324 -73.418 3.607 1085.27
56.324 -71.796 3.588 602.36
56.324 -70.174 3.573 607.37
56.324 -68.552 3.575 646.96
56.324 -66.930 3.556 727.00
56.324 -65.308 3.528 531.48
56.324 -63.686 3.513 369.64
56.324 -62.064 3.499 118.90
56.324 -60.442 3.504 93.92
56.324 -58.820 3.565 74.93
56.324 -57.199 3.634 427.22
56.324 -55.577 3.604 61.94
56.324 -53.955 3.593 0.00
57.223 -145.883 3.656 144.85
57.223 -144.222 3.675 501.47
57.223 -142.561 3.770 22.97
57.223 -140.899 3.900 611.35
57.223 -139.238 3.908 986.98
57.223 -137.577 3.824 1221.80
57.223 -135.916 3.758 1344.54
57.223 -134.254 3.727 2150.53
57.223 -132.593 3.672 2975.52
57.223 -130.932 3.598 3113.40
57.223 -129.271 3.552 2995.23
57.223 -127.609 3.537 3120.57
57.223 -125.948 3.456 5553.99
57.223 -124.287 3.454 4630.45
57.223 -122.626 3.469 3696.33
57.223 -120.964 3.547 2893.48
57.223 -119.303 3.539 4624.87
57.223 -117.642 3.586 4389.61
57.223 -115.981 3.723 7463.44
57.223 -114.319 3.795 11693.98
57.223 -112.658 3.718 15441.89
57.223 -110.997 3.649 13842.88
57.223 -109.336 3.602 9309.35
57.223 -107.674 3.677 6563.41
57.223 -106.013 3.785 4920.86
57.223 -104.352 3.608 5535.20
57.223 -102.691 3.335 5143.41
57.223 -101.029 3.253 3962.89
57.223 -99.368 3.385 4695.82
57.223 -97.707 3.497 7312.61
57.223 -96.046 3.594 3002.94
57.223 -94.384 3.707 2111.65
57.223 -92.723 3.803 2502.71
57.223 -91.062 3.831 1066.90
57.223 -89.401 3.653 1989.93
57.223 -87.739 3.540 846.56
57.223 -86.078 3.417 984.76
57.223 -84.417 3.305 1337.28
57.223 -82.756 3.405 1264.93
57.223 -81.094 3.537 1245.65
57.223 -79.433 3.576 1518.72
57.223 -77.772 3.588 903.04
57.223 -76.111 3.628 852.09
57.223 -74.449 3.621 773.22
57.223 -72.788 3.586 798.54
57.223 -71.127 3.560 454.57
57.223 -69.466 3.552 105.46
57.223 -67.805 3.558 553.55
57.223 -66.143 3.545 292.72
57.223 -64.482 3.517 213.81
57.223 -62.821 3.493 299.73
57.223 -61.160 3.463 305.72
57.223 -59.498 3.448 373.66
57.223 -57.837 3.470 100.92
57.223 -56.176 3.494 105.74
57.223 -54.515 3.486 436.03
57.223 -52.853 3.534 25.98
58.122 -147.051 3.700 590.38
58.122 -145.348 3.739 84.91
58.122 -143.645 3.872 259.72
58.122 -141.942 3.952 996.95
58.122 -140.239 3.842 887.16
58.122 -138.537 3.756 1277.69
58.122 -136.834 3.712 998.00
58.122 -135.131 3.753 2664.20
58.122 -133.428 3.754 3496.85
58.122 -131.725 3.693 3017.21
58.122 -130.022 3.619 4378.03
58.122 -128.319 3.607 3151.50
58.122 -126.616 3.556 5080.03
58.122 -124.913 3.518 4631.75
58.122 -123.210 3.547 3216.43
58.122 -121.507 3.596 4399.65
58.122 -119.804 3.600 4004.74
58.122 -118.101 3.705 5665.20
58.122 -116.398 3.849 9949.60
58.122 -114.695 3.862 16798.20
58.122 -112.992 3.787 15471.50
58.122 -111.289 3.681 11327.63
58.122 -109.586 3.574 5838.09
58.122 -107.883 3.610 5783.18
58.122 -106.180 3.702 5160.62
58.122 -104.477 3.616 4415.37
58.122 -102.774 3.353 5233.27
58.122 -101.071 3.249 4015.78
58.122 -99.368 3.338 4469.33
58.122 -97.665 3.513 7306.54
58.122 -95.962 3.532 4833.13
58.122 -94.259 3.636 2844.89
58.122 -92.556 3.796 2109.79
58.122 -90.853 3.845 1587.28
58.122 -89.150 3.654 1636.96
58.122 -87.447 3.500 1135.94
58.122 -85.744 3.416 1282.13
58.122 -84.041 3.324 1370.60
58.122 -82.339 3.425 925.20
58.122 -80.636 3.541 984.44
58.122 -78.933 3.588 1251.06
58.122 -77.230 3.617 749.23
58.122 -75.527 3.628 1149.81
58.122 -73.824 3.583 1014.20
58.122 -72.121 3.549 406.62
58.122 -70.418 3.515 184.53
58.122 -68.715 3.505 170.57
58.122 -67.012 3.525 445.57
58.122 -65.309 3.523 144.86
58.122 -63.606 3.514 176.82
58.122 -61.903 3.503 51.95
58.122 -60.200 3.484 285.77
58.122 -58.497 3.465 210.82
58.122 -56.794 3.452 284.73
58.122 -55.091 3.438 239.78
58.122 -53.388 3.432 134.89
58.122 -51.685 3.506 487.64
59.022 -148.292 3.720 856.14
59.022 -146.545 3.782 104.83
59.022 -144.798 3.927 818.15
59.022 -143.050 3.927 721.23
59.022 -141.303 3.767 1345.66
59.022 -139.556 3.680 877.10
59.022 -137.808 3.686 1206.70
59.022 -136.061 3.826 4625.17
59.022 -134.314 3.859 5591.32
59.022 -132.567 3.875 3274.77
59.022 -130.819 3.770 3255.45
59.022 -129.072 3.673 2744.47
59.022 -127.325 3.633 5278.15
59.022 -125.577 3.590 5422.37
59.022 -123.830 3.629 4019.36
59.022 -122.083 3.602 3808.03
59.022 -120.336 3.604 3343.66
59.022 -118.588 3.718 8164.60
59.022 -116.841 3.812 16375.07
59.022 -115.094 3.747 18734.60
59.022 -113.346 3.737 13197.28
59.022 -111.599 3.715 7261.21
59.022 -109.852 3.600 4950.34
59.022 -108.105 3.513 4769.10
59.022 -106.357 3.555 3857.95
59.022 -104.610 3.596 3901.44
59.022 -102.863 3.461 4745.43
59.022 -101.115 3.345 4173.65
59.022 -99.368 3.389 5140.37
59.022 -97.621 3.582 4435.79
59.022 -95.874 3.563 6469.40
59.022 -94.126 3.658 2842.91
59.022 -92.379 3.784 1041.19
59.022 -90.632 3.804 1579.32
59.022 -88.884 3.646 1141.83
59.022 -87.137 3.490 1519.37
59.022 -85.390 3.492 1142.06
59.022 -83.643 3.416 1200.80
59.022 -81.895 3.455 750.60
59.022 -80.148 3.527 974.90
59.022 -78.401 3.569 1233.74
59.022 -76.654 3.604 886.07
59.022 -74.906 3.601 916.05
59.022 -73.159 3.564 751.88
59.022 -71.412 3.530 412.88
59.022 -69.664 3.496 45.54
59.022 -67.917 3.488 369.64
59.022 -66.170 3.501 229.63
59.022 -64.423 3.509 104.89
59.022 -62.675 3.504 11.99
59.022 -60.928 3.501 117.90
59.022 -59.181 3.501 96.91
59.022 -57.433 3.495 70.94
59.022 -55.686 3.478 228.81
59.022 -53.939 3.458 162.87
59.022 -52.192 3.450 224.79
59.022 -50.444 3.505 236.78
59.921 -149.612 3.654 1440.48
59.921 -147.818 3.720 322.02
59.921 -146.023 3.835 805.69
59.921 -144.229 3.792 954.00
59.921 -142.434 3.670 1268.78
59.921 -140.640 3.590 422.77
59.921 -138.845 3.621 2001.57
59.921 -137.051 3.779 2231.45
59.921 -135.257 3.873 3711.95
59.921 -133.462 3.925 3254.47
59.921 -131.668 3.806 2753.85
59.921 -129.873 3.656 2992.13
59.921 -128.079 3.620 3664.41
59.921 -126.284 3.577 6114.94
59.921 -124.490 3.589 5224.38
59.921 -122.696 3.535 3638.45
59.921 -120.901 3.536 4720.27
59.921 -119.107 3.640 13978.60
59.921 -117.312 3.624 21650.50
59.921 -115.518 3.601 14563.02
59.921 -113.724 3.624 7342.89
59.921 -111.929 3.724 6675.12
59.921 -110.135 3.619 4737.13
59.921 -108.340 3.463 3760.63
59.921 -106.546 3.478 3213.22
59.921 -104.751 3.596 4736.95
59.921 -102.957 3.629 5109.74
59.921 -101.163 3.497 4609.29
59.921 -99.368 3.456 3617.23
59.921 -97.574 3.593 5190.86
59.921 -95.779 3.641 6130.63
59.921 -93.985 3.619 2449.24
59.921 -92.191 3.684 728.05
59.921 -90.396 3.723 1448.51
59.921 -88.602 3.663 1248.73
59.921 -86.807 3.528 1381.33
59.921 -85.013 3.570 1239.12
59.921 -83.218 3.495 1395.58
59.921 -81.424 3.495 1170.32
59.921 -79.630 3.529 1227.74
59.921 -77.835 3.556 969.02
59.921 -76.041 3.579 560.43
59.921 -74.246 3.564 1198.99
59.921 -72.452 3.551 482.92
59.921 -70.657 3.534 229.75
59.921 -68.863 3.498 172.82
59.921 -67.069 3.493 344.67
59.921 -65.274 3.502 120.88
59.921 -63.480 3.501 64.93
59.921 -61.685 3.489 35.97
59.921 -59.891 3.485 65.95
59.921 -58.097 3.490 14.99
59.921 -56.302 3.495 75.93
59.921 -54.508 3.494 21.98
59.921 -52.713 3.494 146.88
59.921 -50.919 3.495 231.82
59.921 -49.124 3.525 306.81
60.820 -151.018 3.586 726.32
60.820 -149.173 3.615 1604.54
60.820 -147.329 3.656 1111.51
60.820 -145.484 3.603 2133.26
60.820 -143.639 3.522 1406.94
60.820 -141.795 3.460 842.13
60.820 -139.950 3.500 1936.74
60.820 -138.106 3.617 1167.55
60.820 -136.261 3.689 2365.00
60.820 -134.416 3.756 2777.41
60.820 -132.572 3.657 2177.44
60.820 -130.727 3.513 2633.25
60.820 -128.882 3.518 2642.54
60.820 -127.038 3.516 7224.14
60.820 -125.193 3.513 4839.16
60.820 -123.348 3.471 3976.61
60.820 -121.504 3.467 10521.22
60.820 -119.659 3.505 25655.32
60.820 -117.815 3.497 16761.67
60.820 -115.970 3.535 7165.72
60.820 -114.125 3.582 6842.21
60.820 -112.281 3.706 5266.51
60.820 -110.436 3.627 4939.79
60.820 -108.591 3.501 4204.80
60.820 -106.747 3.504 4442.29
60.820 -104.902 3.612 4019.71
60.820 -103.057 3.700 3565.24
60.820 -101.213 3.606 4986.99
60.820 -99.368 3.502 3592.28
60.820 -97.524 3.505 4537.92
60.820 -95.679 3.663 4160.67
60.820 -93.834 3.591 5674.00
60.820 -91.990 3.620 772.43
60.820 -90.145 3.662 1502.51
60.820 -88.300 3.663 910.06
60.820 -86.456 3.542 1482.21
60.820 -84.611 3.588 2030.97
60.820 -82.766 3.517 1623.23
60.820 -80.922 3.532 676.31
60.820 -79.077 3.554 1381.85
60.820 -77.233 3.556 1012.76
60.820 -75.388 3.552 640.25
60.820 -73.543 3.530 833.49
60.820 -71.699 3.546 571.49
60.820 -69.854 3.540 160.82
60.820 -68.009 3.506 426.59
60.820 -66.165 3.497 175.83
60.820 -64.320 3.504 100.89
60.820 -62.475 3.492 6.99
60.820 -60.631 3.478 94.92
60.820 -58.786 3.476 0.00
60.820 -56.942 3.480 0.00
60.820 -55.097 3.488 0.00
60.820 -53.252 3.499 54.95
60.820 -51.408 3.515 59.94
60.820 -49.563 3.531 33.97
60.820 -47.718 3.550 303.71
61.720 -152.518 3.564 558.46
61.720 -150.620 3.574 482.05
61.720 -148.722 3.534 2767.54
61.720 -146.824 3.470 2823.96
61.720 -144.926 3.406 2675.09
61.720 -143.027 3.387 2130.25
61.720 -141.129 3.421 1582.96
61.720 -139.231 3.494 1547.75
61.720 -137.333 3.535 2272.50
61.720 -135.434 3.593 2626.33
61.720 -133.536 3.513 2039.29
61.720 -131.638 3.390 3472.75
61.720 -129.740 3.416 2920.29
61.720 -127.842 3.431 7248.87
61.720 -125.943 3.451 4965.73
61.720 -124.045 3.409 6454.56
61.720 -122.147 3.439 30810.07
61.720 -120.249 3.434 21202.21
61.720 -118.350 3.482 7138.75
61.720 -116.452 3.540 5127.70
61.720 -114.554 3.554 5228.93
61.720 -112.656 3.650 5210.57
61.720 -110.758 3.658 5667.28
61.720 -108.859 3.541 4609.28
61.720 -106.961 3.524 3523.58
61.720 -105.063 3.613 3347.89
61.720 -103.165 3.737 3435.42
61.720 -101.266 3.688 4073.82
61.720 -99.368 3.494 4604.90
61.720 -97.470 3.453 3641.48
61.720 -95.572 3.626 4173.21
61.720 -93.674 3.633 4665.30
61.720 -91.775 3.591 2567.34
61.720 -89.877 3.600 1645.94
61.720 -87.979 3.633 881.08
61.720 -86.081 3.545 1698.83
61.720 -84.182 3.550 1092.40
61.720 -82.284 3.485 1297.01
61.720 -80.386 3.517 1024.92
61.720 -78.488 3.556 1544.16
61.720 -76.590 3.565 804.89
61.720 -74.691 3.552 647.33
61.720 -72.793 3.536 569.61
61.720 -70.895 3.555 604.71
61.720 -68.997 3.536 318.67
61.720 -67.098 3.508 313.70
61.720 -65.200 3.503 130.87
61.720 -63.302 3.498 13.99
61.720 -61.404 3.483 101.92
61.720 -59.505 3.477 0.00
61.720 -57.607 3.481 0.00
61.720 -55.709 3.489 0.00
61.720 -53.811 3.499 0.00
61.720 -51.913 3.508 0.00
61.720 -50.014 3.519 123.86
61.720 -48.116 3.532 224.75
61.720 -46.218 3.542 102.89
62.619 -154.123 3.544 434.33
62.619 -152.167 3.534 557.89
62.619 -150.212 3.487 748.10
62.619 -148.256 3.421 1906.22
62.619 -146.301 3.371 2758.05
62.619 -144.345 3.380 3762.47
62.619 -142.390 3.418 2798.34
62.619 -140.434 3.476 2581.70
62.619 -138.479 3.490 4001.86
62.619 -136.523 3.505 2952.00
62.619 -134.567 3.440 2860.64
62.619 -132.612 3.357 3718.69
62.619 -130.656 3.388 5287.89
62.619 -128.701 3.409 6193.67
62.619 -126.745 3.384 5385.87
62.619 -124.790 3.363 34309.33
62.619 -122.834 3.418 28668.31
62.619 -120.879 3.514 7511.27
62.619 -118.923 3.588 4587.28
62.619 -116.968 3.594 4534.63
62.619 -115.012 3.590 5468.05
62.619 -113.057 3.623 4665.68
62.619 -111.101 3.648 5028.79
62.619 -109.146 3.540 4956.18
62.619 -107.190 3.505 3772.56
62.619 -105.235 3.602 3523.46
62.619 -103.279 3.715 2779.16
62.619 -101.324 3.714 2650.28
62.619 -99.368 3.507 4274.05
62.619 -97.413 3.417 3133.80
62.619 -95.457 3.525 4661.68
62.619 -93.502 3.660 3364.49
62.619 -91.546 3.632 5893.76
62.619 -89.591 3.564 1454.27
62.619 -87.635 3.619 959.67
62.619 -85.680 3.596 1811.91
62.619 -83.724 3.546 913.19
62.619 -81.769 3.407 1061.86
62.619 -79.813 3.432 456.62
62.619 -77.858 3.545 1559.29
62.619 -75.902 3.604 1103.81
62.619 -73.946 3.593 1080.85
62.619 -71.991 3.586 302.04
62.619 -70.035 3.586 556.39
62.619 -68.080 3.543 435.58
62.619 -66.124 3.509 180.82
62.619 -64.169 3.499 61.94
62.619 -62.213 3.488 80.93
62.619 -60.258 3.479 20.98
62.619 -58.302 3.478 0.00
62.619 -56.347 3.486 0.00
62.619 -54.391 3.499 124.14
62.619 -52.436 3.508 126.85
62.619 -50.480 3.510 133.84
62.619 -48.525 3.507 33.96
62.619 -46.569 3.507 0.00
62.619 -44.614 3.514 51.95
63.518 -155.841 3.519 219.77
63.518 -153.824 3.512 398.58
63.518 -151.807 3.482 1479.12
63.518 -149.790 3.452 2352.63
63.518 -147.773 3.412 2956.41
63.518 -145.757 3.398 3758.03
63.518 -143.740 3.443 3314.86
63.518 -141.723 3.511 2520.28
63.518 -139.706 3.518 4330.73
63.518 -137.689 3.496 4569.76
63.518 -135.672 3.433 4920.57
63.518 -133.655 3.378 6504.74
63.518 -131.638 3.440 6574.61
63.518 -129.622 3.498 6423.60
63.518 -127.605 3.507 8963.94
63.518 -125.588 3.472 35995.92
63.518 -123.571 3.536 8054.88
63.518 -121.554 3.606 4676.27
63.518 -119.537 3.616 4163.92
63.518 -117.520 3.627 4426.23
63.518 -115.503 3.640 3350.51
63.518 -113.486 3.646 2732.31
63.518 -111.470 3.654 4281.88
63.518 -109.453 3.567 4938.78
63.518 -107.436 3.474 3709.99
63.518 -105.419 3.519 2449.69
63.518 -103.402 3.601 2181.77
63.518 -101.385 3.630 2216.67
63.518 -99.368 3.521 3014.98
63.518 -97.351 3.350 3926.01
63.518 -95.334 3.406 4482.92
63.518 -93.318 3.654 4199.83
63.518 -91.301 3.682 4628.32
63.518 -89.284 3.555 4139.06
63.518 -87.267 3.596 1969.52
63.518 -85.250 3.659 1420.59
63.518 -83.233 3.532 688.58
63.518 -81.216 3.348 853.35
63.518 -79.199 3.394 592.86
63.518 -77.182 3.547 1445.58
63.518 -75.166 3.619 839.53
63.518 -73.149 3.614 1069.72
63.518 -71.132 3.630 890.15
63.518 -69.115 3.608 1149.95
63.518 -67.098 3.546 290.72
63.518 -65.081 3.512 103.89
63.518 -63.064 3.492 54.96
63.518 -61.047 3.480 47.96
63.518 -59.030 3.475 0.00
63.518 -57.014 3.475 0.00
63.518 -54.997 3.480 0.00
63.518 -52.980 3.490 0.00
63.518 -50.963 3.494 0.00
63.518 -48.946 3.491 0.00
63.518 -46.929 3.484 0.00
63.518 -44.912 3.480 0.00
63.518 -42.895 3.486 15.98
64.418 -157.686 3.497 352.61
64.418 -155.603 3.501 32.97
64.418 -153.520 3.500 109.89
64.418 -151.437 3.489 874.42
64.418 -149.355 3.460 1651.28
64.418 -147.272 3.425 2974.36
64.418 -145.189 3.438 3667.22
64.418 -143.106 3.496 3296.98
64.418 -141.023 3.538 4466.88
64.418 -138.941 3.522 5046.43
64.418 -136.858 3.477 6150.25
64.418 -134.775 3.441 7352.00
64.418 -132.692 3.534 6876.74
64.418 -130.610 3.639 6829.96
64.418 -128.527 3.716 12589.37
64.418 -126.444 3.728 6800.21
64.418 -124.361 3.716 5036.02
64.418 -122.279 3.701 4851.03
64.418 -120.196 3.667 3791.24
64.418 -118.113 3.621 2389.73
64.418 -116.030 3.634 2493.37
64.418 -113.948 3.704 2364.64
64.418 -111.865 3.727 3116.16
64.418 -109.782 3.602 4093.19
64.418 -107.699 3.524 2669.19
64.418 -105.616 3.510 2408.21
64.418 -103.534 3.540 2581.34
64.418 -101.451 3.576 2642.19
64.418 -99.368 3.540 2505.50
64.418 -97.285 3.364 4597.24
64.418 -95.203 3.301 3573.83
64.418 -93.120 3.501 4587.42
64.418 -91.037 3.601 2997.72
64.418 -88.954 3.626 8318.32
64.418 -86.872 3.624 3302.18
64.418 -84.789 3.700 959.97
64.418 -82.706 3.490 453.95
64.418 -80.623 3.299 914.05
64.418 -78.541 3.373 879.07
64.418 -76.458 3.528 1176.80
64.418 -74.375 3.577 1037.93
64.418 -72.292 3.564 705.63
64.418 -70.210 3.565 281.72
64.418 -68.127 3.549 654.36
64.418 -66.044 3.522 202.15
64.418 -63.961 3.498 37.97
64.418 -61.878 3.480 72.94
64.418 -59.796 3.475 0.00
64.418 -57.713 3.474 0.00
64.418 -55.630 3.472 0.00
64.418 -53.547 3.473 0.00
64.418 -51.465 3.477 0.00
64.418 -49.382 3.478 0.00
64.418 -47.299 3.476 0.00
64.418 -45.216 3.474 4.62
64.418 -43.134 3.473 373.54
64.418 -41.051 3.476 150.82
65.317 -159.670 3.481 0.00
65.317 -157.516 3.484 45.96
65.317 -155.363 3.494 73.93
65.317 -153.209 3.500 40.96
65.317 -151.055 3.496 568.67
65.317 -148.902 3.464 1219.25
65.317 -146.748 3.436 1827.18
65.317 -144.595 3.438 3071.01
65.317 -142.441 3.428 3215.72
65.317 -140.287 3.437 3896.44
65.317 -138.134 3.464 4853.86
65.317 -135.980 3.508 2906.90
65.317 -133.826 3.599 5411.77
65.317 -131.673 3.611 4913.24
65.317 -129.519 3.666 5775.01
65.317 -127.365 3.617 2967.88
65.317 -125.212 3.614 2125.47
65.317 -123.058 3.647 2507.56
65.317 -120.905 3.631 2974.85
65.317 -118.751 3.595 2728.71
65.317 -116.597 3.602 1650.04
65.317 -114.444 3.652 1691.13
65.317 -112.290 3.712 2466.35
65.317 -110.136 3.636 2031.11
65.317 -107.983 3.563 2052.85
65.317 -105.829 3.532 2388.54
65.317 -103.675 3.532 1984.01
65.317 -101.522 3.575 1997.07
65.317 -99.368 3.603 2279.63
65.317 -97.215 3.513 2808.17
65.317 -95.061 3.349 3773.10
65.317 -92.907 3.398 4527.44
65.317 -90.754 3.615 2885.48
65.317 -88.600 3.816 922.87
65.317 -86.446 3.914 1030.92
65.317 -84.293 3.823 884.84
65.317 -82.139 3.462 179.35
65.317 -79.985 3.281 911.05
65.317 -77.832 3.385 1190.77
65.317 -75.678 3.524 1146.81
65.317 -73.525 3.543 1038.91
65.317 -71.371 3.525 395.96
65.317 -69.217 3.522 544.46
65.317 -67.064 3.515 257.75
65.317 -64.910 3.505 81.26
65.317 -62.756 3.486 97.92
65.317 -60.603 3.475 0.00
65.317 -58.449 3.474 0.00
65.317 -56.295 3.476 0.00
65.317 -54.142 3.475 0.00
65.317 -51.988 3.473 0.00
65.317 -49.835 3.473 0.00
65.317 -47.681 3.473 0.00
65.317 -45.527 3.475 0.00
65.317 -43.374 3.480 0.00
65.317 -41.220 3.488 76.94
65.317 -39.066 3.488 291.74
66.216 -161.810 3.475 425.60
66.216 -159.580 3.470 177.82
66.216 -157.350 3.473 184.81
66.216 -155.120 3.480 264.74
66.216 -152.890 3.493 235.76
66.216 -150.660 3.490 516.43
66.216 -148.430 3.455 1134.21
66.216 -146.200 3.421 1087.61
66.216 -143.970 3.374 2839.63
66.216 -141.740 3.356 8922.24
66.216 -139.510 3.430 5115.86
66.216 -137.279 3.573 4610.62
66.216 -135.049 3.706 6545.73
66.216 -132.819 3.555 5108.06
66.216 -130.589 3.533 4677.06
66.216 -128.359 3.545 3404.72
66.216 -126.129 3.583 3172.87
66.216 -123.899 3.582 2192.74
66.216 -121.669 3.576 1546.60
66.216 -119.439 3.579 2080.12
66.216 -117.209 3.586 2433.70
66.216 -114.979 3.619 1703.11
66.216 -112.749 3.651 1451.67
66.216 -110.519 3.632 1213.91
66.216 -108.288 3.595 1903.12
66.216 -106.058 3.575 1929.06
66.216 -103.828 3.544 2658.26
66.216 -101.598 3.573 2311.72
66.216 -99.368 3.627 2220.77
66.216 -97.138 3.613 2396.52
66.216 -94.908 3.464 4294.67
66.216 -92.678 3.385 4336.86
66.216 -90.448 3.623 3733.65
66.216 -88.218 3.891 735.29
66.216 -85.988 4.056 1163.00
66.216 -83.758 3.856 906.33
66.216 -81.528 3.424 555.03
66.216 -79.298 3.292 941.03
66.216 -77.067 3.419 1578.40
66.216 -74.837 3.546 1013.95
66.216 -72.607 3.554 804.15
66.216 -70.377 3.534 349.98
66.216 -68.147 3.523 618.41
66.216 -65.917 3.520 206.80
66.216 -63.687 3.507 123.90
66.216 -61.457 3.492 0.00
66.216 -59.227 3.488 0.00
66.216 -56.997 3.489 0.00
66.216 -54.767 3.490 0.00
66.216 -52.537 3.486 0.00
66.216 -50.307 3.478 0.00
66.216 -48.077 3.474 0.00
66.216 -45.846 3.474 0.00
66.216 -43.616 3.474 0.00
66.216 -41.386 3.477 0.00
66.216 -39.156 3.483 0.00
66.216 -36.926 3.489 0.00
67.116 -164.125 3.497 182.85
67.116 -161.812 3.488 73.96
67.116 -159.499 3.477 65.96
67.116 -157.186 3.474 0.00
67.116 -154.874 3.480 34.97
67.116 -152.561 3.493 77.93
67.116 -150.248 3.492 573.35
67.116 -147.935 3.463 1623.15
67.116 -145.623 3.418 1205.34
67.116 -143.310 3.393 1404.75
67.116 -140.997 3.439 2854.42
67.116 -138.685 3.571 3469.82
67.116 -136.372 3.622 2097.48
67.116 -134.059 3.441 3699.79
67.116 -131.746 3.430 3223.12
67.116 -129.434 3.481 1333.65
67.116 -127.121 3.511 1248.77
67.116 -124.808 3.526 1250.52
67.116 -122.495 3.559 1227.95
67.116 -120.183 3.590 866.44
67.116 -117.870 3.596 784.84
67.116 -115.557 3.595 994.62
67.116 -113.245 3.594 819.18
67.116 -110.932 3.591 1032.00
67.116 -108.619 3.592 967.04
67.116 -106.306 3.577 1873.06
67.116 -103.994 3.555 2140.80
67.116 -101.681 3.543 2710.19
67.116 -99.368 3.589 2508.55
67.116 -97.055 3.624 2652.27
67.116 -94.743 3.596 2916.06
67.116 -92.430 3.463 3719.56
67.116 -90.117 3.596 5095.65
67.116 -87.805 3.828 1150.63
67.116 -85.492 4.019 895.11
67.116 -83.179 3.824 713.71
67.116 -80.866 3.375 462.24
67.116 -78.554 3.293 797.16
67.116 -76.241 3.445 1695.28
67.116 -73.928 3.562 1339.62
67.116 -71.615 3.574 599.75
67.116 -69.303 3.555 720.29
67.116 -66.990 3.540 315.70
67.116 -64.677 3.533 187.83
67.116 -62.365 3.518 119.89
67.116 -60.052 3.510 98.91
67.116 -57.739 3.510 95.91
67.116 -55.426 3.513 94.91
67.116 -53.114 3.512 163.83
67.116 -50.801 3.500 114.79
67.116 -48.488 3.483 0.00
67.116 -46.176 3.476 0.00
67.116 -43.863 3.475 0.00
67.116 -41.550 3.474 0.00
67.116 -39.237 3.473 0.00
67.116 -36.925 3.476 0.00
67.116 -34.612 3.486 0.00
68.015 -166.634 3.507 15.99
68.015 -164.232 3.508 69.93
68.015 -161.829 3.496 42.96
68.015 -159.427 3.484 74.96
68.015 -157.025 3.478 76.96
68.015 -154.622 3.482 71.96
68.015 -152.220 3.493 65.94
68.015 -149.818 3.492 251.80
68.015 -147.415 3.475 1050.14
68.015 -145.013 3.461 1155.99
68.015 -142.611 3.494 2357.60
68.015 -140.208 3.573 2499.77
68.015 -137.806 3.486 1636.92
68.015 -135.404 3.358 5019.05
68.015 -133.001 3.420 2708.81
68.015 -130.599 3.519 1154.81
68.015 -128.196 3.563 480.46
68.015 -125.794 3.561 325.65
68.015 -123.392 3.551 468.04
68.015 -120.989 3.549 438.08
68.015 -118.587 3.548 401.59
68.015 -116.185 3.547 413.14
68.015 -113.782 3.548 727.26
68.015 -111.380 3.551 810.18
68.015 -108.978 3.566 970.07
68.015 -106.575 3.571 1305.67
68.015 -104.173 3.562 1697.26
68.015 -101.771 3.559 2183.75
68.015 -99.368 3.582 2605.35
