36.538 -130.710 3.185 0.00
36.538 -129.591 3.185 0.96
36.538 -128.471 3.185 2.84
36.538 -127.352 3.187 2.49
36.538 -126.233 3.187 0.00
36.538 -125.113 3.175 0.00
36.538 -123.994 3.161 0.00
36.538 -122.875 3.187 3.86
36.538 -121.755 3.274 3035.05
36.538 -120.636 3.466 48596.07
36.538 -119.516 3.488 59405.30
36.538 -118.397 3.348 60518.86
36.538 -117.278 3.169 65357.12
36.538 -116.158 3.175 77283.41
36.538 -115.039 3.229 80230.77
36.538 -113.920 3.242 95654.09
36.538 -112.800 3.243 84946.18
36.538 -111.681 3.195 72379.80
36.538 -110.562 3.160 64458.77
36.538 -109.442 3.145 57531.87
36.538 -108.323 3.151 59246.58
36.538 -107.204 3.132 62352.30
36.538 -106.084 3.108 60765.75
36.538 -104.965 3.090 64829.07
36.538 -103.846 3.131 81440.27
36.538 -102.726 3.120 98878.33
36.538 -101.607 3.078 111707.65
36.538 -100.488 3.021 112609.11
36.538 -99.368 3.059 122845.04
36.538 -98.249 3.136 124294.84
36.538 -97.130 3.144 126794.28
36.538 -96.010 3.148 145501.94
36.538 -94.891 3.240 134735.14
36.538 -93.771 3.202 131886.72
36.538 -92.652 3.178 118968.20
36.538 -91.533 3.293 97859.69
36.538 -90.413 3.288 97929.01
36.538 -89.294 3.376 92384.41
36.538 -88.175 3.272 70728.84
36.538 -87.055 3.175 54051.57
36.538 -85.936 3.171 48157.92
36.538 -84.817 3.129 55888.95
36.538 -83.697 3.163 57676.73
36.538 -82.578 3.177 54235.96
36.538 -81.459 3.165 54433.25
36.538 -80.339 3.199 45774.52
36.538 -79.220 3.248 40876.19
36.538 -78.101 3.291 31596.50
36.538 -76.981 3.229 20549.76
36.538 -75.862 3.288 1870.61
36.538 -74.743 3.348 246.76
36.538 -73.623 3.254 24.72
36.538 -72.504 3.185 0.00
36.538 -71.384 3.178 0.00
36.538 -70.265 3.184 0.00
36.538 -69.146 3.186 0.00
36.538 -68.026 3.185 0.00
37.437 -131.083 3.185 0.00
37.437 -129.950 3.185 0.00
37.437 -128.817 3.186 0.00
37.437 -127.685 3.186 0.32
37.437 -126.552 3.179 2.84
37.437 -125.419 3.164 2.84
37.437 -124.287 3.199 1.56
37.437 -123.154 3.296 11.25
37.437 -122.021 3.448 22146.97
37.437 -120.889 3.614 37437.28
37.437 -119.756 3.381 29239.43
37.437 -118.623 3.029 52639.18
37.437 -117.491 2.952 56818.08
37.437 -116.358 3.046 71937.48
37.437 -115.225 3.189 80848.95
37.437 -114.093 3.176 87273.03
37.437 -112.960 3.039 88657.12
37.437 -111.827 3.070 71900.22
37.437 -110.695 3.105 70109.50
37.437 -109.562 3.137 60724.63
37.437 -108.429 3.116 59740.51
37.437 -107.297 3.000 64923.22
37.437 -106.164 2.913 74472.84
37.437 -105.032 3.019 101728.33
37.437 -103.899 3.122 90569.23
37.437 -102.766 3.122 107847.99
37.437 -101.634 3.030 104062.55
37.437 -100.501 3.096 110606.72
37.437 -99.368 3.148 113452.19
37.437 -98.236 3.171 114302.77
37.437 -97.103 3.198 109264.55
37.437 -95.970 3.150 117961.26
37.437 -94.838 3.174 134489.08
37.437 -93.705 3.150 125996.23
37.437 -92.572 3.113 121521.38
37.437 -91.440 3.202 108625.48
37.437 -90.307 3.184 106227.82
37.437 -89.174 3.305 87374.60
37.437 -88.042 3.278 67197.69
37.437 -86.909 3.182 53129.52
37.437 -85.776 3.165 50233.74
37.437 -84.644 3.135 54109.56
37.437 -83.511 3.158 59537.15
37.437 -82.378 3.146 64923.70
37.437 -81.246 3.196 73313.97
37.437 -80.113 3.234 60681.56
37.437 -78.980 3.307 50983.96
37.437 -77.848 3.264 32377.92
37.437 -76.715 3.264 19655.67
37.437 -75.582 3.330 1918.13
37.437 -74.450 3.358 421.73
37.437 -73.317 3.244 24.73
37.437 -72.184 3.182 0.00
37.437 -71.052 3.180 0.00
37.437 -69.919 3.185 0.00
37.437 -68.786 3.185 0.00
37.437 -67.654 3.185 0.00
38.336 -131.472 3.185 0.00
38.336 -130.326 3.185 0.00
38.336 -129.179 3.186 0.00
38.336 -128.033 3.184 0.00
38.336 -126.886 3.179 0.00
38.336 -125.740 3.196 0.00
38.336 -124.593 3.263 14.74
38.336 -123.446 3.319 223.67
38.336 -122.300 3.457 14150.54
38.336 -121.153 3.614 32337.56
38.336 -120.007 3.436 33381.18
38.336 -118.860 3.088 57285.09
38.336 -117.713 2.930 65093.20
38.336 -116.567 2.968 68960.34
38.336 -115.420 3.134 68973.38
38.336 -114.274 3.138 85212.45
38.336 -113.127 3.059 89661.36
38.336 -111.981 3.005 82849.55
38.336 -110.834 3.062 72440.96
38.336 -109.687 3.205 61152.01
38.336 -108.541 3.117 61726.95
38.336 -107.394 2.935 66990.21
38.336 -106.248 2.905 67551.39
38.336 -105.101 3.012 49357.62
38.336 -103.955 3.088 48215.86
38.336 -102.808 3.170 67226.67
38.336 -101.661 3.109 68134.57
38.336 -100.515 3.115 77625.52
38.336 -99.368 3.120 86566.79
38.336 -98.222 3.167 94463.23
38.336 -97.075 3.177 90511.30
38.336 -95.928 3.181 94882.11
38.336 -94.782 3.117 100491.66
38.336 -93.635 3.195 111236.35
38.336 -92.489 3.181 109803.87
38.336 -91.342 3.207 125297.84
38.336 -90.196 3.162 105525.69
38.336 -89.049 3.202 94277.20
38.336 -87.902 3.224 73953.59
38.336 -86.756 3.153 58978.89
38.336 -85.609 3.143 57897.54
38.336 -84.463 3.168 57991.81
38.336 -83.316 3.161 60031.75
38.336 -82.170 3.121 72527.27
38.336 -81.023 3.170 71803.36
38.336 -79.876 3.274 74001.08
38.336 -78.730 3.338 68147.57
38.336 -77.583 3.313 38806.94
38.336 -76.437 3.332 14984.94
38.336 -75.290 3.394 4524.38
38.336 -74.143 3.357 483.70
38.336 -72.997 3.226 24.72
38.336 -71.850 3.175 0.00
38.336 -70.704 3.180 0.00
38.336 -69.557 3.186 0.00
38.336 -68.411 3.186 0.00
38.336 -67.264 3.185 0.00
39.236 -131.880 3.185 0.00
39.236 -130.719 3.185 0.00
39.236 -129.558 3.187 0.00
39.236 -128.397 3.187 0.00
39.236 -127.235 3.186 0.00
39.236 -126.074 3.190 10.91
39.236 -124.913 3.194 1.76
39.236 -123.752 3.137 1227.89
39.236 -122.591 3.137 15993.77
39.236 -121.430 3.222 23864.97
39.236 -120.269 3.176 50700.02
39.236 -119.107 3.122 86926.97
39.236 -117.946 3.159 57001.64
39.236 -116.785 3.193 58211.30
39.236 -115.624 3.194 66716.79
39.236 -114.463 3.190 74453.98
39.236 -113.302 3.307 80549.78
39.236 -112.141 3.159 83004.63
39.236 -110.980 3.060 73267.19
39.236 -109.818 3.062 66089.30
39.236 -108.657 3.106 68923.72
39.236 -107.496 2.968 70675.73
39.236 -106.335 2.910 65767.11
39.236 -105.174 2.967 47473.31
39.236 -104.013 3.056 39593.10
39.236 -102.852 3.151 47910.41
39.236 -101.690 3.156 48717.93
39.236 -100.529 3.101 52431.54
39.236 -99.368 3.104 63668.06
39.236 -98.207 3.147 62599.19
39.236 -97.046 3.170 75793.91
39.236 -95.885 3.225 68850.59
39.236 -94.724 3.160 75936.25
39.236 -93.563 3.176 94507.03
39.236 -92.401 3.204 87125.22
39.236 -91.240 3.213 97891.04
39.236 -90.079 3.154 82081.27
39.236 -88.918 3.170 84219.34
39.236 -87.757 3.212 75678.20
39.236 -86.596 3.194 55010.20
39.236 -85.435 3.152 54786.01
39.236 -84.273 3.179 66318.50
39.236 -83.112 3.187 62702.43
39.236 -81.951 3.141 71070.60
39.236 -80.790 3.186 58451.27
39.236 -79.629 3.214 50815.65
39.236 -78.468 3.212 35832.10
39.236 -77.307 3.255 24328.25
39.236 -76.145 3.329 17571.60
39.236 -74.984 3.394 7264.66
39.236 -73.823 3.333 551.74
39.236 -72.662 3.216 24.72
39.236 -71.501 3.166 0.00
39.236 -70.340 3.176 0.00
39.236 -69.179 3.185 0.00
39.236 -68.018 3.186 0.00
39.236 -66.856 3.185 0.00
40.135 -132.306 3.185 0.00
40.135 -131.130 3.187 0.00
40.135 -129.954 3.189 0.00
40.135 -128.777 3.175 0.00
40.135 -127.601 3.149 8.56
40.135 -126.424 3.164 4.28
40.135 -125.248 3.175 0.00
40.135 -124.072 2.926 12146.07
40.135 -122.895 2.742 34000.49
40.135 -121.719 2.905 33544.15
40.135 -120.543 3.015 72014.81
40.135 -119.366 3.155 81742.66
40.135 -118.190 3.215 57589.16
40.135 -117.014 3.266 62242.06
40.135 -115.837 3.233 68098.20
40.135 -114.661 3.336 87190.23
40.135 -113.484 3.456 85367.55
40.135 -112.308 3.227 82876.55
40.135 -111.132 2.983 71869.48
40.135 -109.955 2.887 67367.13
40.135 -108.779 2.892 72078.20
40.135 -107.603 2.921 68421.32
40.135 -106.426 2.880 53808.29
40.135 -105.250 2.883 46345.23
40.135 -104.074 2.876 39138.55
40.135 -102.897 2.984 38036.51
40.135 -101.721 3.098 38099.07
40.135 -100.545 3.085 40157.24
40.135 -99.368 3.119 48394.06
40.135 -98.192 3.106 53204.27
40.135 -97.015 3.149 65996.80
40.135 -95.839 3.193 74561.20
40.135 -94.663 3.185 73728.67
40.135 -93.486 3.194 70261.52
40.135 -92.310 3.204 74501.97
40.135 -91.134 3.233 66725.29
40.135 -89.957 3.174 52828.12
40.135 -88.781 3.172 46292.54
40.135 -87.605 3.240 53313.87
40.135 -86.428 3.281 43903.70
40.135 -85.252 3.232 64456.53
40.135 -84.076 3.175 70485.52
40.135 -82.899 3.201 54978.57
40.135 -81.723 3.176 62832.58
40.135 -80.546 3.116 51768.75
40.135 -79.370 3.112 47812.91
40.135 -78.194 3.127 35646.96
40.135 -77.017 3.168 35990.08
40.135 -75.841 3.227 17355.15
40.135 -74.665 3.309 11626.36
40.135 -73.488 3.317 2208.69
40.135 -72.312 3.245 24.72
40.135 -71.136 3.173 0.00
40.135 -69.959 3.171 0.00
40.135 -68.783 3.182 0.00
40.135 -67.607 3.185 0.00
40.135 -66.430 3.186 0.00
41.034 -132.752 3.188 0.00
41.034 -131.560 3.189 0.00
41.034 -130.368 3.174 0.00
41.034 -129.175 3.141 6.38
41.034 -127.983 3.176 6.71
41.034 -126.791 3.378 0.00
41.034 -125.598 3.527 243.49
41.034 -124.406 3.105 59774.26
41.034 -123.214 2.799 45762.35
41.034 -122.022 2.991 42760.46
41.034 -120.829 3.145 41027.54
41.034 -119.637 3.119 57709.30
41.034 -118.445 3.200 61542.04
41.034 -117.252 3.248 56024.67
41.034 -116.060 3.197 54393.50
41.034 -114.868 3.354 109116.72
41.034 -113.676 3.520 80445.25
41.034 -112.483 3.331 74518.40
41.034 -111.291 3.007 70667.30
41.034 -110.099 2.888 81541.12
41.034 -108.906 2.880 63099.40
41.034 -107.714 2.957 57059.65
41.034 -106.522 3.024 42932.41
41.034 -105.330 3.062 38085.21
41.034 -104.137 2.946 34829.82
41.034 -102.945 2.964 29995.67
41.034 -101.753 3.092 32662.17
41.034 -100.560 3.026 37927.21
41.034 -99.368 3.013 47384.16
41.034 -98.176 3.095 55708.70
41.034 -96.984 3.083 68099.51
41.034 -95.791 3.049 72171.76
41.034 -94.599 3.088 68595.04
41.034 -93.407 3.154 69944.84
41.034 -92.215 3.180 64148.38
41.034 -91.022 3.217 51476.71
41.034 -89.830 3.146 49737.61
41.034 -88.638 3.197 40154.91
41.034 -87.445 3.216 40867.98
41.034 -86.253 3.211 42322.09
41.034 -85.061 3.224 61001.40
41.034 -83.869 3.183 50834.98
41.034 -82.676 3.167 48396.84
41.034 -81.484 3.161 43457.75
41.034 -80.292 3.166 46746.50
41.034 -79.099 3.137 43978.77
41.034 -77.907 3.154 40292.75
41.034 -76.715 3.213 35035.51
41.034 -75.523 3.253 33556.12
41.034 -74.330 3.327 19671.66
41.034 -73.138 3.371 9084.20
41.034 -71.946 3.345 1156.19
41.034 -70.753 3.237 536.00
41.034 -69.561 3.176 0.00
41.034 -68.369 3.176 0.00
41.034 -67.177 3.184 0.00
41.034 -65.984 3.187 0.00
41.934 -133.219 3.188 0.00
41.934 -132.010 3.181 0.00
41.934 -130.801 3.151 4.53
41.934 -129.592 3.160 8.81
41.934 -128.383 3.342 0.00
41.934 -127.174 3.861 76.92
41.934 -125.965 4.379 1498.86
41.934 -124.756 3.742 17267.01
41.934 -123.547 2.984 28248.20
41.934 -122.338 2.944 28273.27
41.934 -121.129 3.105 30521.96
41.934 -119.920 3.167 42591.23
41.934 -118.711 3.245 45851.28
41.934 -117.502 3.281 54708.03
41.934 -116.293 3.184 65750.93
41.934 -115.085 3.143 78369.72
41.934 -113.876 3.429 67389.01
41.934 -112.667 3.563 69915.91
41.934 -111.458 3.154 86290.09
41.934 -110.249 2.949 81680.08
41.934 -109.040 2.947 66568.64
41.934 -107.831 2.952 51769.37
41.934 -106.622 3.021 43778.88
41.934 -105.413 3.100 37763.31
41.934 -104.204 2.976 30907.97
41.934 -102.995 3.002 28415.46
41.934 -101.786 3.092 30206.26
41.934 -100.577 3.093 35786.21
41.934 -99.368 3.087 49352.91
41.934 -98.159 3.156 52997.07
41.934 -96.950 3.148 64262.31
41.934 -95.741 3.033 72208.55
41.934 -94.532 3.041 70772.48
41.934 -93.323 3.125 63714.11
41.934 -92.115 3.196 50763.38
41.934 -90.906 3.209 57249.98
41.934 -89.697 3.153 40617.87
41.934 -88.488 3.246 43442.02
41.934 -87.279 3.300 42430.34
41.934 -86.070 3.306 47211.36
41.934 -84.861 3.257 48333.09
41.934 -83.652 3.220 39839.18
41.934 -82.443 3.189 37767.45
41.934 -81.234 3.183 38743.81
41.934 -80.025 3.152 40319.96
41.934 -78.816 3.125 44870.25
41.934 -77.607 3.115 40799.05
41.934 -76.398 3.162 38284.59
41.934 -75.189 3.257 32072.37
41.934 -73.980 3.365 25997.11
41.934 -72.771 3.464 13924.97
41.934 -71.562 3.468 8804.52
41.934 -70.353 3.342 5752.78
41.934 -69.145 3.214 0.00
41.934 -67.936 3.171 0.00
41.934 -66.727 3.178 0.00
41.934 -65.518 3.186 0.00
42.833 -133.707 3.176 0.00
42.833 -132.481 3.167 3.02
42.833 -131.254 3.164 10.66
42.833 -130.028 3.245 0.00
42.833 -128.802 3.531 7.99
42.833 -127.575 4.121 305.70
42.833 -126.349 4.446 10232.31
42.833 -125.122 3.755 11453.63
42.833 -123.896 3.167 10485.97
42.833 -122.670 3.001 21918.47
42.833 -121.443 3.002 23901.68
42.833 -120.217 3.088 28650.56
42.833 -118.990 3.098 37490.80
42.833 -117.764 3.272 47701.84
42.833 -116.538 3.277 61560.02
42.833 -115.311 3.160 56410.50
42.833 -114.085 3.314 62400.31
42.833 -112.858 3.389 61342.55
42.833 -111.632 3.083 65445.71
42.833 -110.406 2.868 68100.08
42.833 -109.179 2.947 62233.59
42.833 -107.953 3.028 49786.16
42.833 -106.727 3.038 44327.21
42.833 -105.500 3.088 38569.34
42.833 -104.274 3.126 35327.27
42.833 -103.047 3.137 32758.71
42.833 -101.821 3.107 34139.89
42.833 -100.595 3.091 35393.21
42.833 -99.368 3.207 40835.62
42.833 -98.142 3.233 59233.27
42.833 -96.915 3.189 61408.53
42.833 -95.689 3.178 64669.54
42.833 -94.463 3.096 65712.27
42.833 -93.236 3.108 55455.54
42.833 -92.010 3.212 43881.05
42.833 -90.783 3.246 58136.75
42.833 -89.557 3.201 42137.47
42.833 -88.331 3.279 41229.06
42.833 -87.104 3.310 47261.43
42.833 -85.878 3.269 40311.57
42.833 -84.652 3.236 41709.91
42.833 -83.425 3.229 39261.83
42.833 -82.199 3.223 37150.32
42.833 -80.972 3.198 41101.36
42.833 -79.746 3.190 39646.09
42.833 -78.520 3.094 43569.23
42.833 -77.293 3.125 41270.59
42.833 -76.067 3.185 37819.53
42.833 -74.840 3.319 33372.56
42.833 -73.614 3.442 35712.59
42.833 -72.388 3.558 33112.73
42.833 -71.161 3.574 9954.33
42.833 -69.935 3.410 1289.86
42.833 -68.708 3.260 77.97
42.833 -67.482 3.188 0.00
42.833 -66.256 3.177 0.00
42.833 -65.029 3.178 0.00
43.732 -134.219 3.159 1.93
43.732 -132.974 3.162 12.08
43.732 -131.729 3.236 0.00
43.732 -130.485 3.394 0.00
43.732 -129.240 3.613 283.72
43.732 -127.995 3.698 209.88
43.732 -126.751 3.463 35433.39
43.732 -125.506 3.120 18046.72
43.732 -124.261 2.949 16834.24
43.732 -123.017 3.003 23217.37
43.732 -121.772 3.041 26292.40
43.732 -120.527 3.036 29466.89
43.732 -119.283 3.038 35720.87
43.732 -118.038 3.221 39838.93
43.732 -116.793 3.280 49972.02
43.732 -115.549 3.200 44759.83
43.732 -114.304 3.176 51053.72
43.732 -113.059 3.159 44845.03
43.732 -111.815 3.086 44780.75
43.732 -110.570 2.890 55486.50
43.732 -109.325 2.974 46478.82
43.732 -108.081 3.102 45033.10
43.732 -106.836 3.034 41753.07
43.732 -105.591 3.063 37174.18
43.732 -104.347 3.132 34447.77
43.732 -103.102 3.146 30729.88
43.732 -101.858 3.105 31073.15
43.732 -100.613 3.108 34313.33
43.732 -99.368 3.243 46350.58
43.732 -98.124 3.240 57176.36
43.732 -96.879 3.265 70746.28
43.732 -95.634 3.309 66356.26
43.732 -94.390 3.191 59462.09
43.732 -93.145 3.134 55984.16
43.732 -91.900 3.226 40868.27
43.732 -90.656 3.267 50696.68
43.732 -89.411 3.217 44372.41
43.732 -88.166 3.257 40895.11
43.732 -86.922 3.286 39915.38
43.732 -85.677 3.259 58128.24
43.732 -84.432 3.237 42067.61
43.732 -83.188 3.231 38505.45
43.732 -81.943 3.243 33120.48
43.732 -80.698 3.214 42760.75
43.732 -79.454 3.156 46158.52
43.732 -78.209 3.112 44288.29
43.732 -76.964 3.231 47223.74
43.732 -75.720 3.345 39819.02
43.732 -74.475 3.404 40528.76
43.732 -73.230 3.412 31209.70
43.732 -71.986 3.491 25689.87
43.732 -70.741 3.526 26365.67
43.732 -69.496 3.373 5585.61
43.732 -68.252 3.271 352.42
43.732 -67.007 3.204 115.89
43.732 -65.763 3.188 0.00
43.732 -64.518 3.177 0.00
44.632 -134.754 3.167 14.43
44.632 -133.490 3.188 0.00
44.632 -132.227 3.371 0.00
44.632 -130.963 3.590 215.79
44.632 -129.699 3.644 207.13
44.632 -128.435 3.427 174.99
44.632 -127.172 3.097 2040.01
44.632 -125.908 2.879 10434.45
44.632 -124.644 2.852 14138.47
44.632 -123.380 3.012 23613.74
44.632 -122.116 3.124 23249.87
44.632 -120.853 3.134 25172.46
44.632 -119.589 3.199 28198.32
44.632 -118.325 3.216 37930.78
44.632 -117.061 3.214 42119.06
44.632 -115.797 3.212 38466.59
44.632 -114.534 3.174 41739.80
44.632 -113.270 3.104 47214.18
44.632 -112.006 3.098 42590.64
44.632 -110.742 3.003 42577.84
44.632 -109.479 3.027 35460.22
44.632 -108.215 3.164 29193.25
44.632 -106.951 3.084 29340.20
44.632 -105.687 3.069 27146.18
44.632 -104.423 3.157 24107.78
44.632 -103.160 3.157 25277.77
44.632 -101.896 3.154 28000.98
44.632 -100.632 3.130 29753.81
44.632 -99.368 3.154 36183.55
44.632 -98.104 3.286 47368.77
44.632 -96.841 3.269 65916.26
44.632 -95.577 3.261 61123.08
44.632 -94.313 3.200 57111.76
44.632 -93.049 3.134 48300.22
44.632 -91.785 3.190 44768.60
44.632 -90.522 3.217 43520.47
44.632 -89.258 3.184 43845.89
44.632 -87.994 3.292 37334.96
44.632 -86.730 3.296 35896.22
44.632 -85.467 3.230 40556.42
44.632 -84.203 3.237 41967.43
44.632 -82.939 3.392 24620.92
44.632 -81.675 3.451 22546.88
44.632 -80.411 3.317 25972.11
44.632 -79.148 3.177 34003.28
44.632 -77.884 3.071 47586.42
44.632 -76.620 3.149 44704.00
44.632 -75.356 3.348 41338.81
44.632 -74.092 3.339 38059.06
44.632 -72.829 3.297 26990.62
44.632 -71.565 3.306 20368.14
44.632 -70.301 3.320 17190.15
44.632 -69.037 3.276 10875.50
44.632 -67.773 3.251 9087.94
44.632 -66.510 3.218 70.62
44.632 -65.246 3.192 174.14
44.632 -63.982 3.187 188.88
45.531 -135.316 3.235 13.60
45.531 -134.032 3.279 0.00
45.531 -132.748 3.503 149.93
45.531 -131.464 3.645 225.91
45.531 -130.180 3.605 108.79
45.531 -128.897 3.529 255.76
45.531 -127.613 3.526 625.39
45.531 -126.329 3.548 2038.16
45.531 -125.045 3.361 4801.48
45.531 -123.761 3.137 12087.50
45.531 -122.477 3.093 18520.42
45.531 -121.193 3.149 22076.36
45.531 -119.910 3.267 28117.68
45.531 -118.626 3.264 39443.27
45.531 -117.342 3.140 38226.66
45.531 -116.058 3.194 33324.90
45.531 -114.774 3.142 33873.68
45.531 -113.490 3.149 37406.21
45.531 -112.207 3.275 49790.92
45.531 -110.923 3.162 29386.86
45.531 -109.639 3.087 21524.14
45.531 -108.355 3.156 21031.01
45.531 -107.071 3.104 23512.87
45.531 -105.787 3.060 22556.26
45.531 -104.504 3.143 17800.46
45.531 -103.220 3.138 17650.90
45.531 -101.936 3.172 25978.96
45.531 -100.652 3.252 29553.91
45.531 -99.368 3.246 36785.04
45.531 -98.084 3.347 48116.70
45.531 -96.801 3.315 53537.79
45.531 -95.517 3.209 54179.54
45.531 -94.233 3.158 47345.03
45.531 -92.949 3.084 39895.57
45.531 -91.665 3.148 44930.55
45.531 -90.381 3.256 32179.86
45.531 -89.097 3.255 38239.92
45.531 -87.814 3.304 31155.14
45.531 -86.530 3.262 32370.52
45.531 -85.246 3.180 29496.18
45.531 -83.962 3.257 27355.97
45.531 -82.678 3.432 32578.52
45.531 -81.394 3.502 22577.96
45.531 -80.111 3.505 21108.46
45.531 -78.827 3.353 24059.37
45.531 -77.543 3.149 32215.77
45.531 -76.259 3.080 44191.61
45.531 -74.975 3.325 24152.09
45.531 -73.691 3.394 24957.34
45.531 -72.408 3.327 19834.21
45.531 -71.124 3.289 16482.96
45.531 -69.840 3.259 15074.21
45.531 -68.556 3.214 6274.99
45.531 -67.272 3.219 1424.15
45.531 -65.988 3.207 1007.44
45.531 -64.705 3.185 330.64
45.531 -63.421 3.218 119.27
46.431 -135.904 3.371 143.73
46.431 -134.600 3.429 104.17
46.431 -133.295 3.554 247.64
46.431 -131.990 3.533 152.86
46.431 -130.685 3.496 51.95
46.431 -129.380 3.723 311.69
46.431 -128.075 4.339 644.34
46.431 -126.770 4.677 1941.12
46.431 -125.466 4.218 3927.84
46.431 -124.161 3.425 6031.01
46.431 -122.856 3.131 14076.13
46.431 -121.551 3.117 22014.45
46.431 -120.246 3.288 28901.72
46.431 -118.941 3.345 35689.87
46.431 -117.636 3.297 27470.44
46.431 -116.331 3.291 23023.35
46.431 -115.027 3.227 28340.83
46.431 -113.722 3.168 32809.80
46.431 -112.417 3.225 26665.24
46.431 -111.112 3.105 17986.22
46.431 -109.807 3.004 15851.34
46.431 -108.502 3.101 17656.69
46.431 -107.197 3.163 18825.86
46.431 -105.893 3.088 24517.86
46.431 -104.588 3.143 16048.99
46.431 -103.283 3.144 16520.41
46.431 -101.978 3.176 21893.03
46.431 -100.673 3.189 25434.94
46.431 -99.368 3.170 28253.83
46.431 -98.063 3.289 34641.85
46.431 -96.758 3.383 43145.47
46.431 -95.454 3.281 44666.61
46.431 -94.149 3.204 34409.38
46.431 -92.844 3.131 31050.61
46.431 -91.539 3.102 24141.54
46.431 -90.234 3.163 18393.19
46.431 -88.929 3.191 15924.26
46.431 -87.624 3.242 15461.79
46.431 -86.320 3.206 20742.81
46.431 -85.015 3.200 21896.33
46.431 -83.710 3.271 18206.27
46.431 -82.405 3.364 18329.22
46.431 -81.100 3.408 14385.22
46.431 -79.795 3.330 19290.85
46.431 -78.490 3.216 19476.88
46.431 -77.185 3.155 21100.00
46.431 -75.881 3.161 18466.13
46.431 -74.576 3.288 14914.48
46.431 -73.271 3.295 20257.22
46.431 -71.966 3.238 17708.14
46.431 -70.661 3.247 13494.57
46.431 -69.356 3.220 8582.03
46.431 -68.051 3.174 8693.96
46.431 -66.747 3.208 421.18
46.431 -65.442 3.203 518.35
46.431 -64.137 3.176 372.30
46.431 -62.832 3.266 106.88
47.330 -136.522 3.552 178.70
47.330 -135.195 3.584 298.63
47.330 -133.868 3.544 144.86
47.330 -132.541 3.479 10.99
47.330 -131.214 3.584 141.86
47.330 -129.887 3.992 302.70
47.330 -128.561 4.905 1003.76
47.330 -127.234 5.092 2782.26
47.330 -125.907 4.581 3189.33
47.330 -124.580 3.591 5228.25
47.330 -123.253 3.086 14132.34
47.330 -121.926 3.046 19425.78
47.330 -120.599 3.330 23046.92
47.330 -119.272 3.541 21203.72
47.330 -117.945 3.459 20365.92
47.330 -116.618 3.318 21728.19
47.330 -115.291 3.221 22689.74
47.330 -113.964 3.165 19516.75
47.330 -112.637 3.194 18289.17
47.330 -111.311 3.134 13970.87
47.330 -109.984 3.053 13422.43
47.330 -108.657 3.126 13183.59
47.330 -107.330 3.202 15951.10
47.330 -106.003 3.104 16462.85
47.330 -104.676 3.101 17148.29
47.330 -103.349 3.131 15085.86
47.330 -102.022 3.139 18856.25
47.330 -100.695 3.151 22250.27
47.330 -99.368 3.221 22377.25
47.330 -98.041 3.284 32707.80
47.330 -96.714 3.304 33648.32
47.330 -95.387 3.244 28696.06
47.330 -94.061 3.213 25462.52
47.330 -92.734 3.153 19845.48
47.330 -91.407 3.186 12736.06
47.330 -90.080 3.251 12909.20
47.330 -88.753 3.265 12501.44
47.330 -87.426 3.363 8406.95
47.330 -86.099 3.434 5585.71
47.330 -84.772 3.487 4927.30
47.330 -83.445 3.495 4900.21
47.330 -82.118 3.426 6082.71
47.330 -80.791 3.379 7671.99
47.330 -79.464 3.401 9209.31
47.330 -78.137 3.400 8271.76
47.330 -76.811 3.358 10791.13
47.330 -75.484 3.328 9085.08
47.330 -74.157 3.377 7802.06
47.330 -72.830 3.375 6572.41
47.330 -71.503 3.320 5895.83
47.330 -70.176 3.276 6684.53
47.330 -68.849 3.218 697.00
47.330 -67.522 3.193 476.76
47.330 -66.195 3.203 629.34
47.330 -64.868 3.190 419.44
47.330 -63.541 3.192 192.55
47.330 -62.214 3.351 260.83
48.229 -137.170 3.786 395.39
48.229 -135.820 3.746 104.30
48.229 -134.470 3.618 63.27
48.229 -133.120 3.611 149.19
48.229 -131.770 3.806 192.07
48.229 -130.420 4.298 734.52
48.229 -129.070 4.987 1205.39
48.229 -127.720 4.755 3187.62
48.229 -126.370 4.295 2879.12
48.229 -125.020 3.551 7281.75
48.229 -123.670 3.121 17253.97
48.229 -122.320 3.054 16949.93
48.229 -120.969 3.379 17877.32
48.229 -119.619 3.550 14180.46
48.229 -118.269 3.437 15867.72
48.229 -116.919 3.220 19177.23
48.229 -115.569 3.043 14768.90
48.229 -114.219 3.106 13298.54
48.229 -112.869 3.192 14112.31
48.229 -111.519 3.244 9605.74
48.229 -110.169 3.227 10761.33
48.229 -108.819 3.198 9772.67
48.229 -107.469 3.190 13300.89
48.229 -106.119 3.037 11536.05
48.229 -104.769 2.994 17891.78
48.229 -103.418 3.050 13208.26
48.229 -102.068 3.134 16595.22
48.229 -100.718 3.183 16957.79
48.229 -99.368 3.226 19236.20
48.229 -98.018 3.220 17841.51
48.229 -96.668 3.229 20153.26
48.229 -95.318 3.293 22169.04
48.229 -93.968 3.336 15161.52
48.229 -92.618 3.278 6311.88
48.229 -91.268 3.265 5242.63
48.229 -89.918 3.309 3622.96
48.229 -88.568 3.259 5434.80
48.229 -87.217 3.307 3901.18
48.229 -85.867 3.334 3541.16
48.229 -84.517 3.350 2949.81
48.229 -83.167 3.311 2847.41
48.229 -81.817 3.269 3840.27
48.229 -80.467 3.293 4104.47
48.229 -79.117 3.395 3962.57
48.229 -77.767 3.517 3844.25
48.229 -76.417 3.500 3494.35
48.229 -75.067 3.418 2225.51
48.229 -73.717 3.376 2253.84
48.229 -72.367 3.305 1393.59
48.229 -71.017 3.259 930.02
48.229 -69.666 3.246 259.06
48.229 -68.316 3.208 84.80
48.229 -66.966 3.159 386.96
48.229 -65.616 3.153 348.06
48.229 -64.266 3.181 395.85
48.229 -62.916 3.274 393.48
48.229 -61.566 3.545 392.15
49.129 -137.851 4.124 600.08
49.129 -136.477 4.052 167.83
49.129 -135.103 3.770 148.85
49.129 -133.728 3.732 405.59
49.129 -132.354 3.960 672.32
49.129 -130.979 4.549 958.98
49.129 -129.605 4.790 896.19
49.129 -128.231 4.261 3296.46
49.129 -126.856 3.848 4610.96
49.129 -125.482 3.469 15491.80
49.129 -124.107 3.220 18518.93
49.129 -122.733 3.144 13388.95
49.129 -121.359 3.318 12755.20
49.129 -119.984 3.409 13785.75
49.129 -118.610 3.266 11615.46
49.129 -117.235 3.083 11208.27
49.129 -115.861 3.044 9070.31
49.129 -114.487 3.071 8215.18
49.129 -113.112 3.179 10152.94
49.129 -111.738 3.227 8198.56
49.129 -110.363 3.165 7683.34
49.129 -108.989 3.085 7969.82
49.129 -107.615 3.095 8734.67
49.129 -106.240 3.015 10822.41
49.129 -104.866 2.926 11686.43
49.129 -103.491 2.949 13934.94
49.129 -102.117 3.027 10544.17
49.129 -100.743 3.130 11615.40
49.129 -99.368 3.276 10126.21
49.129 -97.994 3.314 9557.54
49.129 -96.619 3.306 9290.43
49.129 -95.245 3.387 7341.17
49.129 -93.871 3.399 2526.79
49.129 -92.496 3.317 2755.77
49.129 -91.122 3.268 3526.71
49.129 -89.747 3.268 3672.61
49.129 -88.373 3.195 3870.03
49.129 -86.999 3.204 3736.83
49.129 -85.624 3.160 3245.11
49.129 -84.250 3.178 3006.82
49.129 -82.875 3.190 3755.94
49.129 -81.501 3.196 2741.56
49.129 -80.127 3.232 3457.46
49.129 -78.752 3.288 2362.01
49.129 -77.378 3.354 2062.90
49.129 -76.003 3.373 1783.59
49.129 -74.629 3.315 1438.36
49.129 -73.255 3.279 1167.76
49.129 -71.880 3.222 835.17
49.129 -70.506 3.209 470.44
49.129 -69.131 3.207 366.29
49.129 -67.757 3.174 466.89
49.129 -66.383 3.148 243.90
49.129 -65.008 3.192 153.59
49.129 -63.634 3.305 92.87
49.129 -62.259 3.513 143.19
49.129 -60.885 3.889 470.67
50.028 -138.567 4.369 756.32
50.028 -137.167 4.251 778.80
50.028 -135.767 3.800 567.42
50.028 -134.367 3.728 526.44
50.028 -132.967 4.099 311.70
50.028 -131.567 4.601 703.24
50.028 -130.167 4.293 1410.80
50.028 -128.767 3.744 4120.70
50.028 -127.368 3.511 16220.24
50.028 -125.968 3.334 20039.21
50.028 -124.568 3.189 16382.61
50.028 -123.168 3.180 13240.44
50.028 -121.768 3.312 13905.39
50.028 -120.368 3.321 11065.48
50.028 -118.968 3.192 9389.12
50.028 -117.568 3.091 10196.15
50.028 -116.168 3.084 8366.28
50.028 -114.768 3.024 7687.52
50.028 -113.368 3.061 7218.49
50.028 -111.968 3.050 7693.35
50.028 -110.568 2.985 6094.91
50.028 -109.168 2.988 8174.02
50.028 -107.768 3.028 8055.84
50.028 -106.368 3.049 9560.78
50.028 -104.968 3.023 9456.81
50.028 -103.568 2.979 13870.83
50.028 -102.168 3.029 8897.05
50.028 -100.768 3.218 8058.03
50.028 -99.368 3.466 6865.93
50.028 -97.968 3.559 6247.56
50.028 -96.568 3.500 8470.20
50.028 -95.168 3.467 3405.81
50.028 -93.768 3.386 2845.01
50.028 -92.368 3.253 2341.38
50.028 -90.968 3.153 3908.09
50.028 -89.568 3.128 3050.45
50.028 -88.168 3.106 3077.30
50.028 -86.769 3.161 2563.99
50.028 -85.369 3.123 2482.51
50.028 -83.969 3.124 2794.02
50.028 -82.569 3.174 2727.38
50.028 -81.169 3.183 3069.06
50.028 -79.769 3.185 1912.08
50.028 -78.369 3.198 1257.71
50.028 -76.969 3.229 1800.11
50.028 -75.569 3.262 1877.08
50.028 -74.169 3.290 1406.27
50.028 -72.769 3.266 725.29
50.028 -71.369 3.215 437.59
50.028 -69.969 3.195 417.30
50.028 -68.569 3.193 316.31
50.028 -67.169 3.210 469.54
50.028 -65.769 3.294 85.43
50.028 -64.369 3.433 131.84
50.028 -62.969 3.642 163.84
50.028 -61.569 3.886 525.50
50.028 -60.169 4.085 169.15
50.927 -139.320 4.213 907.76
50.927 -137.893 4.111 783.74
50.927 -136.466 3.720 350.64
50.927 -135.040 3.769 2.00
50.927 -133.613 4.179 677.30
50.927 -132.186 4.309 460.51
50.927 -130.759 3.801 2404.04
50.927 -129.332 3.501 20257.61
50.927 -127.905 3.412 27259.10
50.927 -126.478 3.254 18359.38
50.927 -125.052 3.153 17389.22
50.927 -123.625 3.235 13377.94
50.927 -122.198 3.292 11681.19
50.927 -120.771 3.248 9467.21
50.927 -119.344 3.083 9325.83
50.927 -117.917 2.959 10203.33
50.927 -116.490 2.975 7254.51
50.927 -115.064 2.973 7027.65
50.927 -113.637 2.997 6061.26
50.927 -112.210 3.001 7083.80
50.927 -110.783 2.969 5654.51
50.927 -109.356 3.072 6844.77
50.927 -107.929 3.202 6882.41
50.927 -106.502 3.366 9220.14
50.927 -105.076 3.420 10200.73
50.927 -103.649 3.296 12371.74
50.927 -102.222 3.211 11118.18
50.927 -100.795 3.333 6616.94
50.927 -99.368 3.522 5756.72
50.927 -97.941 3.606 5352.69
50.927 -96.514 3.479 3587.97
50.927 -95.088 3.312 3136.80
50.927 -93.661 3.211 2402.25
50.927 -92.234 3.119 2883.17
50.927 -90.807 3.128 3245.10
50.927 -89.380 3.177 2149.50
50.927 -87.953 3.181 2645.45
50.927 -86.526 3.240 2939.30
50.927 -85.100 3.234 2762.42
50.927 -83.673 3.267 1283.08
50.927 -82.246 3.286 2893.47
50.927 -80.819 3.250 2811.14
50.927 -79.392 3.222 1059.94
50.927 -77.965 3.222 1831.12
50.927 -76.538 3.257 1215.75
50.927 -75.112 3.302 1519.44
50.927 -73.685 3.357 1154.75
50.927 -72.258 3.331 462.45
50.927 -70.831 3.270 538.61
50.927 -69.404 3.240 362.05
50.927 -67.977 3.294 437.57
50.927 -66.550 3.438 200.06
50.927 -65.124 3.652 259.76
50.927 -63.697 3.873 306.71
50.927 -62.270 3.988 499.26
50.927 -60.843 3.962 336.10
50.927 -59.416 3.968 745.78
51.827 -140.113 3.916 908.64
51.827 -138.658 3.863 218.79
51.827 -137.203 3.663 21.97
51.827 -135.747 3.820 155.82
51.827 -134.292 4.192 838.16
51.827 -132.837 4.132 671.30
51.827 -131.382 3.680 30026.27
51.827 -129.927 3.657 42410.38
51.827 -128.472 3.536 21930.98
51.827 -127.016 3.360 15941.56
51.827 -125.561 3.304 13035.87
51.827 -124.106 3.264 11157.54
51.827 -122.651 3.218 9006.08
51.827 -121.196 3.191 6490.67
51.827 -119.741 3.139 6795.13
51.827 -118.285 3.059 6356.24
51.827 -116.830 3.076 5727.74
51.827 -115.375 3.078 4428.12
51.827 -113.920 3.122 4452.53
51.827 -112.465 3.118 6026.65
51.827 -111.010 3.124 6123.47
51.827 -109.554 3.292 6895.63
51.827 -108.099 3.500 7743.03
51.827 -106.644 3.643 10903.47
51.827 -105.189 3.652 11773.60
51.827 -103.734 3.405 11007.77
51.827 -102.279 3.258 11943.31
51.827 -100.823 3.254 6429.58
51.827 -99.368 3.318 4559.53
51.827 -97.913 3.339 4769.94
51.827 -96.458 3.226 2323.43
51.827 -95.003 3.156 2995.82
51.827 -93.548 3.137 2635.41
51.827 -92.092 3.137 2305.83
51.827 -90.637 3.224 2922.59
51.827 -89.182 3.289 2452.39
51.827 -87.727 3.283 3124.85
51.827 -86.272 3.364 2710.42
51.827 -84.817 3.374 1912.43
51.827 -83.361 3.377 2266.99
51.827 -81.906 3.375 2158.43
51.827 -80.451 3.339 1444.48
51.827 -78.996 3.299 1939.12
51.827 -77.541 3.314 2041.37
51.827 -76.085 3.371 1475.55
51.827 -74.630 3.455 974.29
51.827 -73.175 3.512 974.85
51.827 -71.720 3.529 708.94
51.827 -70.265 3.508 823.09
51.827 -68.810 3.509 395.85
51.827 -67.354 3.584 200.79
51.827 -65.899 3.767 199.03
51.827 -64.444 3.963 657.59
51.827 -62.989 4.016 693.31
51.827 -61.534 3.920 539.19
51.827 -60.079 3.808 702.41
51.827 -58.623 3.757 338.68
52.726 -140.948 3.776 278.74
52.726 -139.463 3.735 91.89
52.726 -137.978 3.698 135.84
52.726 -136.493 3.948 702.30
52.726 -135.008 4.217 610.43
52.726 -133.523 4.067 825.11
52.726 -132.038 3.692 4396.02
52.726 -130.553 3.579 7430.77
52.726 -129.068 3.485 6373.01
52.726 -127.583 3.418 5803.13
52.726 -126.098 3.398 6168.86
52.726 -124.613 3.364 7628.97
52.726 -123.128 3.405 5217.13
52.726 -121.643 3.440 4381.48
52.726 -120.158 3.400 5339.63
52.726 -118.673 3.308 5595.35
52.726 -117.188 3.269 5016.58
52.726 -115.703 3.305 4635.74
52.726 -114.218 3.354 4271.62
52.726 -112.733 3.262 7353.95
52.726 -111.248 3.189 7343.61
52.726 -109.763 3.275 7204.30
52.726 -108.278 3.342 9204.64
52.726 -106.793 3.353 11709.61
52.726 -105.308 3.317 11616.32
52.726 -103.823 3.190 10758.55
52.726 -102.338 3.125 10713.89
52.726 -100.853 3.132 7821.95
52.726 -99.368 3.223 4443.23
52.726 -97.883 3.250 3498.65
52.726 -96.398 3.192 1989.09
52.726 -94.913 3.151 2952.59
52.726 -93.428 3.183 1896.62
52.726 -91.943 3.224 2507.93
52.726 -90.458 3.291 2951.30
52.726 -88.973 3.282 2347.56
52.726 -87.488 3.254 2508.90
52.726 -86.003 3.348 2738.32
52.726 -84.518 3.343 2137.14
52.726 -83.033 3.323 1604.80
52.726 -81.548 3.325 1325.03
52.726 -80.063 3.320 1678.03
52.726 -78.578 3.296 2191.86
52.726 -77.093 3.324 1589.95
52.726 -75.608 3.384 1461.21
52.726 -74.123 3.469 1472.44
52.726 -72.638 3.538 707.32
52.726 -71.153 3.667 1112.89
52.726 -69.668 3.816 859.21
52.726 -68.183 3.870 599.17
52.726 -66.698 3.920 554.67
52.726 -65.213 3.980 842.20
52.726 -63.728 3.938 533.50
52.726 -62.243 3.834 519.47
52.726 -60.758 3.729 458.60
52.726 -59.273 3.635 31.97
52.726 -57.788 3.639 152.86
53.625 -141.829 3.740 586.42
53.625 -140.313 3.737 174.83
53.625 -138.796 3.796 382.65
53.625 -137.280 3.985 780.21
53.625 -135.763 4.077 195.80
53.625 -134.247 4.045 1129.13
53.625 -132.730 3.992 1797.23
53.625 -131.214 3.865 2580.57
53.625 -129.697 3.635 3273.43
53.625 -128.181 3.450 3988.73
53.625 -126.665 3.407 4600.90
53.625 -125.148 3.387 5650.95
53.625 -123.632 3.416 3843.79
53.625 -122.115 3.417 3592.70
53.625 -120.599 3.267 4597.63
53.625 -119.082 3.152 4221.89
53.625 -117.566 3.108 4586.05
53.625 -116.049 3.148 4231.96
53.625 -114.533 3.202 5193.44
53.625 -113.016 3.137 5769.21
53.625 -111.500 3.063 7978.22
53.625 -109.983 3.086 8589.39
53.625 -108.467 3.119 10614.62
53.625 -106.951 3.139 12688.36
53.625 -105.434 3.160 10824.17
53.625 -103.918 3.194 8729.11
53.625 -102.401 3.172 8378.06
53.625 -100.885 3.195 8966.71
53.625 -99.368 3.295 4035.74
53.625 -97.852 3.343 3079.40
53.625 -96.335 3.294 2290.96
53.625 -94.819 3.241 2259.66
53.625 -93.302 3.247 2080.29
53.625 -91.786 3.259 2320.35
53.625 -90.269 3.279 2002.02
53.625 -88.753 3.219 2426.36
53.625 -87.237 3.174 2829.11
53.625 -85.720 3.256 2611.30
53.625 -84.204 3.256 1298.68
53.625 -82.687 3.266 1406.60
53.625 -81.171 3.274 1289.64
53.625 -79.654 3.272 2106.84
53.625 -78.138 3.237 1743.90
53.625 -76.621 3.256 1449.25
53.625 -75.105 3.298 1306.73
53.625 -73.588 3.343 1673.96
53.625 -72.072 3.413 989.61
53.625 -70.555 3.631 991.65
53.625 -69.039 3.939 869.57
53.625 -67.523 4.053 1037.70
53.625 -66.006 3.988 681.37
53.625 -64.490 3.842 441.59
53.625 -62.973 3.724 409.48
53.625 -61.457 3.625 272.80
53.625 -59.940 3.542 106.90
53.625 -58.424 3.520 243.77
53.625 -56.907 3.569 265.72
54.525 -142.759 3.708 258.74
54.525 -141.209 3.719 317.70
54.525 -139.660 3.824 452.53
54.525 -138.110 3.886 317.70
54.525 -136.560 3.863 444.51
54.525 -135.011 3.954 1166.67
54.525 -133.461 4.169 1471.80
54.525 -131.911 3.961 2148.05
54.525 -130.362 3.654 3181.81
54.525 -128.812 3.369 4394.89
54.525 -127.262 3.340 4275.75
54.525 -125.713 3.285 4364.78
54.525 -124.163 3.311 4108.56
54.525 -122.613 3.284 3747.39
54.525 -121.064 3.115 3758.84
54.525 -119.514 3.048 3385.74
54.525 -117.964 3.030 3826.42
54.525 -116.415 3.090 4506.90
54.525 -114.865 3.131 4932.56
54.525 -113.315 3.146 5967.68
54.525 -111.766 3.179 8600.00
54.525 -110.216 3.138 10343.63
54.525 -108.666 3.108 11792.55
54.525 -107.117 3.119 12704.02
54.525 -105.567 3.231 9059.89
54.525 -104.017 3.301 7242.79
54.525 -102.468 3.253 7409.57
54.525 -100.918 3.232 7374.23
54.525 -99.368 3.265 4907.26
54.525 -97.819 3.379 2740.07
54.525 -96.269 3.410 2315.08
54.525 -94.719 3.338 2544.99
54.525 -93.170 3.284 2206.28
54.525 -91.620 3.266 1404.12
54.525 -90.070 3.255 2795.88
54.525 -88.520 3.166 2503.51
54.525 -86.971 3.132 2518.43
54.525 -85.421 3.226 1549.04
54.525 -83.871 3.256 1308.66
54.525 -82.322 3.269 1301.65
54.525 -80.772 3.258 1449.50
54.525 -79.222 3.241 2196.78
54.525 -77.673 3.223 1434.51
54.525 -76.123 3.237 908.84
54.525 -74.573 3.240 1326.25
54.525 -73.024 3.239 1094.59
54.525 -71.474 3.265 696.45
54.525 -69.924 3.421 647.86
54.525 -68.375 3.662 1117.10
54.525 -66.825 3.735 1012.18
54.525 -65.275 3.686 271.33
54.525 -63.726 3.580 321.71
54.525 -62.176 3.465 130.70
54.525 -60.626 3.436 99.88
54.525 -59.077 3.489 231.75
54.525 -57.527 3.520 186.80
54.525 -55.977 3.551 112.89
55.424 -143.742 3.654 495.54
55.424 -142.157 3.653 39.96
55.424 -140.572 3.745 564.41
55.424 -138.988 3.796 179.83
55.424 -137.403 3.816 609.32
55.424 -135.818 3.943 1511.06
55.424 -134.233 4.105 1121.94
55.424 -132.648 3.852 2497.93
55.424 -131.064 3.618 3097.46
55.424 -129.479 3.359 4313.22
55.424 -127.894 3.280 3545.22
55.424 -126.309 3.183 3999.83
55.424 -124.725 3.205 4895.20
55.424 -123.140 3.142 3278.14
55.424 -121.555 3.057 4548.29
55.424 -119.970 3.070 4137.89
55.424 -118.385 3.081 4825.31
55.424 -116.801 3.131 4430.87
55.424 -115.216 3.148 5370.56
55.424 -113.631 3.245 6605.07
55.424 -112.046 3.354 9870.07
55.424 -110.462 3.268 13299.13
55.424 -108.877 3.077 12480.44
55.424 -107.292 3.112 10513.00
55.424 -105.707 3.257 8260.90
55.424 -104.123 3.327 5608.76
55.424 -102.538 3.256 4675.77
55.424 -100.953 3.172 6522.16
55.424 -99.368 3.196 7698.10
55.424 -97.783 3.367 2384.58
55.424 -96.199 3.493 2660.64
55.424 -94.614 3.402 1421.87
55.424 -93.029 3.295 2174.75
55.424 -91.444 3.255 1640.37
55.424 -89.860 3.211 2818.15
55.424 -88.275 3.124 1976.63
55.424 -86.690 3.148 2252.73
55.424 -85.105 3.264 1401.50
55.424 -83.520 3.289 1714.21
55.424 -81.936 3.258 1154.80
55.424 -80.351 3.219 2146.02
55.424 -78.766 3.227 1720.63
55.424 -77.181 3.243 1219.97
55.424 -75.597 3.246 763.33
55.424 -74.012 3.251 1317.89
55.424 -72.427 3.236 696.13
55.424 -70.842 3.210 670.31
55.424 -69.257 3.252 863.93
55.424 -67.673 3.358 1083.76
55.424 -66.088 3.418 506.10
55.424 -64.503 3.413 436.68
55.424 -62.918 3.358 224.74
55.424 -61.334 3.334 127.85
55.424 -59.749 3.389 91.91
55.424 -58.164 3.489 117.89
55.424 -56.579 3.508 348.67
55.424 -54.995 3.511 293.73
56.324 -144.782 3.617 49.95
56.324 -143.160 3.626 453.52
56.324 -141.538 3.683 169.82
56.324 -139.916 3.778 423.57
56.324 -138.294 3.887 1128.81
56.324 -136.672 3.965 1310.92
56.324 -135.050 3.929 1059.14
56.324 -133.428 3.697 2345.10
56.324 -131.806 3.637 3629.34
56.324 -130.184 3.428 4224.00
56.324 -128.563 3.209 2850.32
56.324 -126.941 3.115 3380.52
56.324 -125.319 3.102 5860.13
56.324 -123.697 3.038 4345.29
56.324 -122.075 3.051 4909.46
56.324 -120.453 3.120 3796.97
56.324 -118.831 3.178 4526.67
56.324 -117.209 3.208 4201.55
56.324 -115.587 3.155 5803.64
56.324 -113.965 3.196 8871.93
56.324 -112.343 3.275 12732.91
56.324 -110.722 3.238 14642.52
56.324 -109.100 3.066 11053.75
56.324 -107.478 3.054 8880.06
56.324 -105.856 3.190 4809.47
56.324 -104.234 3.327 5823.36
56.324 -102.612 3.274 5540.81
56.324 -100.990 3.143 6408.78
56.324 -99.368 3.200 6045.62
56.324 -97.746 3.307 3941.90
56.324 -96.124 3.470 1801.70
56.324 -94.502 3.447 1846.02
56.324 -92.881 3.340 2962.37
56.324 -91.259 3.275 1562.43
56.324 -89.637 3.180 1810.13
56.324 -88.015 3.113 2010.97
56.324 -86.393 3.169 2052.91
56.324 -84.771 3.257 1125.29
56.324 -83.149 3.246 1574.97
56.324 -81.527 3.188 1595.92
56.324 -79.905 3.156 2056.13
56.324 -78.283 3.215 1329.68
56.324 -76.661 3.271 728.63
56.324 -75.040 3.259 1069.53
56.324 -73.418 3.279 1421.43
56.324 -71.796 3.275 602.36
56.324 -70.174 3.262 697.25
56.324 -68.552 3.259 610.11
56.324 -66.930 3.261 665.46
56.324 -65.308 3.226 487.34
56.324 -63.686 3.224 365.03
56.324 -62.064 3.239 75.08
56.324 -60.442 3.259 55.29
56.324 -58.820 3.322 74.93
56.324 -57.199 3.389 481.56
56.324 -55.577 3.363 61.94
56.324 -53.955 3.415 0.00
57.223 -145.883 3.652 144.85
57.223 -144.222 3.679 501.47
57.223 -142.561 3.722 22.97
57.223 -140.899 3.819 770.20
57.223 -139.238 3.961 1397.27
57.223 -137.577 3.942 1180.66
57.223 -135.916 3.747 1322.75
57.223 -134.254 3.553 1715.38
57.223 -132.593 3.578 3791.68
57.223 -130.932 3.411 3422.05
57.223 -129.271 3.174 3290.32
57.223 -127.609 3.104 3667.36
57.223 -125.948 3.070 5586.61
57.223 -124.287 3.003 4976.36
57.223 -122.626 3.037 4169.16
57.223 -120.964 3.113 3284.91
57.223 -119.303 3.262 3629.94
57.223 -117.642 3.282 3907.41
57.223 -115.981 3.177 6914.53
57.223 -114.319 3.172 11693.70
57.223 -112.658 3.180 15301.72
57.223 -110.997 3.229 14001.97
57.223 -109.336 3.137 9576.72
57.223 -107.674 3.019 6874.84
57.223 -106.013 3.133 5446.68
57.223 -104.352 3.320 4815.22
57.223 -102.691 3.312 6148.39
57.223 -101.029 3.166 4083.34
57.223 -99.368 3.151 4605.55
57.223 -97.707 3.224 5902.60
57.223 -96.046 3.351 3207.73
57.223 -94.384 3.415 2377.42
57.223 -92.723 3.396 2477.69
57.223 -91.062 3.341 1194.98
57.223 -89.401 3.216 1914.95
57.223 -87.739 3.131 1805.87
57.223 -86.078 3.159 1548.44
57.223 -84.417 3.215 1940.19
57.223 -82.756 3.199 1723.26
57.223 -81.094 3.156 1948.01
57.223 -79.433 3.149 1584.38
57.223 -77.772 3.226 1106.81
57.223 -76.111 3.294 932.02
57.223 -74.449 3.263 1139.86
57.223 -72.788 3.257 960.98
57.223 -71.127 3.254 536.46
57.223 -69.466 3.266 118.68
57.223 -67.805 3.265 589.23
57.223 -66.143 3.240 295.69
57.223 -64.482 3.178 152.91
57.223 -62.821 3.156 191.02
57.223 -61.160 3.168 285.74
57.223 -59.498 3.189 367.89
57.223 -57.837 3.210 56.52
57.223 -56.176 3.217 89.96
57.223 -54.515 3.203 251.82
57.223 -52.853 3.333 5.00
58.122 -147.051 3.757 590.38
58.122 -145.348 3.793 84.91
58.122 -143.645 3.839 339.65
58.122 -141.942 3.904 1186.76
58.122 -140.239 3.984 1229.35
58.122 -138.537 3.860 1307.66
58.122 -136.834 3.573 667.72
58.122 -135.131 3.397 2514.63
58.122 -133.428 3.433 4185.21
58.122 -131.725 3.363 3479.52
58.122 -130.022 3.198 4488.87
58.122 -128.319 3.154 3019.83
58.122 -126.616 3.126 5168.73
58.122 -124.913 3.020 5474.18
58.122 -123.210 3.040 3694.81
58.122 -121.507 3.094 4259.21
58.122 -119.804 3.279 3919.47
58.122 -118.101 3.312 5303.13
58.122 -116.398 3.240 9506.97
58.122 -114.695 3.205 16619.95
58.122 -112.992 3.210 15494.63
58.122 -111.289 3.303 12069.10
58.122 -109.586 3.213 6218.49
58.122 -107.883 3.106 6079.02
58.122 -106.180 3.095 4944.31
58.122 -104.477 3.222 4217.04
58.122 -102.774 3.321 4759.62
58.122 -101.071 3.222 4357.31
58.122 -99.368 3.090 4751.92
58.122 -97.665 3.132 6215.30
58.122 -95.962 3.237 4609.94
58.122 -94.259 3.349 3293.86
58.122 -92.556 3.399 1729.30
58.122 -90.853 3.424 1686.18
58.122 -89.150 3.283 1786.08
58.122 -87.447 3.143 2065.49
58.122 -85.744 3.163 1732.26
58.122 -84.041 3.213 2163.82
58.122 -82.339 3.210 1739.24
58.122 -80.636 3.194 1366.62
58.122 -78.933 3.196 1235.28
58.122 -77.230 3.258 812.17
58.122 -75.527 3.300 1401.59
58.122 -73.824 3.243 1342.55
58.122 -72.121 3.213 387.62
58.122 -70.418 3.206 312.01
58.122 -68.715 3.219 204.97
58.122 -67.012 3.238 445.57
58.122 -65.309 3.216 144.86
58.122 -63.606 3.187 176.82
58.122 -61.903 3.194 33.83
58.122 -60.200 3.199 178.91
58.122 -58.497 3.175 136.80
58.122 -56.794 3.150 284.73
58.122 -55.091 3.120 234.59
58.122 -53.388 3.124 95.92
58.122 -51.685 3.287 290.52
59.022 -148.292 3.775 778.20
59.022 -146.545 3.835 109.77
59.022 -144.798 3.891 1051.91
59.022 -143.050 3.942 1196.74
59.022 -141.303 3.908 1230.32
59.022 -139.556 3.723 807.21
59.022 -137.808 3.448 805.82
59.022 -136.061 3.330 4366.09
59.022 -134.314 3.454 5879.29
59.022 -132.567 3.420 3552.45
59.022 -130.819 3.339 3840.34
59.022 -129.072 3.268 3083.93
59.022 -127.325 3.213 5474.66
59.022 -125.577 3.088 6157.08
59.022 -123.830 3.105 4348.64
59.022 -122.083 3.134 3976.79
59.022 -120.336 3.275 3948.70
59.022 -118.588 3.285 8118.07
59.022 -116.841 3.290 15871.08
59.022 -115.094 3.262 18707.61
59.022 -113.346 3.341 12982.02
59.022 -111.599 3.342 7637.13
59.022 -109.852 3.238 5146.84
59.022 -108.105 3.133 5303.79
59.022 -106.357 3.071 3423.56
59.022 -104.610 3.102 4327.26
59.022 -102.863 3.278 3981.13
59.022 -101.115 3.325 4668.09
59.022 -99.368 3.130 5116.54
59.022 -97.621 3.094 3859.66
59.022 -95.874 3.174 5750.89
59.022 -94.126 3.332 3039.51
59.022 -92.379 3.404 1074.93
59.022 -90.632 3.417 1324.61
59.022 -88.884 3.298 1388.55
59.022 -87.137 3.211 2537.45
59.022 -85.390 3.253 1771.19
59.022 -83.643 3.281 2119.85
59.022 -81.895 3.252 1557.40
59.022 -80.148 3.218 962.05
59.022 -78.401 3.211 1334.63
59.022 -76.654 3.253 1104.88
59.022 -74.906 3.290 972.99
59.022 -73.159 3.237 1043.99
59.022 -71.412 3.197 541.04
59.022 -69.664 3.198 94.53
59.022 -67.917 3.214 369.64
59.022 -66.170 3.213 229.63
59.022 -64.423 3.203 104.89
59.022 -62.675 3.214 11.99
59.022 -60.928 3.237 117.90
59.022 -59.181 3.229 96.91
59.022 -57.433 3.194 16.47
59.022 -55.686 3.157 101.33
59.022 -53.939 3.138 142.87
59.022 -52.192 3.140 224.79
59.022 -50.444 3.264 234.47
59.921 -149.612 3.578 1085.44
59.921 -147.818 3.643 440.57
59.921 -146.023 3.739 1013.51
59.921 -144.229 3.786 1406.54
59.921 -142.434 3.718 1087.85
59.921 -140.640 3.529 427.13
59.921 -138.845 3.350 1812.33
59.921 -137.051 3.453 2572.63
59.921 -135.257 3.683 3572.00
59.921 -133.462 3.640 3793.05
59.921 -131.668 3.513 2971.58
59.921 -129.873 3.412 3506.29
59.921 -128.079 3.337 4808.37
59.921 -126.284 3.176 6902.37
59.921 -124.490 3.173 6083.53
59.921 -122.696 3.177 3562.91
59.921 -120.901 3.211 5079.36
59.921 -119.107 3.210 14225.29
59.921 -117.312 3.188 22070.36
59.921 -115.518 3.257 14097.90
59.921 -113.724 3.311 7498.04
59.921 -111.929 3.347 6354.16
59.921 -110.135 3.274 5170.18
59.921 -108.340 3.195 3859.64
59.921 -106.546 3.114 3455.41
59.921 -104.751 3.045 5215.56
59.921 -102.957 3.142 4897.77
59.921 -101.163 3.316 4264.55
59.921 -99.368 3.235 3901.91
59.921 -97.574 3.120 5228.29
59.921 -95.779 3.164 5189.71
59.921 -93.985 3.279 2509.05
59.921 -92.191 3.339 1022.08
59.921 -90.396 3.331 1187.80
59.921 -88.602 3.276 1397.57
59.921 -86.807 3.269 2298.63
59.921 -85.013 3.346 2214.80
59.921 -83.218 3.352 2521.42
59.921 -81.424 3.284 1494.42
59.921 -79.630 3.218 1283.66
59.921 -77.835 3.209 1103.92
59.921 -76.041 3.242 663.32
59.921 -74.246 3.264 1367.16
59.921 -72.452 3.227 676.10
59.921 -70.657 3.214 329.63
59.921 -68.863 3.213 172.82
59.921 -67.069 3.222 344.67
59.921 -65.274 3.208 120.88
59.921 -63.480 3.207 64.93
59.921 -61.685 3.229 35.97
59.921 -59.891 3.236 65.95
59.921 -58.097 3.216 14.99
59.921 -56.302 3.194 75.93
59.921 -54.508 3.182 21.98
59.921 -52.713 3.183 39.39
59.921 -50.919 3.201 138.30
59.921 -49.124 3.277 302.92
60.820 -151.018 3.352 649.38
60.820 -149.173 3.370 1767.30
60.820 -147.329 3.470 1325.63
60.820 -145.484 3.501 2206.82
60.820 -143.639 3.446 1190.18
60.820 -141.795 3.284 478.17
60.820 -139.950 3.231 1888.51
60.820 -138.106 3.412 1663.29
60.820 -136.261 3.530 2615.84
60.820 -134.416 3.554 4407.94
60.820 -132.572 3.467 2981.19
60.820 -130.727 3.358 3497.22
60.820 -128.882 3.308 4045.74
60.820 -127.038 3.173 7744.40
60.820 -125.193 3.149 5414.50
60.820 -123.348 3.129 4044.04
60.820 -121.504 3.109 10447.23
60.820 -119.659 3.122 26247.72
60.820 -117.815 3.191 17387.89
60.820 -115.970 3.220 7242.33
60.820 -114.125 3.282 6763.60
60.820 -112.281 3.325 4915.26
60.820 -110.436 3.337 4687.97
60.820 -108.591 3.251 4427.56
60.820 -106.747 3.181 4743.10
60.820 -104.902 3.109 3712.80
60.820 -103.057 3.074 3197.27
60.820 -101.213 3.207 4122.42
60.820 -99.368 3.320 4541.16
60.820 -97.524 3.186 4558.93
60.820 -95.679 3.154 3198.46
60.820 -93.834 3.217 5860.82
60.820 -91.990 3.299 1164.57
60.820 -90.145 3.290 1276.75
60.820 -88.300 3.248 1085.87
60.820 -86.456 3.233 2588.02
60.820 -84.611 3.303 3450.51
60.820 -82.766 3.358 2348.54
60.820 -80.922 3.329 735.25
60.820 -79.077 3.265 1503.73
60.820 -77.233 3.227 1016.69
60.820 -75.388 3.217 872.89
60.820 -73.543 3.227 1175.05
60.820 -71.699 3.242 528.43
60.820 -69.854 3.243 207.76
60.820 -68.009 3.229 426.59
60.820 -66.165 3.213 175.83
60.820 -64.320 3.207 100.89
60.820 -62.475 3.221 6.99
60.820 -60.631 3.232 94.92
60.820 -58.786 3.215 0.00
60.820 -56.942 3.198 0.00
60.820 -55.097 3.192 0.00
60.820 -53.252 3.198 54.95
60.820 -51.408 3.210 59.94
60.820 -49.563 3.230 0.00
60.820 -47.718 3.267 179.46
61.720 -152.518 3.294 508.55
61.720 -150.620 3.293 579.33
61.720 -148.722 3.324 2731.77
61.720 -146.824 3.307 2655.48
61.720 -144.926 3.222 2717.80
61.720 -143.027 3.116 2036.52
61.720 -141.129 3.160 1695.71
61.720 -139.231 3.287 2055.71
61.720 -137.333 3.294 2650.41
61.720 -135.434 3.356 4284.45
61.720 -133.536 3.327 3154.51
61.720 -131.638 3.201 5247.57
61.720 -129.740 3.178 3646.44
61.720 -127.842 3.119 8011.89
61.720 -125.943 3.135 4882.15
61.720 -124.045 3.106 6464.76
61.720 -122.147 3.070 31252.63
61.720 -120.249 3.151 21885.50
61.720 -118.350 3.224 7653.20
61.720 -116.452 3.264 5268.92
61.720 -114.554 3.319 5449.64
61.720 -112.656 3.377 4736.66
61.720 -110.758 3.341 5394.14
61.720 -108.859 3.217 4800.06
61.720 -106.961 3.226 3718.24
61.720 -105.063 3.237 2932.30
61.720 -103.165 3.155 2899.79
61.720 -101.266 3.127 3204.77
61.720 -99.368 3.268 4196.36
61.720 -97.470 3.263 4260.42
61.720 -95.572 3.224 3469.25
