21.248 -86.824 3.068 0.00
21.248 -85.859 3.068 0.00
21.248 -84.894 3.068 0.00
21.248 -83.929 3.071 0.00
21.248 -82.964 3.076 0.00
21.248 -81.999 3.067 0.00
21.248 -81.034 3.026 0.00
21.248 -80.069 2.968 161.48
21.248 -79.104 2.935 384.85
21.248 -78.139 2.911 1058.79
21.248 -77.174 2.943 8879.54
21.248 -76.209 3.121 18521.98
21.248 -75.244 3.346 704.77
21.248 -74.279 3.196 0.00
21.248 -73.314 3.074 0.00
21.248 -72.349 3.058 0.00
22.148 -126.556 3.065 0.00
22.148 -125.585 3.065 0.00
22.148 -124.614 3.065 0.00
22.148 -123.643 3.065 0.00
22.148 -122.672 3.065 0.00
22.148 -121.701 3.065 0.00
22.148 -120.730 3.065 0.00
22.148 -119.759 3.065 0.00
22.148 -118.788 3.065 0.00
22.148 -117.817 3.065 0.00
22.148 -116.846 3.065 0.00
22.148 -115.875 3.066 0.00
22.148 -114.904 3.065 0.00
22.148 -113.933 3.065 0.00
22.148 -112.962 3.067 0.00
22.148 -111.991 3.068 0.00
22.148 -111.020 3.064 0.00
22.148 -110.049 3.063 0.00
22.148 -109.078 3.063 0.00
22.148 -108.107 3.062 0.00
22.148 -107.136 3.066 0.00
22.148 -106.165 3.071 0.00
22.148 -105.194 3.074 0.00
22.148 -104.223 3.063 0.00
22.148 -103.252 3.034 0.00
22.148 -102.281 3.009 232.73
22.148 -101.310 3.014 101.92
22.148 -100.339 3.016 285.46
22.148 -99.368 3.019 41.77
22.148 -98.397 3.043 112.22
22.148 -97.426 3.048 10.99
22.148 -96.455 3.023 11628.41
22.148 -95.484 2.972 434.72
22.148 -94.513 2.985 193.15
22.148 -93.542 3.016 104.20
22.148 -92.571 3.017 32.96
22.148 -91.600 2.993 40.98
22.148 -90.629 2.983 219.81
22.148 -89.658 3.019 0.00
22.148 -88.687 3.054 0.00
22.148 -87.716 3.068 0.00
22.148 -86.745 3.069 0.00
22.148 -85.774 3.068 0.00
22.148 -84.803 3.068 0.00
22.148 -83.832 3.065 0.00
22.148 -82.861 3.045 80.20
22.148 -81.890 2.999 239.15
22.148 -80.919 2.947 368.51
22.148 -79.948 2.905 574.48
22.148 -78.977 2.892 1074.10
22.148 -78.006 2.916 7621.95
22.148 -77.035 3.007 17780.65
22.148 -76.064 3.255 1769.26
22.148 -75.093 3.407 331.93
22.148 -74.122 3.203 0.00
22.148 -73.151 3.068 0.00
22.148 -72.180 3.053 0.00
23.047 -126.735 3.065 0.00
23.047 -125.757 3.065 0.00
23.047 -124.780 3.066 0.00
23.047 -123.802 3.065 0.00
23.047 -122.825 3.065 0.00
23.047 -121.848 3.065 0.00
23.047 -120.870 3.065 0.00
23.047 -119.893 3.065 0.00
23.047 -118.916 3.065 0.00
23.047 -117.938 3.065 0.00
23.047 -116.961 3.066 0.00
23.047 -115.984 3.065 0.00
23.047 -115.006 3.065 0.00
23.047 -114.029 3.067 0.00
23.047 -113.051 3.070 0.00
23.047 -112.074 3.060 0.00
23.047 -111.097 3.051 0.00
23.047 -110.119 3.057 0.00
23.047 -109.142 3.053 0.00
23.047 -108.165 3.057 0.00
23.047 -107.187 3.059 0.00
23.047 -106.210 3.068 0.00
23.047 -105.232 3.062 0.00
23.047 -104.255 3.045 0.00
23.047 -103.278 3.014 163.83
23.047 -102.300 3.008 631.65
23.047 -101.323 2.991 68.45
23.047 -100.346 2.969 220.15
23.047 -99.368 2.993 126.99
23.047 -98.391 3.034 585.44
23.047 -97.413 3.084 15486.53
23.047 -96.436 3.046 7381.49
23.047 -95.459 2.976 772.02
23.047 -94.481 2.982 198.85
23.047 -93.504 3.018 74.29
23.047 -92.527 3.029 41.95
23.047 -91.549 3.017 208.84
23.047 -90.572 3.027 11.99
23.047 -89.594 3.050 0.00
23.047 -88.617 3.064 0.00
23.047 -87.640 3.067 0.00
23.047 -86.662 3.064 0.00
23.047 -85.685 3.059 44.96
23.047 -84.708 3.049 201.18
23.047 -83.730 3.020 262.93
23.047 -82.753 2.970 292.68
23.047 -81.776 2.915 348.37
23.047 -80.798 2.897 772.26
23.047 -79.821 2.919 947.09
23.047 -78.843 2.939 7188.63
23.047 -77.866 2.978 15863.61
23.047 -76.889 3.129 3314.65
23.047 -75.911 3.362 481.54
23.047 -74.934 3.388 301.16
23.047 -73.957 3.165 0.00
23.047 -72.979 3.058 0.00
23.047 -72.002 3.054 0.00
23.946 -126.922 3.065 0.00
23.946 -125.938 3.066 0.00
23.946 -124.954 3.066 0.00
23.946 -123.970 3.065 0.00
23.946 -122.986 3.065 0.00
23.946 -122.002 3.065 0.00
23.946 -121.018 3.065 0.00
23.946 -120.034 3.065 0.00
23.946 -119.049 3.065 0.00
23.946 -118.065 3.066 0.00
23.946 -117.081 3.065 0.00
23.946 -116.097 3.065 0.00
23.946 -115.113 3.066 0.00
23.946 -114.129 3.071 0.00
23.946 -113.145 3.059 0.00
23.946 -112.161 3.032 0.00
23.946 -111.177 3.055 0.00
23.946 -110.193 3.060 0.00
23.946 -109.209 3.070 0.00
23.946 -108.225 3.059 0.00
23.946 -107.241 3.061 0.00
23.946 -106.257 3.049 0.00
23.946 -105.273 3.009 0.00
23.946 -104.289 2.994 67.93
23.946 -103.304 2.992 345.69
23.946 -102.320 2.973 588.63
23.946 -101.336 2.947 191.58
23.946 -100.352 2.956 272.73
23.946 -99.368 3.007 1203.31
23.946 -98.384 3.106 11294.43
23.946 -97.400 3.157 10892.37
23.946 -96.416 3.087 119.26
23.946 -95.432 2.997 57.79
23.946 -94.448 2.949 626.81
23.946 -93.464 2.971 192.87
23.946 -92.480 3.007 292.52
23.946 -91.496 3.041 126.56
23.946 -90.512 3.066 0.94
23.946 -89.528 3.076 0.00
23.946 -88.543 3.071 45.96
23.946 -87.559 3.060 176.43
23.946 -86.575 3.046 222.56
23.946 -85.591 3.025 246.99
23.946 -84.607 2.991 189.11
23.946 -83.623 2.936 294.02
23.946 -82.639 2.900 493.70
23.946 -81.655 2.914 810.61
23.946 -80.671 2.941 833.06
23.946 -79.687 2.975 7096.72
23.946 -78.703 2.990 13745.80
23.946 -77.719 3.076 4798.08
23.946 -76.735 3.262 804.24
23.946 -75.751 3.379 220.76
23.946 -74.767 3.304 220.05
23.946 -73.783 3.118 0.00
23.946 -72.798 3.055 0.00
23.946 -71.814 3.059 0.00
24.846 -127.119 3.066 0.00
24.846 -126.128 3.066 0.00
24.846 -125.137 3.065 0.00
24.846 -124.146 3.065 0.00
24.846 -123.154 3.065 0.00
24.846 -122.163 3.065 0.00
24.846 -121.172 3.065 0.00
24.846 -120.181 3.065 0.00
24.846 -119.190 3.065 0.00
24.846 -118.199 3.065 0.00
24.846 -117.208 3.065 0.00
24.846 -116.217 3.066 0.00
24.846 -115.226 3.070 0.00
24.846 -114.235 3.064 0.00
24.846 -113.244 3.028 0.00
24.846 -112.252 3.046 0.00
24.846 -111.261 3.121 0.00
24.846 -110.270 3.107 16922.42
24.846 -109.279 3.145 13860.52
24.846 -108.288 3.133 68.63
24.846 -107.297 3.115 0.00
24.846 -106.306 3.048 5179.40
24.846 -105.315 2.962 104.88
24.846 -104.324 2.919 356.62
24.846 -103.333 2.935 378.60
24.846 -102.341 2.947 299.88
24.846 -101.350 2.979 318.76
24.846 -100.359 3.029 1687.29
24.846 -99.368 3.122 9210.17
24.846 -98.377 3.191 11951.07
24.846 -97.386 3.187 907.75
24.846 -96.395 3.112 4.07
24.846 -95.404 3.007 0.00
24.846 -94.413 2.927 254.10
24.846 -93.422 2.916 591.25
24.846 -92.431 2.958 218.81
24.846 -91.439 3.030 100.91
24.846 -90.448 3.085 288.39
24.846 -89.457 3.099 316.94
24.846 -88.466 3.077 211.83
24.846 -87.475 3.042 129.65
24.846 -86.484 3.003 178.35
24.846 -85.493 2.959 246.94
24.846 -84.502 2.917 348.27
24.846 -83.511 2.910 619.31
24.846 -82.520 2.941 706.21
24.846 -81.528 2.997 1490.54
24.846 -80.537 3.013 7103.70
24.846 -79.546 3.000 11837.76
24.846 -78.555 3.054 5907.91
24.846 -77.564 3.158 989.03
24.846 -76.573 3.325 483.55
24.846 -75.582 3.369 276.69
24.846 -74.591 3.217 63.43
24.846 -73.600 3.080 0.00
24.846 -72.609 3.053 0.00
24.846 -71.618 3.062 0.00
25.745 -127.325 3.066 0.00
25.745 -126.327 3.066 0.00
25.745 -125.329 3.065 0.00
25.745 -124.330 3.065 0.00
25.745 -123.332 3.065 0.00
25.745 -122.333 3.065 0.00
25.745 -121.335 3.065 0.00
25.745 -120.336 3.065 0.00
25.745 -119.338 3.065 0.00
25.745 -118.339 3.065 0.00
25.745 -117.341 3.065 0.00
25.745 -116.342 3.068 0.00
25.745 -115.344 3.070 0.00
25.745 -114.345 3.042 0.00
25.745 -113.347 3.023 0.00
25.745 -112.348 3.132 0.00
25.745 -111.350 3.230 0.00
25.745 -110.351 3.252 7490.75
25.745 -109.353 3.239 64698.05
25.745 -108.354 3.305 25937.21
25.745 -107.356 3.260 9889.50
25.745 -106.358 3.104 25609.40
25.745 -105.359 2.965 2649.86
25.745 -104.361 2.907 231.85
25.745 -103.362 2.915 376.03
25.745 -102.364 2.945 561.51
25.745 -101.365 3.002 2225.75
25.745 -100.367 3.102 7669.55
25.745 -99.368 3.158 10552.10
25.745 -98.370 3.188 3189.94
25.745 -97.371 3.124 378.30
25.745 -96.373 3.107 0.00
25.745 -95.374 3.023 53.97
25.745 -94.376 2.940 226.84
25.745 -93.377 2.914 573.70
25.745 -92.379 2.955 566.93
25.745 -91.380 3.005 342.06
25.745 -90.382 3.042 118.52
25.745 -89.383 3.050 138.69
25.745 -88.385 3.039 260.10
25.745 -87.387 3.003 340.96
25.745 -86.388 2.961 266.93
25.745 -85.390 2.949 494.20
25.745 -84.391 2.942 786.41
25.745 -83.393 2.970 514.64
25.745 -82.394 3.043 1533.47
25.745 -81.396 3.070 7661.50
25.745 -80.397 3.029 10397.24
25.745 -79.399 3.044 6460.32
25.745 -78.400 3.083 1420.58
25.745 -77.402 3.214 605.44
25.745 -76.403 3.322 163.84
25.745 -75.405 3.342 299.66
25.745 -74.406 3.169 20.49
25.745 -73.408 3.063 0.00
25.745 -72.409 3.053 0.00
25.745 -71.411 3.063 0.00
26.645 -127.542 3.066 0.00
26.645 -126.536 3.066 0.00
26.645 -125.530 3.065 0.00
26.645 -124.524 3.065 0.00
26.645 -123.517 3.065 0.00
26.645 -122.511 3.065 0.00
26.645 -121.505 3.065 0.00
26.645 -120.499 3.065 0.00
26.645 -119.492 3.065 0.00
26.645 -118.486 3.065 0.00
26.645 -117.480 3.067 0.00
26.645 -116.474 3.071 0.00
26.645 -115.468 3.058 0.00
26.645 -114.461 3.018 0.00
26.645 -113.455 3.052 0.00
26.645 -112.449 3.255 0.00
26.645 -111.443 3.421 3382.58
26.645 -110.437 3.491 27886.36
26.645 -109.430 3.404 34251.19
26.645 -108.424 3.398 26666.19
26.645 -107.418 3.318 33400.89
26.645 -106.412 3.128 31339.25
26.645 -105.405 3.001 8311.13
26.645 -104.399 2.928 3628.86
26.645 -103.393 2.968 1770.66
26.645 -102.387 2.996 2857.64
26.645 -101.381 3.028 6609.65
26.645 -100.374 3.057 8614.71
26.645 -99.368 3.052 5838.54
26.645 -98.362 2.893 788.10
26.645 -97.356 2.839 546.16
26.645 -96.350 2.970 263.16
26.645 -95.343 3.052 303.33
26.645 -94.337 2.990 243.17
26.645 -93.331 2.948 204.81
26.645 -92.325 2.966 311.25
26.645 -91.318 2.970 400.61
26.645 -90.312 2.953 322.13
26.645 -89.306 2.942 203.30
26.645 -88.300 2.949 246.51
26.645 -87.294 2.974 467.90
26.645 -86.287 2.997 801.33
26.645 -85.281 2.990 751.75
26.645 -84.275 2.998 326.28
26.645 -83.269 3.066 2021.93
26.645 -82.263 3.126 7781.79
26.645 -81.256 3.100 14504.96
26.645 -80.250 3.068 7007.53
26.645 -79.244 3.059 2034.95
26.645 -78.238 3.133 498.51
26.645 -77.231 3.237 417.62
26.645 -76.225 3.288 100.89
26.645 -75.219 3.308 300.66
26.645 -74.213 3.155 20.28
26.645 -73.207 3.062 0.00
26.645 -72.200 3.055 0.00
26.645 -71.194 3.065 0.00
27.544 -127.769 3.066 0.00
27.544 -126.755 3.066 0.00
27.544 -125.741 3.065 0.00
27.544 -124.726 3.065 0.00
27.544 -123.712 3.065 0.00
27.544 -122.698 3.065 0.00
27.544 -121.683 3.065 0.00
27.544 -120.669 3.065 0.00
27.544 -119.655 3.065 0.00
27.544 -118.640 3.066 0.00
27.544 -117.626 3.069 0.00
27.544 -116.612 3.064 0.00
27.544 -115.597 3.033 0.00
27.544 -114.583 3.019 0.00
27.544 -113.569 3.130 0.00
27.544 -112.554 3.420 304.31
27.544 -111.540 3.629 7596.48
27.544 -110.526 3.700 24843.77
27.544 -109.511 3.566 29538.31
27.544 -108.497 3.349 19748.36
27.544 -107.483 3.106 21028.41
27.544 -106.468 2.971 33827.10
27.544 -105.454 2.977 19519.25
27.544 -104.440 2.984 13649.59
27.544 -103.426 3.023 9938.54
27.544 -102.411 3.049 8030.28
27.544 -101.397 3.104 8325.12
27.544 -100.383 3.132 7608.48
27.544 -99.368 2.912 3040.10
27.544 -98.354 2.515 14133.97
27.544 -97.340 2.441 1620.49
27.544 -96.325 2.660 286.14
27.544 -95.311 2.948 312.90
27.544 -94.297 3.024 248.29
27.544 -93.282 2.971 151.48
27.544 -92.268 2.922 242.05
27.544 -91.254 2.907 435.22
27.544 -90.239 2.888 499.45
27.544 -89.225 2.893 619.34
27.544 -88.211 2.923 617.20
27.544 -87.196 2.940 615.65
27.544 -86.182 2.953 315.69
27.544 -85.168 2.970 352.21
27.544 -84.153 3.027 2780.80
27.544 -83.139 3.110 7539.77
27.544 -82.125 3.160 18775.07
27.544 -81.110 3.129 19262.33
27.544 -80.096 3.069 3123.89
27.544 -79.082 3.098 658.34
27.544 -78.067 3.192 505.54
27.544 -77.053 3.228 201.80
27.544 -76.039 3.245 42.95
27.544 -75.024 3.279 269.69
27.544 -74.010 3.148 20.49
27.544 -72.996 3.064 0.00
27.544 -71.981 3.057 0.00
27.544 -70.967 3.065 0.00
28.443 -128.007 3.066 0.00
28.443 -126.985 3.066 0.00
28.443 -125.962 3.065 0.00
28.443 -124.939 3.065 0.00
28.443 -123.916 3.065 0.00
28.443 -122.893 3.065 0.00
28.443 -121.870 3.065 0.00
28.443 -120.848 3.065 0.00
28.443 -119.825 3.066 0.00
28.443 -118.802 3.068 0.00
28.443 -117.779 3.067 0.00
28.443 -116.756 3.045 0.00
28.443 -115.733 3.027 0.00
28.443 -114.711 3.083 0.00
28.443 -113.688 3.258 0.00
28.443 -112.665 3.593 2355.52
28.443 -111.642 3.769 8188.81
28.443 -110.619 3.748 21646.02
28.443 -109.596 3.614 20875.48
28.443 -108.574 3.223 17514.20
28.443 -107.551 2.901 21193.63
28.443 -106.528 2.857 21993.55
28.443 -105.505 2.944 19765.94
28.443 -104.482 2.990 18868.43
28.443 -103.460 2.959 17623.01
28.443 -102.437 2.978 18156.37
28.443 -101.414 3.145 13184.15
28.443 -100.391 3.252 8313.40
28.443 -99.368 2.979 11854.87
28.443 -98.345 2.454 46140.96
28.443 -97.323 2.301 5825.79
28.443 -96.300 2.447 680.43
28.443 -95.277 2.737 151.37
28.443 -94.254 2.935 121.83
28.443 -93.231 2.945 317.25
28.443 -92.208 2.880 556.50
28.443 -91.186 2.870 505.45
28.443 -90.163 2.897 892.47
28.443 -89.140 2.889 816.43
28.443 -88.117 2.862 766.30
28.443 -87.094 2.867 280.15
28.443 -86.071 2.891 960.20
28.443 -85.049 2.922 3667.50
28.443 -84.026 2.969 7899.98
28.443 -83.003 3.054 18730.33
28.443 -81.980 3.133 29378.03
28.443 -80.957 3.072 22952.65
28.443 -79.934 3.033 1352.70
28.443 -78.912 3.130 348.66
28.443 -77.889 3.217 416.61
28.443 -76.866 3.204 100.89
28.443 -75.843 3.224 99.89
28.443 -74.820 3.256 205.84
28.443 -73.798 3.137 15.41
28.443 -72.775 3.065 0.00
28.443 -71.752 3.059 0.00
28.443 -70.729 3.065 0.00
29.343 -128.257 3.066 0.00
29.343 -127.225 3.066 0.00
29.343 -126.193 3.065 0.00
29.343 -125.161 3.065 0.00
29.343 -124.130 3.065 0.00
29.343 -123.098 3.065 0.00
29.343 -122.066 3.065 0.00
29.343 -121.034 3.065 0.00
29.343 -120.003 3.067 0.00
29.343 -118.971 3.068 0.00
29.343 -117.939 3.053 0.00
29.343 -116.908 3.028 0.00
29.343 -115.876 3.074 0.00
29.343 -114.844 3.219 0.00
29.343 -113.812 3.436 3665.38
29.343 -112.781 3.703 4611.87
29.343 -111.749 3.758 9087.12
29.343 -110.717 3.605 19385.71
29.343 -109.685 3.410 17470.36
29.343 -108.654 3.054 15714.23
29.343 -107.622 2.851 17187.76
29.343 -106.590 2.814 22847.67
29.343 -105.559 2.899 14320.30
29.343 -104.527 2.943 20004.13
29.343 -103.495 2.911 24036.94
29.343 -102.463 2.964 19036.20
29.343 -101.432 3.108 20023.05
29.343 -100.400 3.185 20324.05
29.343 -99.368 3.128 39130.64
29.343 -98.336 2.859 107851.12
29.343 -97.305 2.601 22886.65
29.343 -96.273 2.492 3779.79
29.343 -95.241 2.609 996.04
29.343 -94.210 2.776 611.29
29.343 -93.178 2.860 435.33
29.343 -92.146 2.826 499.00
29.343 -91.114 2.773 657.78
29.343 -90.083 2.791 1046.61
29.343 -89.051 2.827 494.58
29.343 -88.019 2.832 537.70
29.343 -86.987 2.841 1944.21
29.343 -85.956 2.871 4428.69
29.343 -84.924 2.875 9908.12
29.343 -83.892 2.927 20512.93
29.343 -82.861 3.078 29536.65
29.343 -81.829 3.130 19611.00
29.343 -80.797 3.036 12377.50
29.343 -79.765 3.029 2027.46
29.343 -78.734 3.160 432.60
29.343 -77.702 3.203 138.88
29.343 -76.670 3.186 91.90
29.343 -75.639 3.225 113.87
29.343 -74.607 3.233 206.07
29.343 -73.575 3.119 0.00
29.343 -72.543 3.063 0.00
29.343 -71.512 3.060 0.00
29.343 -70.480 3.065 0.00
30.242 -128.517 3.066 0.00
30.242 -127.476 3.066 0.00
30.242 -126.435 3.065 0.00
30.242 -125.394 3.065 0.00
30.242 -124.353 3.065 0.00
30.242 -123.312 3.065 0.00
30.242 -122.271 3.065 0.00
30.242 -121.230 3.066 0.00
30.242 -120.189 3.067 0.00
30.242 -119.148 3.059 0.00
30.242 -118.107 3.034 0.00
30.242 -117.066 3.047 0.00
30.242 -116.025 3.186 0.00
30.242 -114.984 3.398 941.82
30.242 -113.943 3.584 8912.48
30.242 -112.902 3.659 7969.11
30.242 -111.861 3.552 9491.50
30.242 -110.820 3.314 17049.48
30.242 -109.779 3.178 15697.12
30.242 -108.738 2.971 16683.69
30.242 -107.697 2.879 15523.35
30.242 -106.655 2.902 23583.03
30.242 -105.614 2.879 23277.24
30.242 -104.573 2.926 23896.34
30.242 -103.532 2.903 24697.31
30.242 -102.491 2.956 28473.06
30.242 -101.450 3.046 28675.59
30.242 -100.409 3.089 36232.87
30.242 -99.368 3.129 60685.51
30.242 -98.327 3.014 54885.44
30.242 -97.286 2.890 43753.93
30.242 -96.245 2.737 20741.12
30.242 -95.204 2.666 7454.79
30.242 -94.163 2.740 2537.38
30.242 -93.122 2.785 1869.06
30.242 -92.081 2.685 2352.46
30.242 -91.040 2.605 3225.89
30.242 -89.999 2.657 5243.67
30.242 -88.958 2.748 3045.10
30.242 -87.917 2.806 3842.29
30.242 -86.876 2.834 8104.29
30.242 -85.835 2.835 18690.18
30.242 -84.794 2.851 22357.83
30.242 -83.753 2.965 23744.22
30.242 -82.712 3.132 22454.49
30.242 -81.671 3.098 12043.85
30.242 -80.629 3.048 9157.53
30.242 -79.588 3.065 3351.59
30.242 -78.547 3.180 380.26
30.242 -77.506 3.184 126.49
30.242 -76.465 3.179 0.00
30.242 -75.424 3.247 241.72
30.242 -74.383 3.197 78.42
30.242 -73.342 3.094 0.00
30.242 -72.301 3.058 0.00
30.242 -71.260 3.062 0.00
30.242 -70.219 3.066 0.00
31.141 -128.790 3.066 0.00
31.141 -127.739 3.066 0.00
31.141 -126.689 3.065 0.00
31.141 -125.638 3.065 0.00
31.141 -124.587 3.065 0.00
31.141 -123.536 3.066 0.00
31.141 -122.485 3.066 0.00
31.141 -121.435 3.066 0.00
31.141 -120.384 3.062 0.00
31.141 -119.333 3.049 0.00
31.141 -118.282 3.046 0.00
31.141 -117.232 3.129 0.00
31.141 -116.181 3.344 184.08
31.141 -115.130 3.505 4325.27
31.141 -114.079 3.539 5689.49
31.141 -113.028 3.529 8896.09
31.141 -111.978 3.374 12238.36
31.141 -110.927 3.168 19604.77
31.141 -109.876 3.124 21555.05
31.141 -108.825 3.017 24493.79
31.141 -107.774 2.950 24871.66
31.141 -106.724 3.031 32366.98
31.141 -105.673 2.904 48109.83
31.141 -104.622 2.924 44357.78
31.141 -103.571 2.976 34246.22
31.141 -102.521 3.012 34358.23
31.141 -101.470 2.953 39961.43
31.141 -100.419 2.956 56031.19
31.141 -99.368 3.084 55204.58
31.141 -98.317 3.032 51998.62
31.141 -97.267 3.002 51190.77
31.141 -96.216 2.877 37419.13
31.141 -95.165 2.831 33806.96
31.141 -94.114 2.783 21068.20
31.141 -93.063 2.810 23674.83
31.141 -92.013 2.701 31120.65
31.141 -90.962 2.632 35647.16
31.141 -89.911 2.707 32243.46
31.141 -88.860 2.777 27698.57
31.141 -87.810 2.837 24484.66
31.141 -86.759 2.894 24491.02
31.141 -85.708 2.963 35916.00
31.141 -84.657 2.956 29874.10
31.141 -83.606 3.049 42644.69
31.141 -82.556 3.107 28620.23
31.141 -81.505 3.112 22896.25
31.141 -80.454 3.087 6586.40
31.141 -79.403 3.103 4879.89
31.141 -78.353 3.162 189.85
31.141 -77.302 3.156 102.89
31.141 -76.251 3.183 2.62
31.141 -75.200 3.264 301.99
31.141 -74.149 3.168 20.49
31.141 -73.099 3.073 0.00
31.141 -72.048 3.055 0.00
31.141 -70.997 3.063 0.00
31.141 -69.946 3.066 0.00
32.041 -129.076 3.066 0.00
32.041 -128.015 3.065 0.00
32.041 -126.954 3.065 0.00
32.041 -125.893 3.065 0.00
32.041 -124.832 3.066 0.00
32.041 -123.771 3.066 0.00
32.041 -122.710 3.065 0.00
32.041 -121.649 3.063 0.00
32.041 -120.588 3.062 0.00
32.041 -119.527 3.068 0.00
32.041 -118.466 3.098 0.00
32.041 -117.405 3.231 52.95
32.041 -116.344 3.422 2819.44
32.041 -115.283 3.443 37049.88
32.041 -114.222 3.294 31206.08
32.041 -113.161 3.332 31320.59
32.041 -112.100 3.281 34189.78
32.041 -111.039 3.127 43370.06
32.041 -109.978 3.148 41728.13
32.041 -108.917 3.040 39179.93
32.041 -107.856 3.010 39396.74
32.041 -106.795 3.104 40773.73
32.041 -105.734 3.036 38992.07
32.041 -104.673 2.903 42967.77
32.041 -103.612 2.979 42319.87
32.041 -102.551 3.008 32948.86
32.041 -101.490 2.992 39917.17
32.041 -100.429 2.969 62601.38
32.041 -99.368 2.970 53995.19
32.041 -98.307 2.986 56378.42
32.041 -97.246 3.101 50022.02
32.041 -96.185 2.985 43954.32
32.041 -95.124 2.884 41752.88
32.041 -94.063 2.832 66567.09
32.041 -93.002 2.926 43662.34
32.041 -91.941 2.890 45249.23
32.041 -90.880 2.847 47872.75
32.041 -89.819 2.901 44914.34
32.041 -88.758 2.931 35791.56
32.041 -87.697 2.958 28226.07
32.041 -86.636 3.043 27381.42
32.041 -85.575 3.139 37737.32
32.041 -84.515 3.137 41562.93
32.041 -83.454 3.134 41798.99
32.041 -82.393 3.108 30026.62
32.041 -81.332 3.103 28976.97
32.041 -80.271 3.090 9252.23
32.041 -79.210 3.111 5204.77
32.041 -78.149 3.130 382.73
32.041 -77.088 3.126 59.94
32.041 -76.027 3.188 98.88
32.041 -74.966 3.262 202.03
32.041 -73.905 3.151 22.90
32.041 -72.844 3.064 1.24
32.041 -71.783 3.056 0.00
32.041 -70.722 3.064 0.00
32.041 -69.661 3.066 0.00
32.940 -129.374 3.066 0.00
32.940 -128.302 3.065 0.00
32.940 -127.231 3.065 0.00
32.940 -126.159 3.066 0.00
32.940 -125.087 3.066 0.00
32.940 -124.016 3.065 0.00
32.940 -122.944 3.064 0.00
32.940 -121.873 3.068 0.00
32.940 -120.801 3.079 0.00
32.940 -119.729 3.086 406.93
32.940 -118.658 3.106 776.40
32.940 -117.586 3.224 1841.02
32.940 -116.514 3.396 12225.82
32.940 -115.443 3.521 131887.81
32.940 -114.371 3.348 134444.64
32.940 -113.299 3.256 87987.91
32.940 -112.228 3.276 70492.42
32.940 -111.156 3.172 68105.38
32.940 -110.085 3.144 56234.07
32.940 -109.013 3.045 52467.36
32.940 -107.941 2.956 52300.01
32.940 -106.870 3.007 47998.29
32.940 -105.798 3.069 45986.79
32.940 -104.726 3.001 45534.66
32.940 -103.655 2.972 58522.48
32.940 -102.583 3.029 53467.98
32.940 -101.511 3.072 63547.34
32.940 -100.440 3.005 82258.91
32.940 -99.368 2.955 82413.41
32.940 -98.297 2.920 85500.79
32.940 -97.225 3.011 80237.49
32.940 -96.153 2.947 67876.64
32.940 -95.082 2.893 63671.67
32.940 -94.010 2.881 64995.12
32.940 -92.938 2.952 51876.68
32.940 -91.867 2.973 48960.75
32.940 -90.795 2.937 47861.36
32.940 -89.723 2.968 45657.46
32.940 -88.652 2.977 45282.24
32.940 -87.580 2.954 40644.77
32.940 -86.509 3.060 36128.60
32.940 -85.437 3.182 46713.19
32.940 -84.365 3.213 41122.18
32.940 -83.294 3.139 38516.00
32.940 -82.222 3.105 41401.68
32.940 -81.150 3.112 25478.71
32.940 -80.079 3.115 19440.46
32.940 -79.007 3.109 10295.73
32.940 -77.935 3.106 774.40
32.940 -76.864 3.107 0.00
32.940 -75.792 3.193 99.88
32.940 -74.721 3.254 199.76
32.940 -73.649 3.139 20.49
32.940 -72.577 3.064 1.38
32.940 -71.506 3.059 2.62
32.940 -70.434 3.065 1.24
32.940 -69.362 3.066 0.00
33.839 -129.686 3.066 0.00
33.839 -128.603 3.066 0.00
33.839 -127.521 3.065 0.00
33.839 -126.438 3.065 0.00
33.839 -125.355 3.065 0.00
33.839 -124.272 3.065 0.00
33.839 -123.189 3.070 0.00
33.839 -122.107 3.080 0.00
33.839 -121.024 3.066 0.00
33.839 -119.941 3.043 528.87
33.839 -118.858 3.040 2294.13
33.839 -117.775 3.020 28817.47
33.839 -116.693 3.122 41527.62
33.839 -115.610 3.199 73113.17
33.839 -114.527 3.315 92926.04
33.839 -113.444 3.313 90064.84
33.839 -112.362 3.289 85406.53
33.839 -111.279 3.082 84052.66
33.839 -110.196 3.113 74715.85
33.839 -109.113 2.983 66788.06
33.839 -108.030 2.896 61984.50
33.839 -106.948 2.918 54988.27
33.839 -105.865 3.050 49445.47
33.839 -104.782 3.065 41869.30
33.839 -103.699 2.982 54802.04
33.839 -102.617 2.961 67623.46
33.839 -101.534 3.007 71078.85
33.839 -100.451 3.029 78669.17
33.839 -99.368 3.017 82298.98
33.839 -98.285 2.981 85832.42
33.839 -97.203 3.002 91402.85
33.839 -96.120 2.952 79516.23
33.839 -95.037 2.946 80630.20
33.839 -93.954 2.952 73213.10
33.839 -92.872 3.035 59156.97
33.839 -91.789 3.038 63369.08
33.839 -90.706 3.066 50513.30
33.839 -89.623 3.108 50159.19
33.839 -88.540 3.107 43594.98
33.839 -87.458 3.065 43428.50
33.839 -86.375 3.095 46863.96
33.839 -85.292 3.200 57208.26
33.839 -84.209 3.207 47942.68
33.839 -83.126 3.154 46018.93
33.839 -82.044 3.184 45519.05
33.839 -80.961 3.163 27382.64
33.839 -79.878 3.171 40673.12
33.839 -78.795 3.140 15829.96
33.839 -77.713 3.096 1543.19
33.839 -76.630 3.105 111.93
33.839 -75.547 3.206 119.86
33.839 -74.464 3.236 180.79
33.839 -73.381 3.124 20.49
33.839 -72.299 3.065 0.00
33.839 -71.216 3.061 0.00
33.839 -70.133 3.065 1.38
33.839 -69.050 3.066 2.64
34.739 -130.012 3.066 1.40
34.739 -128.918 3.066 0.00
34.739 -127.823 3.066 0.00
34.739 -126.729 3.065 0.00
34.739 -125.635 3.065 0.00
34.739 -124.540 3.069 0.00
34.739 -123.446 3.078 0.00
34.739 -122.351 3.055 0.00
34.739 -121.257 2.996 0.00
34.739 -120.162 2.980 730.61
34.739 -119.068 2.985 7169.19
34.739 -117.974 2.929 30348.00
34.739 -116.879 3.024 45944.48
34.739 -115.785 3.126 65681.81
34.739 -114.690 3.251 76067.48
34.739 -113.596 3.287 65939.91
34.739 -112.501 3.111 64399.00
34.739 -111.407 3.062 74604.40
34.739 -110.313 3.059 73933.16
34.739 -109.218 2.986 65740.77
34.739 -108.124 2.906 62913.68
34.739 -107.029 2.870 59738.66
34.739 -105.935 3.027 51506.13
34.739 -104.840 3.042 49012.44
34.739 -103.746 2.991 65139.37
34.739 -102.651 2.957 81146.30
34.739 -101.557 2.938 81719.31
34.739 -100.463 3.015 87863.85
34.739 -99.368 2.991 102653.47
34.739 -98.274 2.942 107963.32
34.739 -97.179 3.003 100132.46
34.739 -96.085 2.980 106071.08
34.739 -94.990 2.899 112214.43
34.739 -93.896 2.926 90470.74
34.739 -92.802 3.046 78844.75
34.739 -91.707 3.100 67171.84
34.739 -90.613 3.127 69529.61
34.739 -89.518 3.218 64200.08
34.739 -88.424 3.206 70848.60
34.739 -87.329 3.208 44447.32
34.739 -86.235 3.175 48950.25
34.739 -85.141 3.143 52310.55
34.739 -84.046 3.134 50156.07
34.739 -82.952 3.103 52033.67
34.739 -81.857 3.110 46109.38
34.739 -80.763 3.113 42393.18
34.739 -79.668 3.176 34301.27
34.739 -78.574 3.092 22409.13
34.739 -77.480 3.059 8110.44
34.739 -76.385 3.093 405.77
34.739 -75.291 3.218 223.74
34.739 -74.196 3.195 70.92
34.739 -73.102 3.099 20.49
34.739 -72.007 3.061 0.00
34.739 -70.913 3.062 0.00
34.739 -69.818 3.065 0.00
34.739 -68.724 3.066 0.00
35.638 -130.353 3.066 3.83
35.638 -129.247 3.066 1.75
35.638 -128.140 3.066 0.00
35.638 -127.034 3.065 0.00
35.638 -125.927 3.067 0.00
35.638 -124.820 3.072 0.00
35.638 -123.714 3.060 0.00
35.638 -122.607 2.995 0.00
35.638 -121.500 2.932 1409.07
35.638 -120.394 2.940 10733.96
35.638 -119.287 3.042 18085.68
35.638 -118.181 3.040 24794.68
35.638 -117.074 3.053 38637.18
35.638 -115.967 3.176 62540.81
35.638 -114.861 3.123 65372.78
35.638 -113.754 3.138 75630.30
35.638 -112.648 3.110 72093.29
35.638 -111.541 3.057 75437.98
35.638 -110.434 3.079 67302.80
35.638 -109.328 3.118 58996.11
35.638 -108.221 3.034 58993.18
35.638 -107.115 2.922 61074.95
35.638 -106.008 2.928 52180.05
35.638 -104.901 2.975 52474.41
35.638 -103.795 3.022 66809.03
35.638 -102.688 3.017 85798.33
35.638 -101.581 2.988 91360.76
35.638 -100.475 2.928 106341.03
35.638 -99.368 2.883 119799.31
35.638 -98.262 2.917 130076.69
35.638 -97.155 2.901 194295.02
35.638 -96.048 3.012 153828.17
35.638 -94.942 3.098 112213.27
35.638 -93.835 3.093 95778.57
35.638 -92.729 3.107 122078.37
35.638 -91.622 3.145 93486.95
35.638 -90.515 3.140 95864.72
35.638 -89.409 3.208 89090.86
35.638 -88.302 3.199 72754.88
35.638 -87.195 3.195 50071.82
35.638 -86.089 3.191 53762.34
35.638 -84.982 3.163 53637.11
35.638 -83.876 3.091 56571.94
35.638 -82.769 3.028 58650.55
35.638 -81.662 3.060 50494.31
35.638 -80.556 3.123 57484.30
35.638 -79.449 3.206 37610.10
35.638 -78.343 3.098 38269.57
35.638 -77.236 3.053 14134.34
35.638 -76.129 3.087 9674.93
35.638 -75.023 3.223 199.76
35.638 -73.916 3.160 5.68
35.638 -72.809 3.075 14.60
35.638 -71.703 3.056 0.00
35.638 -70.596 3.063 0.00
35.638 -69.490 3.066 0.00
35.638 -68.383 3.066 0.00
36.538 -130.710 3.066 0.00
36.538 -129.591 3.066 0.89
36.538 -128.471 3.066 2.64
36.538 -127.352 3.066 2.32
36.538 -126.233 3.068 0.00
36.538 -125.113 3.064 0.00
36.538 -123.994 3.041 0.00
36.538 -122.875 2.999 2.02
36.538 -121.755 2.997 2677.24
36.538 -120.636 3.095 41851.77
36.538 -119.516 3.209 50322.96
36.538 -118.397 3.125 53190.32
36.538 -117.278 3.012 62842.49
36.538 -116.158 3.085 75730.01
36.538 -115.039 3.043 77353.75
36.538 -113.920 3.049 90306.66
36.538 -112.800 3.157 77694.94
36.538 -111.681 3.110 66743.39
36.538 -110.562 3.068 60108.92
36.538 -109.442 3.165 54686.36
36.538 -108.323 3.131 56728.39
36.538 -107.204 3.051 58915.44
36.538 -106.084 2.962 57003.11
36.538 -104.965 2.995 60474.76
36.538 -103.846 3.031 77883.39
36.538 -102.726 2.979 97057.88
36.538 -101.607 2.939 107843.23
36.538 -100.488 2.948 112281.89
36.538 -99.368 2.944 127728.98
36.538 -98.249 2.988 126062.80
36.538 -97.130 2.981 128023.50
36.538 -96.010 3.019 148483.12
36.538 -94.891 3.107 137832.61
36.538 -93.771 3.056 134593.69
36.538 -92.652 3.075 123543.53
36.538 -91.533 3.167 104804.51
36.538 -90.413 3.184 112329.01
36.538 -89.294 3.233 103534.99
36.538 -88.175 3.215 76857.68
36.538 -87.055 3.149 56116.75
36.538 -85.936 3.135 48861.79
36.538 -84.817 3.101 58370.30
36.538 -83.697 3.113 61839.96
36.538 -82.578 3.105 59727.59
36.538 -81.459 3.124 58433.91
36.538 -80.339 3.139 48117.63
36.538 -79.220 3.210 46740.10
36.538 -78.101 3.124 35135.33
36.538 -76.981 3.046 22698.66
36.538 -75.862 3.107 1751.61
36.538 -74.743 3.229 204.77
36.538 -73.623 3.148 20.49
36.538 -72.504 3.069 0.00
36.538 -71.384 3.057 0.00
36.538 -70.265 3.064 0.00
36.538 -69.146 3.066 0.00
36.538 -68.026 3.066 0.00
37.437 -131.083 3.065 0.00
37.437 -129.950 3.066 0.00
37.437 -128.817 3.066 0.00
37.437 -127.685 3.066 0.30
37.437 -126.552 3.062 2.64
37.437 -125.419 3.054 2.64
37.437 -124.287 3.064 1.04
37.437 -123.154 3.086 5.89
37.437 -122.021 3.150 18073.58
37.437 -120.889 3.431 31615.54
37.437 -119.756 3.256 26153.86
37.437 -118.623 2.995 51310.33
37.437 -117.491 2.849 56731.68
37.437 -116.358 2.934 73852.28
37.437 -115.225 3.022 80816.27
37.437 -114.093 2.927 85991.92
37.437 -112.960 2.926 84915.35
37.437 -111.827 2.924 65550.03
37.437 -110.695 3.092 64588.41
37.437 -109.562 3.114 57736.90
37.437 -108.429 3.010 58154.98
37.437 -107.297 2.937 61981.35
37.437 -106.164 2.910 72866.55
37.437 -105.032 3.026 99974.52
37.437 -103.899 3.043 89739.25
37.437 -102.766 3.006 107587.52
37.437 -101.634 2.947 104794.78
37.437 -100.501 2.963 109144.49
37.437 -99.368 3.024 113957.52
37.437 -98.236 3.008 117252.77
37.437 -97.103 3.021 111042.34
37.437 -95.970 3.015 121105.48
37.437 -94.838 3.026 138610.12
37.437 -93.705 3.064 133088.69
37.437 -92.572 3.077 124224.17
37.437 -91.440 3.140 112935.88
37.437 -90.307 3.150 113345.04
37.437 -89.174 3.193 95345.44
37.437 -88.042 3.172 74021.55
37.437 -86.909 3.074 59718.49
37.437 -85.776 3.065 54703.18
37.437 -84.644 3.068 57110.95
37.437 -83.511 3.122 63333.12
37.437 -82.378 3.066 69297.85
37.437 -81.246 3.161 75684.02
37.437 -80.113 3.193 61927.67
37.437 -78.980 3.229 54698.63
37.437 -77.848 3.123 39041.57
37.437 -76.715 3.043 24238.58
37.437 -75.582 3.104 2444.20
37.437 -74.450 3.209 219.08
37.437 -73.317 3.132 20.49
37.437 -72.184 3.068 0.00
37.437 -71.052 3.061 0.00
37.437 -69.919 3.065 0.00
37.437 -68.786 3.066 0.00
37.437 -67.654 3.065 0.00
38.336 -131.472 3.065 0.00
38.336 -130.326 3.065 0.00
38.336 -129.179 3.066 0.00
38.336 -128.033 3.064 0.00
38.336 -126.886 3.063 0.00
38.336 -125.740 3.081 0.00
38.336 -124.593 3.127 8.66
38.336 -123.446 3.138 217.05
38.336 -122.300 3.195 10352.34
38.336 -121.153 3.486 28477.95
38.336 -120.007 3.302 28048.60
38.336 -118.860 2.988 54766.91
38.336 -117.713 2.787 64931.90
38.336 -116.567 2.820 70487.18
38.336 -115.420 3.006 70453.71
38.336 -114.274 2.916 83000.84
38.336 -113.127 2.917 86661.63
38.336 -111.981 2.835 81057.85
38.336 -110.834 2.995 69418.58
38.336 -109.687 3.117 57182.27
38.336 -108.541 2.957 57296.53
38.336 -107.394 2.872 64742.38
38.336 -106.248 2.914 65638.27
38.336 -105.101 2.976 47109.73
38.336 -103.955 3.003 46935.77
38.336 -102.808 3.033 66419.05
38.336 -101.661 3.001 68764.93
38.336 -100.515 3.005 79858.20
38.336 -99.368 3.009 90659.05
38.336 -98.222 3.046 102887.14
38.336 -97.075 3.061 94003.92
38.336 -95.928 3.062 97752.16
38.336 -94.782 3.058 104132.44
38.336 -93.635 3.077 116182.37
38.336 -92.489 3.099 114317.74
38.336 -91.342 3.128 128563.27
38.336 -90.196 3.137 109416.13
38.336 -89.049 3.149 97450.18
38.336 -87.902 3.143 77558.61
38.336 -86.756 3.030 66592.59
38.336 -85.609 3.025 62775.57
38.336 -84.463 3.082 63608.60
38.336 -83.316 3.111 67653.76
38.336 -82.170 3.058 79183.13
38.336 -81.023 3.086 79130.57
38.336 -79.876 3.220 81681.77
38.336 -78.730 3.281 75116.37
38.336 -77.583 3.151 43551.65
38.336 -76.437 3.058 18762.59
38.336 -75.290 3.113 5934.60
38.336 -74.143 3.169 279.22
38.336 -72.997 3.101 20.48
38.336 -71.850 3.060 0.00
38.336 -70.704 3.062 0.00
38.336 -69.557 3.066 0.00
38.336 -68.411 3.066 0.00
38.336 -67.264 3.065 0.00
39.236 -131.880 3.065 0.00
39.236 -130.719 3.065 0.00
39.236 -129.558 3.067 0.00
39.236 -128.397 3.068 0.00
39.236 -127.235 3.070 0.00
39.236 -126.074 3.073 5.71
39.236 -124.913 3.050 0.92
39.236 -123.752 2.957 691.60
39.236 -122.591 2.968 11573.20
39.236 -121.430 3.121 21388.74
39.236 -120.269 3.022 48257.99
39.236 -119.107 2.892 83828.70
39.236 -117.946 2.919 54743.05
39.236 -116.785 2.936 58787.12
39.236 -115.624 3.049 67650.21
39.236 -114.463 3.027 70081.70
39.236 -113.302 3.106 75695.28
39.236 -112.141 3.009 80435.95
39.236 -110.980 2.963 71651.23
39.236 -109.818 3.012 61186.91
39.236 -108.657 2.986 64962.62
39.236 -107.496 2.905 68752.75
39.236 -106.335 2.859 63738.19
39.236 -105.174 2.898 47756.75
39.236 -104.013 2.971 40149.23
39.236 -102.852 3.040 46380.14
39.236 -101.690 3.072 47370.21
39.236 -100.529 3.051 53402.42
39.236 -99.368 3.009 69494.12
39.236 -98.207 3.032 69312.27
39.236 -97.046 3.070 80835.63
39.236 -95.885 3.075 74305.65
39.236 -94.724 3.084 82496.35
39.236 -93.563 3.089 104036.75
39.236 -92.401 3.127 95618.12
39.236 -91.240 3.183 100876.94
39.236 -90.079 3.144 82853.16
39.236 -88.918 3.060 87243.72
39.236 -87.757 3.095 80252.34
39.236 -86.596 3.022 58783.93
39.236 -85.435 3.022 60924.73
39.236 -84.273 3.091 71536.16
39.236 -83.112 3.151 67973.41
39.236 -81.951 3.124 76458.95
39.236 -80.790 3.060 67664.62
39.236 -79.629 3.159 58084.49
39.236 -78.468 3.210 44263.05
39.236 -77.307 3.136 30040.46
39.236 -76.145 3.118 21710.83
39.236 -74.984 3.149 9531.91
39.236 -73.823 3.137 347.26
39.236 -72.662 3.080 20.48
39.236 -71.501 3.051 0.00
39.236 -70.340 3.058 0.00
39.236 -69.179 3.065 0.00
39.236 -68.018 3.066 0.00
39.236 -66.856 3.066 0.00
40.135 -132.306 3.066 0.00
40.135 -131.130 3.067 0.00
40.135 -129.954 3.069 0.00
40.135 -128.777 3.057 0.00
40.135 -127.601 3.034 4.48
40.135 -126.424 3.032 2.24
40.135 -125.248 2.989 0.00
40.135 -124.072 2.714 9154.57
40.135 -122.895 2.579 29494.21
40.135 -121.719 2.808 29288.24
40.135 -120.543 2.983 58185.22
40.135 -119.366 3.051 72164.83
40.135 -118.190 3.124 53816.85
40.135 -117.014 3.102 59961.14
40.135 -115.837 3.090 66501.42
40.135 -114.661 3.196 81812.89
40.135 -113.484 3.372 80252.02
40.135 -112.308 3.115 81090.48
40.135 -111.132 2.935 70535.24
40.135 -109.955 2.897 63052.46
40.135 -108.779 2.962 69771.36
40.135 -107.603 2.963 64725.97
40.135 -106.426 2.954 51470.07
40.135 -105.250 2.885 44354.07
40.135 -104.074 2.841 37483.74
40.135 -102.897 2.904 36586.46
40.135 -101.721 3.010 39583.09
40.135 -100.545 3.039 42414.27
40.135 -99.368 3.020 53387.97
40.135 -98.192 3.019 60500.54
40.135 -97.015 2.998 71332.98
40.135 -95.839 3.046 79890.64
40.135 -94.663 3.037 80589.10
40.135 -93.486 3.049 83424.97
40.135 -92.310 3.106 82529.29
40.135 -91.134 3.105 70584.34
40.135 -89.957 3.066 56161.89
40.135 -88.781 3.055 47282.17
40.135 -87.605 3.093 56775.23
40.135 -86.428 3.031 50767.32
40.135 -85.252 3.051 71528.53
40.135 -84.076 3.100 78607.48
40.135 -82.899 3.153 62522.88
40.135 -81.723 3.123 74600.93
40.135 -80.546 3.035 62481.94
40.135 -79.370 3.069 55271.45
40.135 -78.194 3.133 42902.45
40.135 -77.017 3.118 45321.46
40.135 -75.841 3.127 23366.49
40.135 -74.665 3.160 17232.58
40.135 -73.488 3.112 3512.88
40.135 -72.312 3.088 20.48
40.135 -71.136 3.059 0.00
40.135 -69.959 3.056 0.00
40.135 -68.783 3.061 0.00
40.135 -67.607 3.065 0.00
40.135 -66.430 3.066 0.00
41.034 -132.752 3.069 0.00
41.034 -131.560 3.069 0.00
41.034 -130.368 3.054 0.00
41.034 -129.175 3.021 3.34
41.034 -127.983 3.053 3.52
41.034 -126.791 3.239 0.00
41.034 -125.598 3.345 230.97
41.034 -124.406 2.917 50313.21
41.034 -123.214 2.609 41663.60
41.034 -122.022 2.808 38241.28
41.034 -120.829 2.941 38541.18
41.034 -119.637 2.975 50345.36
41.034 -118.445 2.994 53650.66
41.034 -117.252 3.029 47988.65
41.034 -116.060 3.026 51422.77
41.034 -114.868 3.163 109982.83
41.034 -113.676 3.411 77931.04
41.034 -112.483 3.212 74111.13
41.034 -111.291 2.932 70927.09
41.034 -110.099 2.797 81163.25
41.034 -108.906 2.838 61093.78
41.034 -107.714 2.939 54088.08
41.034 -106.522 3.061 41825.50
41.034 -105.330 3.010 37146.53
41.034 -104.137 2.849 33920.27
41.034 -102.945 2.864 29941.42
41.034 -101.753 2.989 32509.66
41.034 -100.560 3.018 40905.91
41.034 -99.368 2.964 50353.96
41.034 -98.176 2.997 58985.33
41.034 -96.984 3.034 73316.18
41.034 -95.791 3.038 78529.84
41.034 -94.599 3.030 78510.67
41.034 -93.407 3.054 78122.19
41.034 -92.215 3.092 70582.77
41.034 -91.022 3.095 56997.13
41.034 -89.830 3.103 56679.00
41.034 -88.638 3.092 46516.39
41.034 -87.445 3.128 44714.94
41.034 -86.253 3.067 47003.03
41.034 -85.061 3.074 67148.51
41.034 -83.869 3.142 56286.71
41.034 -82.676 3.170 55313.20
41.034 -81.484 3.111 50664.38
41.034 -80.292 3.123 54151.93
41.034 -79.099 3.118 53094.26
41.034 -77.907 3.148 49354.87
41.034 -76.715 3.099 46411.23
41.034 -75.523 3.098 44436.33
41.034 -74.330 3.116 27086.63
41.034 -73.138 3.131 18287.73
41.034 -71.946 3.142 1851.91
41.034 -70.753 3.109 896.69
41.034 -69.561 3.067 0.00
41.034 -68.369 3.056 0.00
41.034 -67.177 3.062 0.00
41.034 -65.984 3.067 0.00
41.934 -133.219 3.069 0.00
41.934 -132.010 3.062 0.00
41.934 -130.801 3.028 2.37
41.934 -129.592 3.033 4.62
41.934 -128.383 3.220 0.00
41.934 -127.174 3.766 76.92
41.934 -125.965 4.310 948.80
41.934 -124.756 3.667 15487.85
41.934 -123.547 2.901 21870.96
41.934 -122.338 2.806 22771.13
41.934 -121.129 2.925 27943.75
41.934 -119.920 2.958 40618.99
41.934 -118.711 2.967 44907.54
41.934 -117.502 3.042 51405.79
41.934 -116.293 3.021 59161.29
41.934 -115.085 3.012 70475.27
41.934 -113.876 3.238 66949.34
41.934 -112.667 3.311 64703.78
41.934 -111.458 2.990 86044.09
41.934 -110.249 2.801 81316.20
41.934 -109.040 2.837 64482.83
41.934 -107.831 2.872 48843.31
41.934 -106.622 3.070 41259.55
41.934 -105.413 3.093 34986.04
41.934 -104.204 2.928 29652.01
41.934 -102.995 2.886 27247.42
41.934 -101.786 2.930 29704.30
41.934 -100.577 2.965 37183.13
41.934 -99.368 2.989 53638.09
41.934 -98.159 3.068 56276.82
41.934 -96.950 3.105 70481.23
41.934 -95.741 2.980 78005.62
41.934 -94.532 3.003 73678.74
41.934 -93.323 3.051 68075.56
41.934 -92.115 3.091 56131.64
41.934 -90.906 3.083 67039.33
41.934 -89.697 3.075 49460.12
41.934 -88.488 3.127 49678.61
41.934 -87.279 3.186 52223.89
41.934 -86.070 3.179 52582.15
41.934 -84.861 3.119 52764.52
41.934 -83.652 3.142 45279.02
41.934 -82.443 3.142 48294.22
41.934 -81.234 3.132 48941.11
41.934 -80.025 3.145 50574.53
41.934 -78.816 3.089 54915.67
41.934 -77.607 3.052 48472.55
41.934 -76.398 3.098 43035.50
41.934 -75.189 3.178 37489.29
41.934 -73.980 3.196 32158.18
41.934 -72.771 3.230 22021.29
41.934 -71.562 3.246 13783.90
41.934 -70.353 3.200 10306.33
41.934 -69.145 3.118 144.24
41.934 -67.936 3.059 0.00
41.934 -66.727 3.055 0.00
41.934 -65.518 3.065 0.00
42.833 -133.707 3.055 0.00
42.833 -132.481 3.045 1.58
42.833 -131.254 3.039 5.58
42.833 -130.028 3.128 0.00
42.833 -128.802 3.446 7.99
42.833 -127.575 4.152 305.70
42.833 -126.349 4.664 8813.62
42.833 -125.122 3.788 9338.48
42.833 -123.896 3.123 9004.43
42.833 -122.670 2.905 15343.67
42.833 -121.443 2.920 19305.49
42.833 -120.217 2.943 25897.29
42.833 -118.990 2.942 36148.88
42.833 -117.764 3.089 46340.71
42.833 -116.538 3.171 55955.68
42.833 -115.311 3.055 54331.35
42.833 -114.085 3.167 61851.93
42.833 -112.858 3.222 57525.49
42.833 -111.632 3.034 65274.83
42.833 -110.406 2.828 65612.62
42.833 -109.179 2.870 57876.99
42.833 -107.953 2.862 46374.15
42.833 -106.727 2.979 41302.02
42.833 -105.500 3.089 35968.48
42.833 -104.274 3.124 33038.97
42.833 -103.047 3.109 31413.53
42.833 -101.821 3.034 33347.79
42.833 -100.595 2.993 36788.85
42.833 -99.368 3.030 45531.17
42.833 -98.142 3.108 64830.07
42.833 -96.915 3.114 67555.95
42.833 -95.689 3.085 71088.34
42.833 -94.463 2.989 68227.31
42.833 -93.236 2.966 58998.77
42.833 -92.010 3.046 48809.65
42.833 -90.783 3.086 66564.33
42.833 -89.557 3.092 50757.52
42.833 -88.331 3.102 48711.84
42.833 -87.104 3.101 59371.61
42.833 -85.878 3.073 51227.09
42.833 -84.652 3.038 50945.01
42.833 -83.425 3.079 50484.16
42.833 -82.199 3.084 43406.37
42.833 -80.972 3.109 50855.00
42.833 -79.746 3.131 49705.87
42.833 -78.520 3.105 52152.55
42.833 -77.293 3.118 53678.58
42.833 -76.067 3.176 48120.18
42.833 -74.840 3.230 41970.96
42.833 -73.614 3.280 41164.12
42.833 -72.388 3.377 39497.62
42.833 -71.161 3.382 15189.28
42.833 -69.935 3.300 3210.40
42.833 -68.708 3.192 294.58
42.833 -67.482 3.092 0.00
42.833 -66.256 3.057 0.00
42.833 -65.029 3.054 0.00
43.732 -134.219 3.034 1.01
43.732 -132.974 3.036 6.33
43.732 -131.729 3.121 0.00
43.732 -130.485 3.303 0.00
43.732 -129.240 3.558 283.72
43.732 -127.995 3.687 243.23
43.732 -126.751 3.487 28326.08
43.732 -125.506 3.086 13212.18
43.732 -124.261 2.942 14042.83
43.732 -123.017 2.913 18375.18
43.732 -121.772 2.925 21375.64
43.732 -120.527 2.875 25504.87
43.732 -119.283 2.898 33586.43
43.732 -118.038 3.103 38304.73
43.732 -116.793 3.193 47613.68
43.732 -115.549 3.045 44055.04
43.732 -114.304 3.016 49779.12
43.732 -113.059 3.093 46116.29
43.732 -111.815 3.043 45018.58
43.732 -110.570 2.867 54525.74
43.732 -109.325 2.932 44397.17
43.732 -108.081 2.901 41283.93
43.732 -106.836 2.906 37872.50
43.732 -105.591 2.981 33541.06
43.732 -104.347 3.103 30229.11
43.732 -103.102 3.187 27595.04
43.732 -101.858 3.092 27091.68
43.732 -100.613 3.063 33315.43
43.732 -99.368 3.096 46436.90
43.732 -98.124 3.133 58622.27
43.732 -96.879 3.131 76591.66
43.732 -95.634 3.196 71240.92
43.732 -94.390 3.118 67542.50
43.732 -93.145 3.013 58833.07
43.732 -91.900 3.117 42853.79
43.732 -90.656 3.090 56730.28
43.732 -89.411 3.060 50526.33
43.732 -88.166 3.116 46332.61
43.732 -86.922 3.104 46234.59
43.732 -85.677 3.119 75961.58
43.732 -84.432 3.114 51505.46
43.732 -83.188 3.126 45923.09
43.732 -81.943 3.182 41317.91
43.732 -80.698 3.163 54385.40
43.732 -79.454 3.130 56333.04
43.732 -78.209 3.094 55539.61
43.732 -76.964 3.173 58184.82
43.732 -75.720 3.249 53954.26
43.732 -74.475 3.310 56045.78
43.732 -73.230 3.308 44395.80
43.732 -71.986 3.339 36809.43
43.732 -70.741 3.355 36239.50
43.732 -69.496 3.259 10465.96
43.732 -68.252 3.201 1434.33
43.732 -67.007 3.108 115.89
43.732 -65.763 3.063 0.00
43.732 -64.518 3.049 0.00
44.632 -134.754 3.043 7.56
44.632 -133.490 3.066 0.00
44.632 -132.227 3.277 0.00
44.632 -130.963 3.523 215.79
44.632 -129.699 3.562 247.91
44.632 -128.435 3.331 178.69
44.632 -127.172 3.026 1570.32
44.632 -125.908 2.834 9181.18
44.632 -124.644 2.808 11936.88
44.632 -123.380 2.807 19259.75
44.632 -122.116 2.867 19081.96
44.632 -120.853 2.866 20755.33
44.632 -119.589 2.892 24108.53
44.632 -118.325 3.009 33003.47
44.632 -117.061 3.094 38440.21
44.632 -115.797 3.031 36822.09
44.632 -114.534 3.031 41819.49
44.632 -113.270 3.057 49212.12
44.632 -112.006 3.040 43106.76
44.632 -110.742 2.889 43822.58
44.632 -109.479 3.023 35936.93
44.632 -108.215 3.063 28374.41
44.632 -106.951 2.934 27425.92
44.632 -105.687 2.881 23661.46
44.632 -104.423 2.939 21347.52
44.632 -103.160 3.055 23428.39
44.632 -101.896 3.063 27642.41
44.632 -100.632 3.067 29612.12
44.632 -99.368 3.076 34950.60
44.632 -98.104 3.218 51851.89
44.632 -96.841 3.216 68875.97
44.632 -95.577 3.234 64138.32
44.632 -94.313 3.145 60802.71
44.632 -93.049 3.025 52194.73
44.632 -91.785 3.162 44305.00
44.632 -90.522 3.173 45989.06
44.632 -89.258 3.121 48762.95
44.632 -87.994 3.148 42497.16
44.632 -86.730 3.122 41428.77
44.632 -85.467 3.102 48115.10
44.632 -84.203 3.083 52067.46
44.632 -82.939 3.148 29678.76
44.632 -81.675 3.261 27093.09
44.632 -80.411 3.252 31590.92
44.632 -79.148 3.106 41209.21
44.632 -77.884 2.973 56373.19
44.632 -76.620 3.111 56139.31
44.632 -75.356 3.233 51449.60
44.632 -74.092 3.209 50395.30
44.632 -72.829 3.228 37946.98
44.632 -71.565 3.178 26761.92
44.632 -70.301 3.127 25258.73
44.632 -69.037 3.140 15273.49
44.632 -67.773 3.155 15101.52
44.632 -66.510 3.102 185.91
44.632 -65.246 3.053 303.80
44.632 -63.982 3.052 291.97
45.531 -135.316 3.131 7.12
45.531 -134.032 3.182 0.00
45.531 -132.748 3.442 153.51
45.531 -131.464 3.565 272.64
45.531 -130.180 3.430 115.04
45.531 -128.897 3.326 117.90
45.531 -127.613 3.437 421.57
45.531 -126.329 3.606 1594.70
45.531 -125.045 3.452 3973.53
45.531 -123.761 3.025 10974.35
45.531 -122.477 2.906 16805.47
45.531 -121.193 2.975 19964.27
45.531 -119.910 2.991 24847.41
45.531 -118.626 2.990 33996.70
45.531 -117.342 2.958 34767.62
45.531 -116.058 2.916 30722.39
45.531 -114.774 2.956 31201.74
45.531 -113.490 2.998 35758.31
45.531 -112.207 3.035 49881.97
45.531 -110.923 2.989 28508.79
45.531 -109.639 3.072 21268.75
45.531 -108.355 3.108 21169.25
45.531 -107.071 2.985 23580.17
45.531 -105.787 2.921 22036.83
45.531 -104.504 2.976 16621.39
45.531 -103.220 3.026 16410.35
45.531 -101.936 3.083 23234.66
45.531 -100.652 3.077 25851.71
45.531 -99.368 3.067 36342.52
45.531 -98.084 3.169 50585.86
45.531 -96.801 3.165 57148.43
45.531 -95.517 3.131 59700.10
45.531 -94.233 3.118 49835.79
45.531 -92.949 3.044 41605.49
45.531 -91.665 3.097 47792.73
45.531 -90.381 3.167 33935.90
45.531 -89.097 3.200 40649.18
45.531 -87.814 3.159 37224.16
45.531 -86.530 3.153 37678.74
45.531 -85.246 3.135 33501.23
45.531 -83.962 3.148 33388.85
45.531 -82.678 3.198 41598.51
45.531 -81.394 3.242 26594.50
45.531 -80.111 3.273 27396.26
45.531 -78.827 3.205 29064.31
45.531 -77.543 2.984 36781.58
45.531 -76.259 3.004 50470.11
45.531 -74.975 3.271 30575.05
45.531 -73.691 3.255 32133.28
45.531 -72.408 3.211 27275.42
45.531 -71.124 3.186 22063.17
45.531 -69.840 3.133 20192.10
45.531 -68.556 3.106 10746.02
45.531 -67.272 3.120 1778.67
45.531 -65.988 3.100 873.43
45.531 -64.705 3.055 437.77
45.531 -63.421 3.097 217.14
46.431 -135.904 3.310 252.09
46.431 -134.600 3.383 121.06
46.431 -133.295 3.500 290.21
46.431 -131.990 3.390 152.86
46.431 -130.685 3.265 0.00
46.431 -129.380 3.487 223.79
46.431 -128.075 4.258 497.73
46.431 -126.770 4.907 1563.15
46.431 -125.466 4.448 2876.56
46.431 -124.161 3.382 5072.73
46.431 -122.856 3.047 12712.29
46.431 -121.551 3.026 20498.46
46.431 -120.246 3.081 27105.80
46.431 -118.941 3.143 32525.06
46.431 -117.636 3.142 26441.41
46.431 -116.331 3.035 22550.19
46.431 -115.027 2.988 28194.26
46.431 -113.722 2.947 32470.00
46.431 -112.417 2.949 25922.22
46.431 -111.112 2.909 18679.87
46.431 -109.807 2.958 15528.51
46.431 -108.502 3.071 17133.20
46.431 -107.197 3.129 19038.12
46.431 -105.893 3.046 24355.41
46.431 -104.588 3.070 15470.09
46.431 -103.283 3.004 16847.07
46.431 -101.978 3.019 23667.28
46.431 -100.673 3.076 25711.54
46.431 -99.368 3.113 28638.40
46.431 -98.063 3.200 34991.20
46.431 -96.758 3.197 45725.78
46.431 -95.454 3.180 48144.97
46.431 -94.149 3.179 36285.54
46.431 -92.844 3.096 31756.20
46.431 -91.539 3.033 25857.38
46.431 -90.234 3.069 18497.14
46.431 -88.929 3.169 16295.85
46.431 -87.624 3.188 16427.43
46.431 -86.320 3.132 25366.83
46.431 -85.015 3.124 25445.10
46.431 -83.710 3.126 21842.08
46.431 -82.405 3.158 22645.76
46.431 -81.100 3.204 18014.42
46.431 -79.795 3.206 27315.29
46.431 -78.490 3.142 27886.42
46.431 -77.185 3.090 28617.88
46.431 -75.881 3.104 26379.31
46.431 -74.576 3.207 21452.07
46.431 -73.271 3.196 27326.56
46.431 -71.966 3.109 25555.01
46.431 -70.661 3.094 18937.99
46.431 -69.356 3.106 12001.87
46.431 -68.051 3.109 12949.95
46.431 -66.747 3.144 483.83
46.431 -65.442 3.109 612.72
46.431 -64.137 3.060 193.47
46.431 -62.832 3.169 105.88
47.330 -136.522 3.536 211.45
47.330 -135.195 3.561 328.10
47.330 -133.868 3.429 144.86
47.330 -132.541 3.268 10.99
47.330 -131.214 3.332 0.00
47.330 -129.887 3.832 302.70
47.330 -128.561 4.936 1005.53
47.330 -127.234 5.373 2164.64
47.330 -125.907 4.738 2191.59
47.330 -124.580 3.510 4398.81
47.330 -123.253 3.034 12688.16
47.330 -121.926 2.956 18285.39
47.330 -120.599 3.204 21602.11
47.330 -119.272 3.382 20664.35
47.330 -117.945 3.293 20182.27
47.330 -116.618 3.052 20968.68
47.330 -115.291 2.951 21818.17
47.330 -113.964 2.949 19222.29
47.330 -112.637 3.010 17800.15
47.330 -111.311 2.936 14426.45
47.330 -109.984 2.943 13724.02
47.330 -108.657 3.114 12888.64
47.330 -107.330 3.211 14947.55
47.330 -106.003 3.075 16778.56
47.330 -104.676 3.051 16697.36
47.330 -103.349 3.005 14983.73
47.330 -102.022 3.008 21443.40
47.330 -100.695 3.115 25209.98
47.330 -99.368 3.171 26187.60
47.330 -98.041 3.238 37321.34
47.330 -96.714 3.225 37766.51
47.330 -95.387 3.181 33423.64
47.330 -94.061 3.160 29924.04
47.330 -92.734 3.145 23171.74
47.330 -91.407 3.078 13576.18
47.330 -90.080 3.048 13913.60
47.330 -88.753 3.120 11558.21
47.330 -87.426 3.127 8642.82
