47.330 -117.945 3.538 19814.92
47.330 -116.618 3.415 21534.17
47.330 -115.291 3.314 22281.31
47.330 -113.964 3.256 18960.38
47.330 -112.637 3.263 17627.12
47.330 -111.311 3.132 13605.39
47.330 -109.984 3.092 12914.67
47.330 -108.657 3.158 13454.97
47.330 -107.330 3.163 15958.41
47.330 -106.003 3.066 16801.59
47.330 -104.676 3.014 16841.71
47.330 -103.349 3.219 15174.93
47.330 -102.022 3.350 18985.03
47.330 -100.695 3.263 21631.80
47.330 -99.368 3.265 20342.14
47.330 -98.041 3.358 29729.06
47.330 -96.714 3.381 31090.18
47.330 -95.387 3.274 26571.23
47.330 -94.061 3.232 23113.64
47.330 -92.734 3.214 17120.08
47.330 -91.407 3.261 12192.36
47.330 -90.080 3.280 12781.53
47.330 -88.753 3.267 11776.13
47.330 -87.426 3.373 8163.96
47.330 -86.099 3.476 5362.92
47.330 -84.772 3.573 4536.54
47.330 -83.445 3.598 4663.58
47.330 -82.118 3.558 5473.88
47.330 -80.791 3.530 6520.19
47.330 -79.464 3.515 7461.18
47.330 -78.137 3.468 6690.85
47.330 -76.811 3.406 9129.52
47.330 -75.484 3.389 7310.28
47.330 -74.157 3.417 6106.88
47.330 -72.830 3.418 5248.29
47.330 -71.503 3.386 5180.34
47.330 -70.176 3.349 5978.10
47.330 -68.849 3.292 684.65
47.330 -67.522 3.270 482.72
47.330 -66.195 3.294 724.39
47.330 -64.868 3.298 536.32
47.330 -63.541 3.302 202.57
47.330 -62.214 3.441 261.62
48.229 -137.170 3.852 398.79
48.229 -135.820 3.833 104.61
48.229 -134.470 3.796 122.52
48.229 -133.120 3.791 241.41
48.229 -131.770 3.887 192.37
48.229 -130.420 4.240 734.81
48.229 -129.070 4.750 1359.07
48.229 -127.720 4.669 3182.91
48.229 -126.370 4.255 3107.39
48.229 -125.020 3.626 7465.51
48.229 -123.670 3.217 17262.19
48.229 -122.320 3.161 17301.01
48.229 -120.969 3.457 18411.87
48.229 -119.619 3.597 13851.98
48.229 -118.269 3.514 15632.33
48.229 -116.919 3.298 18734.11
48.229 -115.569 3.127 14884.54
48.229 -114.219 3.150 13341.86
48.229 -112.869 3.234 13798.13
48.229 -111.519 3.244 9641.47
48.229 -110.169 3.280 10832.99
48.229 -108.819 3.238 9848.04
48.229 -107.469 3.163 13367.48
48.229 -106.119 3.064 11317.56
48.229 -104.769 2.948 17994.28
48.229 -103.418 3.082 13117.68
48.229 -102.068 3.364 16880.89
48.229 -100.718 3.249 16287.66
48.229 -99.368 3.215 18254.08
48.229 -98.018 3.257 16128.47
48.229 -96.668 3.287 18586.70
48.229 -95.318 3.339 20174.38
48.229 -93.968 3.383 13078.30
48.229 -92.618 3.351 6012.08
48.229 -91.268 3.329 5484.11
48.229 -89.918 3.367 3674.98
48.229 -88.568 3.381 4986.72
48.229 -87.217 3.438 3732.35
48.229 -85.867 3.461 3180.50
48.229 -84.517 3.499 2534.46
48.229 -83.167 3.445 2708.95
48.229 -81.817 3.364 3735.24
48.229 -80.467 3.376 3673.19
48.229 -79.117 3.458 4036.24
48.229 -77.767 3.522 3989.09
48.229 -76.417 3.461 3322.69
48.229 -75.067 3.419 2087.53
48.229 -73.717 3.398 2195.63
48.229 -72.367 3.315 1343.07
48.229 -71.017 3.277 884.88
48.229 -69.666 3.284 250.73
48.229 -68.316 3.266 82.90
48.229 -66.966 3.235 395.44
48.229 -65.616 3.247 355.67
48.229 -64.266 3.287 396.68
48.229 -62.916 3.380 493.17
48.229 -61.566 3.651 499.09
49.129 -137.851 4.274 628.37
49.129 -136.477 4.227 167.83
49.129 -135.103 3.958 302.70
49.129 -133.728 3.835 405.59
49.129 -132.354 3.955 672.32
49.129 -130.979 4.441 958.98
49.129 -129.605 4.613 1049.73
49.129 -128.231 4.250 3386.70
49.129 -126.856 3.857 4620.29
49.129 -125.482 3.527 15830.88
49.129 -124.107 3.278 18740.73
49.129 -122.733 3.232 14088.92
49.129 -121.359 3.476 12713.10
49.129 -119.984 3.520 12982.06
49.129 -118.610 3.343 11738.09
49.129 -117.235 3.123 10919.59
49.129 -115.861 3.067 9074.50
49.129 -114.487 3.065 8427.18
49.129 -113.112 3.175 9844.85
49.129 -111.738 3.283 8153.64
49.129 -110.363 3.284 7708.00
49.129 -108.989 3.249 8079.69
49.129 -107.615 3.152 8988.81
49.129 -106.240 3.076 10981.12
49.129 -104.866 2.911 12257.53
49.129 -103.491 2.938 13768.75
49.129 -102.117 3.257 11074.01
49.129 -100.743 3.260 11608.63
49.129 -99.368 3.266 10206.24
49.129 -97.994 3.333 9480.09
49.129 -96.619 3.402 9319.48
49.129 -95.245 3.511 6939.58
49.129 -93.871 3.523 2523.49
49.129 -92.496 3.429 2635.12
49.129 -91.122 3.325 3178.07
49.129 -89.747 3.363 3732.96
49.129 -88.373 3.403 3638.55
49.129 -86.999 3.374 3669.73
49.129 -85.624 3.273 3163.54
49.129 -84.250 3.250 2916.91
49.129 -82.875 3.249 3618.77
49.129 -81.501 3.258 2407.24
49.129 -80.127 3.312 3511.66
49.129 -78.752 3.356 2699.57
49.129 -77.378 3.359 1935.76
49.129 -76.003 3.338 1590.08
49.129 -74.629 3.326 1375.18
49.129 -73.255 3.329 1167.76
49.129 -71.880 3.256 835.17
49.129 -70.506 3.230 457.76
49.129 -69.131 3.230 335.62
49.129 -67.757 3.214 414.48
49.129 -66.383 3.212 247.33
49.129 -65.008 3.267 155.14
49.129 -63.634 3.377 95.17
49.129 -62.259 3.574 143.61
49.129 -60.885 3.981 471.48
50.028 -138.567 4.607 833.07
50.028 -137.167 4.508 998.45
50.028 -135.767 3.934 574.42
50.028 -134.367 3.766 526.44
50.028 -132.967 4.053 311.70
50.028 -131.567 4.503 703.24
50.028 -130.167 4.216 1504.27
50.028 -128.767 3.768 4333.99
50.028 -127.368 3.539 16097.67
50.028 -125.968 3.386 20133.13
50.028 -124.568 3.223 16544.45
50.028 -123.168 3.245 13648.59
50.028 -121.768 3.432 14006.23
50.028 -120.368 3.446 11116.82
50.028 -118.968 3.284 9331.11
50.028 -117.568 3.115 10143.43
50.028 -116.168 3.044 8499.06
50.028 -114.768 3.015 7783.65
50.028 -113.368 3.117 7234.25
50.028 -111.968 3.208 7651.27
50.028 -110.568 3.172 6087.75
50.028 -109.168 3.165 8313.05
50.028 -107.768 3.108 7883.54
50.028 -106.368 3.066 9815.10
50.028 -104.968 3.016 9724.33
50.028 -103.568 2.989 13711.59
50.028 -102.168 3.260 9318.79
50.028 -100.768 3.489 8404.21
50.028 -99.368 3.545 6960.04
50.028 -97.968 3.569 6152.95
50.028 -96.568 3.607 8757.48
50.028 -95.168 3.645 3393.76
50.028 -93.768 3.561 2779.67
50.028 -92.368 3.396 2164.73
50.028 -90.968 3.235 3594.60
50.028 -89.568 3.247 3124.05
50.028 -88.168 3.288 2908.08
50.028 -86.769 3.280 2688.32
50.028 -85.369 3.215 2390.05
50.028 -83.969 3.205 2523.73
50.028 -82.569 3.255 2693.71
50.028 -81.169 3.287 3181.24
50.028 -79.769 3.304 2230.01
50.028 -78.369 3.322 1474.99
50.028 -76.969 3.319 1852.48
50.028 -75.569 3.303 1726.84
50.028 -74.169 3.320 1280.52
50.028 -72.769 3.322 641.07
50.028 -71.369 3.264 353.37
50.028 -69.969 3.231 330.10
50.028 -68.569 3.228 274.49
50.028 -67.169 3.254 471.49
50.028 -65.769 3.347 87.65
50.028 -64.369 3.482 132.54
50.028 -62.969 3.658 163.84
50.028 -61.569 3.876 525.50
50.028 -60.169 4.143 175.31
50.927 -139.320 4.455 962.51
50.927 -137.893 4.330 821.60
50.927 -136.466 3.807 350.64
50.927 -135.040 3.774 2.00
50.927 -133.613 4.127 677.30
50.927 -132.186 4.262 460.51
50.927 -130.759 3.807 2454.01
50.927 -129.332 3.522 20412.06
50.927 -127.905 3.458 26651.50
50.927 -126.478 3.328 17759.78
50.927 -125.052 3.208 17808.44
50.927 -123.625 3.290 14013.66
50.927 -122.198 3.437 11732.50
50.927 -120.771 3.425 9839.22
50.927 -119.344 3.241 9505.95
50.927 -117.917 3.062 9980.26
50.927 -116.490 2.999 7197.32
50.927 -115.064 2.991 7108.37
50.927 -113.637 3.052 6595.87
50.927 -112.210 3.087 6956.29
50.927 -110.783 3.069 5896.88
50.927 -109.356 3.163 6616.75
50.927 -107.929 3.290 7374.85
50.927 -106.502 3.341 9681.86
50.927 -105.076 3.457 10828.64
50.927 -103.649 3.289 12501.04
50.927 -102.222 3.382 10570.84
50.927 -100.795 3.737 7228.17
50.927 -99.368 3.713 5485.54
50.927 -97.941 3.625 5252.76
50.927 -96.514 3.555 3512.08
50.927 -95.088 3.442 3052.52
50.927 -93.661 3.348 2481.10
50.927 -92.234 3.223 2957.39
50.927 -90.807 3.191 3348.53
50.927 -89.380 3.294 2273.21
50.927 -87.953 3.381 2427.95
50.927 -86.526 3.407 2826.32
50.927 -85.100 3.403 2477.82
50.927 -83.673 3.445 1566.94
50.927 -82.246 3.430 2897.07
50.927 -80.819 3.351 2833.12
50.927 -79.392 3.319 1172.81
50.927 -77.965 3.337 1816.14
50.927 -76.538 3.358 1193.85
50.927 -75.112 3.366 1529.32
50.927 -73.685 3.386 1027.03
50.927 -72.258 3.381 469.02
50.927 -70.831 3.341 550.62
50.927 -69.404 3.303 354.21
50.927 -67.977 3.339 439.69
50.927 -66.550 3.470 200.28
50.927 -65.124 3.669 259.76
50.927 -63.697 3.861 306.71
50.927 -62.270 3.947 506.29
50.927 -60.843 3.948 341.01
50.927 -59.416 4.046 682.41
51.827 -140.113 4.132 1063.82
51.827 -138.658 4.044 218.79
51.827 -137.203 3.727 21.97
51.827 -135.747 3.810 155.82
51.827 -134.292 4.150 838.16
51.827 -132.837 4.115 671.30
51.827 -131.382 3.723 29986.91
51.827 -129.927 3.660 42314.79
51.827 -128.472 3.531 21969.61
51.827 -127.016 3.405 16536.47
51.827 -125.561 3.412 13581.74
51.827 -124.106 3.359 11739.82
51.827 -122.651 3.352 9530.49
51.827 -121.196 3.369 6940.67
51.827 -119.741 3.309 7238.83
51.827 -118.285 3.166 6241.37
51.827 -116.830 3.109 5127.97
51.827 -115.375 3.106 4404.60
51.827 -113.920 3.202 5115.78
51.827 -112.465 3.192 6335.95
51.827 -111.010 3.177 6432.43
51.827 -109.554 3.342 7111.94
51.827 -108.099 3.584 7771.47
51.827 -106.644 3.684 10867.74
51.827 -105.189 3.689 12075.01
51.827 -103.734 3.380 10789.47
51.827 -102.279 3.289 11618.59
51.827 -100.823 3.592 6772.44
51.827 -99.368 3.543 4443.64
51.827 -97.913 3.362 4767.28
51.827 -96.458 3.213 2278.21
51.827 -95.003 3.189 3101.79
51.827 -93.548 3.219 2728.08
51.827 -92.092 3.201 2211.45
51.827 -90.637 3.268 2842.71
51.827 -89.182 3.426 2468.27
51.827 -87.727 3.583 2873.10
51.827 -86.272 3.668 2670.08
51.827 -84.817 3.650 2061.28
51.827 -83.361 3.603 2446.61
51.827 -81.906 3.549 2332.04
51.827 -80.451 3.459 1464.45
51.827 -78.996 3.415 2008.04
51.827 -77.541 3.442 1930.57
51.827 -76.085 3.476 1400.97
51.827 -74.630 3.513 1118.72
51.827 -73.175 3.521 999.32
51.827 -71.720 3.531 604.57
51.827 -70.265 3.548 823.60
51.827 -68.810 3.544 383.05
51.827 -67.354 3.599 200.79
51.827 -65.899 3.759 200.53
51.827 -64.444 3.924 664.77
51.827 -62.989 3.962 700.41
51.827 -61.534 3.906 519.98
51.827 -60.079 3.873 640.31
51.827 -58.623 3.894 361.66
52.726 -140.948 3.944 432.60
52.726 -139.463 3.874 91.89
52.726 -137.978 3.742 135.84
52.726 -136.493 3.933 702.30
52.726 -135.008 4.171 610.43
52.726 -133.523 4.073 825.11
52.726 -132.038 3.791 4740.74
52.726 -130.553 3.679 8344.32
52.726 -129.068 3.580 7115.36
52.726 -127.583 3.526 6742.60
52.726 -126.098 3.564 6768.06
52.726 -124.613 3.413 8070.32
52.726 -123.128 3.426 5522.19
52.726 -121.643 3.488 5262.64
52.726 -120.158 3.468 5933.88
52.726 -118.673 3.343 5844.24
52.726 -117.188 3.306 4947.56
52.726 -115.703 3.347 4779.05
52.726 -114.218 3.419 4343.02
52.726 -112.733 3.327 8264.98
52.726 -111.248 3.182 7300.68
52.726 -109.763 3.273 7153.48
52.726 -108.278 3.423 9047.97
52.726 -106.793 3.508 11638.84
52.726 -105.308 3.316 11394.76
52.726 -103.823 3.142 11044.36
52.726 -102.338 3.016 10398.79
52.726 -100.853 3.263 7991.47
52.726 -99.368 3.415 4551.17
52.726 -97.883 3.267 3524.85
52.726 -96.398 3.150 2097.69
52.726 -94.913 3.155 2954.42
52.726 -93.428 3.270 1898.62
52.726 -91.943 3.325 2393.76
52.726 -90.458 3.375 2648.82
52.726 -88.973 3.480 2061.02
52.726 -87.488 3.609 2453.24
52.726 -86.003 3.650 2793.43
52.726 -84.518 3.560 2268.35
52.726 -83.033 3.507 2060.98
52.726 -81.548 3.498 1135.70
52.726 -80.063 3.499 1866.24
52.726 -78.578 3.517 2408.68
52.726 -77.093 3.517 1533.22
52.726 -75.608 3.513 1478.08
52.726 -74.123 3.558 1472.44
52.726 -72.638 3.563 840.20
52.726 -71.153 3.641 1049.46
52.726 -69.668 3.780 830.31
52.726 -68.183 3.821 590.28
52.726 -66.698 3.862 561.85
52.726 -65.213 3.922 847.88
52.726 -63.728 3.899 533.50
52.726 -62.243 3.842 482.49
52.726 -60.758 3.813 413.59
52.726 -59.273 3.801 36.97
52.726 -57.788 3.822 332.70
53.625 -141.829 3.816 586.42
53.625 -140.313 3.795 174.83
53.625 -138.796 3.810 382.65
53.625 -137.280 3.981 780.21
53.625 -135.763 4.065 195.80
53.625 -134.247 4.070 1128.10
53.625 -132.730 4.017 1797.59
53.625 -131.214 3.872 2639.68
53.625 -129.697 3.700 3616.30
53.625 -128.181 3.529 3959.73
53.625 -126.665 3.501 4430.22
53.625 -125.148 3.377 5510.81
53.625 -123.632 3.394 3568.09
53.625 -122.115 3.419 4237.16
53.625 -120.599 3.278 4856.83
53.625 -119.082 3.146 4301.72
53.625 -117.566 3.126 4472.13
53.625 -116.049 3.210 4227.09
53.625 -114.533 3.246 5175.75
53.625 -113.016 3.138 6288.08
53.625 -111.500 3.030 7675.42
53.625 -109.983 3.053 8644.95
53.625 -108.467 3.183 10597.09
53.625 -106.951 3.222 12149.67
53.625 -105.434 3.120 10780.17
53.625 -103.918 3.076 8923.75
53.625 -102.401 3.026 8282.96
53.625 -100.885 3.196 8899.94
53.625 -99.368 3.525 4658.21
53.625 -97.852 3.447 3032.98
53.625 -96.335 3.328 2169.18
53.625 -94.819 3.310 2230.91
53.625 -93.302 3.386 1974.59
53.625 -91.786 3.411 2058.72
53.625 -90.269 3.417 1803.15
53.625 -88.753 3.446 2371.74
53.625 -87.237 3.466 2800.86
53.625 -85.720 3.419 2428.89
53.625 -84.204 3.321 1614.36
53.625 -82.687 3.346 1391.59
53.625 -81.171 3.384 1159.78
53.625 -79.654 3.428 2317.59
53.625 -78.138 3.462 1723.27
53.625 -76.621 3.467 1396.03
53.625 -75.105 3.473 1420.60
53.625 -73.588 3.512 1794.82
53.625 -72.072 3.537 1063.08
53.625 -70.555 3.680 1123.87
53.625 -69.039 3.900 796.68
53.625 -67.523 3.985 1027.89
53.625 -66.006 3.931 681.37
53.625 -64.490 3.823 441.59
53.625 -62.973 3.754 354.09
53.625 -61.457 3.723 245.54
53.625 -59.940 3.713 110.90
53.625 -58.424 3.730 435.59
53.625 -56.907 3.722 265.72
54.525 -142.759 3.742 258.74
54.525 -141.209 3.747 317.70
54.525 -139.660 3.843 452.53
54.525 -138.110 3.900 317.70
54.525 -136.560 3.881 444.51
54.525 -135.011 3.975 1148.18
54.525 -133.461 4.094 1460.99
54.525 -131.911 3.849 2561.59
54.525 -130.362 3.691 3082.40
54.525 -128.812 3.455 4055.43
54.525 -127.262 3.430 4300.28
54.525 -125.713 3.314 4397.12
54.525 -124.163 3.336 3874.65
54.525 -122.613 3.286 4269.32
54.525 -121.064 3.104 4027.54
54.525 -119.514 3.004 3627.84
54.525 -117.964 3.063 3839.51
54.525 -116.415 3.220 4585.45
54.525 -114.865 3.209 5458.54
54.525 -113.315 3.150 5836.45
54.525 -111.766 3.178 8445.46
54.525 -110.216 3.086 10244.20
54.525 -108.666 3.139 11843.27
54.525 -107.117 3.180 12363.93
54.525 -105.567 3.206 8845.22
54.525 -104.017 3.182 7206.07
54.525 -102.468 3.141 7673.71
54.525 -100.918 3.161 7190.73
54.525 -99.368 3.502 5481.94
54.525 -97.819 3.603 2700.80
54.525 -96.269 3.581 2230.25
54.525 -94.719 3.507 2267.47
54.525 -93.170 3.478 2052.95
54.525 -91.620 3.447 1495.86
54.525 -90.070 3.370 2499.47
54.525 -88.520 3.318 2359.67
54.525 -86.971 3.328 2579.25
54.525 -85.421 3.297 1532.34
54.525 -83.871 3.252 1409.55
54.525 -82.322 3.280 1073.88
54.525 -80.772 3.288 1371.59
54.525 -79.222 3.315 2297.66
54.525 -77.673 3.369 1244.99
54.525 -76.123 3.408 979.61
54.525 -74.573 3.418 1423.05
54.525 -73.024 3.438 1203.34
54.525 -71.474 3.457 855.05
54.525 -69.924 3.577 875.96
54.525 -68.375 3.723 1439.87
54.525 -66.825 3.754 1052.16
54.525 -65.275 3.706 259.81
54.525 -63.726 3.630 257.48
54.525 -62.176 3.568 121.87
54.525 -60.626 3.611 124.86
54.525 -59.077 3.701 416.58
54.525 -57.527 3.685 186.80
54.525 -55.977 3.648 112.89
55.424 -143.742 3.683 495.54
55.424 -142.157 3.684 39.96
55.424 -140.572 3.782 564.41
55.424 -138.988 3.815 179.83
55.424 -137.403 3.838 609.32
55.424 -135.818 3.955 1492.28
55.424 -134.233 4.019 983.35
55.424 -132.648 3.730 2966.78
55.424 -131.064 3.637 2838.50
55.424 -129.479 3.450 3880.07
55.424 -127.894 3.378 3679.41
55.424 -126.309 3.240 3944.30
55.424 -124.725 3.271 4807.65
55.424 -123.140 3.177 3712.60
55.424 -121.555 3.052 4661.93
55.424 -119.970 3.026 4632.42
55.424 -118.385 3.162 5132.28
55.424 -116.801 3.305 4611.45
55.424 -115.216 3.288 5633.53
55.424 -113.631 3.323 6846.43
55.424 -112.046 3.391 10021.68
55.424 -110.462 3.240 12968.67
55.424 -108.877 3.056 12158.72
55.424 -107.292 3.163 10337.75
55.424 -105.707 3.288 7851.23
55.424 -104.123 3.266 5624.35
55.424 -102.538 3.184 5032.97
55.424 -100.953 3.087 6346.53
55.424 -99.368 3.406 8044.93
55.424 -97.783 3.697 2225.16
55.424 -96.199 3.747 2578.40
55.424 -94.614 3.634 1464.51
55.424 -93.029 3.498 2102.32
55.424 -91.444 3.431 1609.40
55.424 -89.860 3.297 2473.54
55.424 -88.275 3.210 1839.28
55.424 -86.690 3.266 2427.48
55.424 -85.105 3.275 1297.67
55.424 -83.520 3.268 1708.21
55.424 -81.936 3.262 904.07
55.424 -80.351 3.232 2146.09
55.424 -78.766 3.280 1720.22
55.424 -77.181 3.340 1151.96
55.424 -75.597 3.339 770.83
55.424 -74.012 3.348 1319.08
55.424 -72.427 3.341 685.61
55.424 -70.842 3.318 653.01
55.424 -69.257 3.351 799.12
55.424 -67.673 3.412 1093.93
55.424 -66.088 3.450 525.74
55.424 -64.503 3.448 423.77
55.424 -62.918 3.414 224.74
55.424 -61.334 3.442 142.44
55.424 -59.749 3.562 248.76
55.424 -58.164 3.645 117.89
55.424 -56.579 3.600 348.67
55.424 -54.995 3.563 293.73
56.324 -144.782 3.658 49.95
56.324 -143.160 3.675 453.52
56.324 -141.538 3.721 169.82
56.324 -139.916 3.787 423.57
56.324 -138.294 3.900 1128.81
56.324 -136.672 3.961 1216.91
56.324 -135.050 3.888 984.57
56.324 -133.428 3.645 2393.82
56.324 -131.806 3.607 3484.12
56.324 -130.184 3.471 3887.57
56.324 -128.563 3.299 2847.32
56.324 -126.941 3.167 3330.42
56.324 -125.319 3.169 5798.86
56.324 -123.697 3.116 4770.22
56.324 -122.075 3.100 4983.85
56.324 -120.453 3.162 3973.47
56.324 -118.831 3.298 5088.27
56.324 -117.209 3.398 4538.97
56.324 -115.587 3.318 5795.43
56.324 -113.965 3.308 9151.63
56.324 -112.343 3.298 12742.80
56.324 -110.722 3.185 14503.12
56.324 -109.100 3.022 10402.83
56.324 -107.478 3.077 8506.30
56.324 -105.856 3.315 4756.51
56.324 -104.234 3.378 5537.06
56.324 -102.612 3.242 5642.84
56.324 -100.990 3.140 6319.03
56.324 -99.368 3.367 6014.70
56.324 -97.746 3.627 4320.63
56.324 -96.124 3.651 1794.91
56.324 -94.502 3.591 1812.06
56.324 -92.881 3.521 3034.53
56.324 -91.259 3.451 1572.42
56.324 -89.637 3.269 1575.42
56.324 -88.015 3.179 1786.84
56.324 -86.393 3.252 1960.83
56.324 -84.771 3.242 1132.96
56.324 -83.149 3.235 1464.73
56.324 -81.527 3.214 1417.79
56.324 -79.905 3.199 2044.71
56.324 -78.283 3.280 1260.03
56.324 -76.661 3.347 728.88
56.324 -75.040 3.311 1070.51
56.324 -73.418 3.327 1421.43
56.324 -71.796 3.307 533.43
56.324 -70.174 3.292 644.31
56.324 -68.552 3.309 665.72
56.324 -66.930 3.315 596.58
56.324 -65.308 3.283 455.07
56.324 -63.686 3.275 369.64
56.324 -62.064 3.289 118.90
56.324 -60.442 3.330 93.92
56.324 -58.820 3.418 74.93
56.324 -57.199 3.465 481.56
56.324 -55.577 3.408 61.94
56.324 -53.955 3.450 0.00
57.223 -145.883 3.706 144.85
57.223 -144.222 3.735 501.47
57.223 -142.561 3.738 22.97
57.223 -140.899 3.810 770.20
57.223 -139.238 3.959 1378.44
57.223 -137.577 3.931 1016.42
57.223 -135.916 3.751 1431.54
57.223 -134.254 3.546 1928.35
57.223 -132.593 3.513 3484.45
57.223 -130.932 3.400 3382.18
57.223 -129.271 3.229 3112.56
57.223 -127.609 3.127 3462.00
57.223 -125.948 3.112 5892.27
57.223 -124.287 3.087 5574.57
57.223 -122.626 3.106 3970.33
57.223 -120.964 3.232 3168.62
57.223 -119.303 3.409 4057.87
57.223 -117.642 3.435 4355.69
57.223 -115.981 3.315 6943.95
57.223 -114.319 3.286 11747.40
57.223 -112.658 3.236 15522.96
57.223 -110.997 3.194 13813.96
57.223 -109.336 3.130 9224.11
57.223 -107.674 3.111 6128.12
57.223 -106.013 3.341 5216.73
57.223 -104.352 3.504 4715.53
57.223 -102.691 3.320 5917.87
57.223 -101.029 3.182 4351.55
57.223 -99.368 3.184 4331.49
57.223 -97.707 3.440 6635.99
57.223 -96.046 3.453 3032.77
57.223 -94.384 3.444 2415.35
57.223 -92.723 3.494 2542.07
57.223 -91.062 3.505 1367.72
57.223 -89.401 3.333 1735.99
57.223 -87.739 3.209 1561.36
57.223 -86.078 3.239 1451.75
57.223 -84.417 3.209 1771.43
57.223 -82.756 3.208 1493.49
57.223 -81.094 3.203 1847.12
57.223 -79.433 3.202 1594.80
57.223 -77.772 3.291 1005.92
57.223 -76.111 3.351 932.02
57.223 -74.449 3.303 1068.92
57.223 -72.788 3.306 866.07
57.223 -71.127 3.296 581.43
57.223 -69.466 3.309 166.88
57.223 -67.805 3.327 524.51
57.223 -66.143 3.304 283.03
57.223 -64.482 3.249 135.61
57.223 -62.821 3.226 180.26
57.223 -61.160 3.231 285.74
57.223 -59.498 3.248 373.66
57.223 -57.837 3.269 100.92
57.223 -56.176 3.262 135.72
57.223 -54.515 3.233 427.72
57.223 -52.853 3.368 15.99
58.122 -147.051 3.801 590.38
58.122 -145.348 3.823 84.91
58.122 -143.645 3.819 339.65
58.122 -141.942 3.885 1186.76
58.122 -140.239 3.973 1037.83
58.122 -138.537 3.843 1326.64
58.122 -136.834 3.597 882.89
58.122 -135.131 3.400 2457.54
58.122 -133.428 3.374 4074.49
58.122 -131.725 3.345 3386.97
58.122 -130.022 3.247 4522.82
58.122 -128.319 3.170 3344.48
58.122 -126.616 3.133 5234.50
58.122 -124.913 3.098 5590.39
58.122 -123.210 3.129 3662.88
58.122 -121.507 3.261 4297.59
58.122 -119.804 3.430 3766.54
58.122 -118.101 3.425 5942.32
58.122 -116.398 3.414 9735.65
58.122 -114.695 3.412 16770.25
58.122 -112.992 3.371 15322.54
58.122 -111.289 3.419 11667.94
58.122 -109.586 3.373 6147.61
58.122 -107.883 3.308 5606.39
58.122 -106.180 3.295 4664.46
58.122 -104.477 3.403 4123.40
58.122 -102.774 3.304 4507.38
58.122 -101.071 3.148 4478.25
58.122 -99.368 3.065 4541.19
58.122 -97.665 3.326 6789.49
58.122 -95.962 3.333 4557.46
58.122 -94.259 3.316 3197.15
58.122 -92.556 3.434 2018.00
58.122 -90.853 3.555 1770.09
58.122 -89.150 3.401 1478.42
58.122 -87.447 3.247 1752.72
58.122 -85.744 3.260 1835.69
58.122 -84.041 3.242 1976.00
58.122 -82.339 3.236 1593.40
58.122 -80.636 3.240 1063.38
58.122 -78.933 3.229 1147.79
58.122 -77.230 3.305 707.27
58.122 -75.527 3.341 1305.68
58.122 -73.824 3.301 1319.58
58.122 -72.121 3.287 489.55
58.122 -70.418 3.274 304.59
58.122 -68.715 3.282 153.84
58.122 -67.012 3.309 445.57
58.122 -65.309 3.284 144.86
58.122 -63.606 3.255 176.82
58.122 -61.903 3.263 27.28
58.122 -60.200 3.265 161.61
58.122 -58.497 3.242 129.55
58.122 -56.794 3.218 284.73
58.122 -55.091 3.182 239.78
58.122 -53.388 3.173 140.89
58.122 -51.685 3.320 498.67
59.022 -148.292 3.778 836.17
59.022 -146.545 3.820 109.77
59.022 -144.798 3.851 1051.91
59.022 -143.050 3.937 1044.88
59.022 -141.303 3.902 1180.24
59.022 -139.556 3.720 968.02
59.022 -137.808 3.493 972.33
59.022 -136.061 3.375 4259.98
59.022 -134.314 3.414 5989.54
59.022 -132.567 3.486 3660.48
59.022 -130.819 3.454 3723.29
59.022 -129.072 3.350 3044.32
59.022 -127.325 3.300 5546.62
59.022 -125.577 3.254 6229.32
59.022 -123.830 3.239 4337.70
59.022 -122.083 3.330 3757.60
59.022 -120.336 3.500 3693.13
59.022 -118.588 3.508 8175.20
59.022 -116.841 3.582 16735.96
59.022 -115.094 3.544 18651.73
59.022 -113.346 3.614 12960.47
59.022 -111.599 3.607 7540.75
59.022 -109.852 3.467 4973.28
59.022 -108.105 3.291 5342.59
59.022 -106.357 3.172 2919.49
59.022 -104.610 3.188 3878.20
59.022 -102.863 3.298 4038.76
59.022 -101.115 3.230 4498.29
59.022 -99.368 3.137 5103.40
59.022 -97.621 3.255 3830.87
59.022 -95.874 3.349 6127.97
59.022 -94.126 3.337 3131.88
59.022 -92.379 3.420 1166.82
59.022 -90.632 3.496 1324.61
59.022 -88.884 3.381 1079.90
59.022 -87.137 3.291 2154.71
59.022 -85.390 3.364 1819.59
59.022 -83.643 3.346 1974.00
59.022 -81.895 3.313 1480.14
59.022 -80.148 3.269 712.24
59.022 -78.401 3.242 1238.72
59.022 -76.654 3.305 1095.89
59.022 -74.906 3.342 1007.97
59.022 -73.159 3.314 1145.44
59.022 -71.412 3.287 475.52
59.022 -69.664 3.269 69.04
59.022 -67.917 3.273 369.64
59.022 -66.170 3.277 229.63
59.022 -64.423 3.268 104.89
59.022 -62.675 3.278 11.99
59.022 -60.928 3.299 117.90
59.022 -59.181 3.293 96.91
59.022 -57.433 3.263 6.19
59.022 -55.686 3.228 83.79
59.022 -53.939 3.209 138.89
59.022 -52.192 3.211 224.79
59.022 -50.444 3.313 236.78
59.921 -149.612 3.556 1419.76
59.921 -147.818 3.610 461.57
59.921 -146.023 3.717 873.64
59.921 -144.229 3.814 1351.59
59.921 -142.434 3.758 1173.02
59.921 -140.640 3.566 517.37
59.921 -138.845 3.409 1870.64
59.921 -137.051 3.517 2197.50
59.921 -135.257 3.702 3783.50
59.921 -133.462 3.859 3559.81
59.921 -131.668 3.811 2800.55
59.921 -129.873 3.640 3488.60
59.921 -128.079 3.544 5050.87
59.921 -126.284 3.427 6874.33
59.921 -124.490 3.370 5674.69
59.921 -122.696 3.387 3451.73
59.921 -120.901 3.441 5350.97
59.921 -119.107 3.443 14458.52
59.921 -117.312 3.384 21925.76
59.921 -115.518 3.448 14333.24
59.921 -113.724 3.520 7495.01
59.921 -111.929 3.534 6425.18
59.921 -110.135 3.390 5184.42
59.921 -108.340 3.228 3538.70
59.921 -106.546 3.129 3199.12
59.921 -104.751 3.114 4861.78
59.921 -102.957 3.258 4491.50
59.921 -101.163 3.321 4174.60
59.921 -99.368 3.274 4061.68
59.921 -97.574 3.245 4709.69
59.921 -95.779 3.461 5900.56
59.921 -93.985 3.362 2607.85
59.921 -92.191 3.368 1022.16
59.921 -90.396 3.383 1187.80
59.921 -88.602 3.308 1140.86
59.921 -86.807 3.309 1903.30
59.921 -85.013 3.436 2075.93
59.921 -83.218 3.444 2321.63
59.921 -81.424 3.404 1331.02
59.921 -79.630 3.309 1135.81
59.921 -77.835 3.275 1149.87
59.921 -76.041 3.313 737.27
59.921 -74.246 3.334 1404.04
59.921 -72.452 3.314 612.04
59.921 -70.657 3.297 329.63
59.921 -68.863 3.272 172.82
59.921 -67.069 3.276 344.67
59.921 -65.274 3.270 120.88
59.921 -63.480 3.272 64.93
59.921 -61.685 3.293 35.97
59.921 -59.891 3.300 65.95
59.921 -58.097 3.282 14.99
59.921 -56.302 3.261 75.93
59.921 -54.508 3.250 21.98
59.921 -52.713 3.251 25.83
59.921 -50.919 3.267 120.76
59.921 -49.124 3.325 301.52
60.820 -151.018 3.357 715.35
60.820 -149.173 3.364 1904.72
60.820 -147.329 3.481 1375.37
60.820 -145.484 3.560 2323.07
60.820 -143.639 3.532 1387.38
60.820 -141.795 3.350 486.99
60.820 -139.950 3.291 1824.75
60.820 -138.106 3.446 1453.91
60.820 -136.261 3.550 2886.98
60.820 -134.416 3.715 3923.78
60.820 -132.572 3.622 2516.11
60.820 -130.727 3.426 3102.72
60.820 -128.882 3.375 4042.82
60.820 -127.038 3.313 7708.01
60.820 -125.193 3.279 4906.70
60.820 -123.348 3.259 3809.54
60.820 -121.504 3.215 10891.98
60.820 -119.659 3.228 26387.65
60.820 -117.815 3.246 17166.17
60.820 -115.970 3.286 7269.46
60.820 -114.125 3.379 7272.70
60.820 -112.281 3.457 5126.82
60.820 -110.436 3.405 4720.16
60.820 -108.591 3.266 4230.34
60.820 -106.747 3.186 4857.88
60.820 -104.902 3.169 3216.26
60.820 -103.057 3.192 2949.73
60.820 -101.213 3.307 3893.49
60.820 -99.368 3.331 4562.06
60.820 -97.524 3.272 4572.00
60.820 -95.679 3.474 3639.34
60.820 -93.834 3.382 5766.40
60.820 -91.990 3.333 1065.10
60.820 -90.145 3.307 1175.84
60.820 -88.300 3.247 763.46
60.820 -86.456 3.269 2113.88
60.820 -84.611 3.410 3269.71
60.820 -82.766 3.468 2223.30
60.820 -80.922 3.451 642.49
60.820 -79.077 3.379 1449.79
60.820 -77.233 3.324 1171.61
60.820 -75.388 3.308 840.47
60.820 -73.543 3.306 1140.58
60.820 -71.699 3.317 528.43
60.820 -69.854 3.313 207.76
60.820 -68.009 3.285 426.59
60.820 -66.165 3.270 175.83
60.820 -64.320 3.270 100.89
60.820 -62.475 3.286 6.99
60.820 -60.631 3.296 94.92
60.820 -58.786 3.282 0.00
60.820 -56.942 3.266 0.00
60.820 -55.097 3.259 0.00
60.820 -53.252 3.262 54.95
60.820 -51.408 3.270 59.94
60.820 -49.563 3.287 0.00
60.820 -47.718 3.317 163.09
61.720 -152.518 3.326 491.24
61.720 -150.620 3.326 547.05
61.720 -148.722 3.358 2846.32
61.720 -146.824 3.374 2865.72
61.720 -144.926 3.315 2736.84
61.720 -143.027 3.182 2160.84
61.720 -141.129 3.219 1736.78
61.720 -139.231 3.316 1837.80
61.720 -137.333 3.302 2642.68
61.720 -135.434 3.416 3792.43
61.720 -133.536 3.342 2777.89
61.720 -131.638 3.171 4895.26
61.720 -129.740 3.150 3961.60
61.720 -127.842 3.142 8267.92
61.720 -125.943 3.181 4570.31
61.720 -124.045 3.141 6323.93
61.720 -122.147 3.110 31335.13
61.720 -120.249 3.160 21453.42
61.720 -118.350 3.221 7553.30
61.720 -116.452 3.264 5281.51
61.720 -114.554 3.358 5859.00
61.720 -112.656 3.470 4986.49
61.720 -110.758 3.417 5480.46
61.720 -108.859 3.239 4860.02
61.720 -106.961 3.230 3723.24
61.720 -105.063 3.274 2976.28
61.720 -103.165 3.270 2510.10
61.720 -101.266 3.240 2963.59
61.720 -99.368 3.234 4018.16
61.720 -97.470 3.281 4093.20
61.720 -95.572 3.409 3424.16
61.720 -93.674 3.437 4579.53
61.720 -91.775 3.326 2896.47
61.720 -89.877 3.245 1370.65
61.720 -87.979 3.176 1016.47
61.720 -86.081 3.227 2682.92
61.720 -84.182 3.351 2598.56
61.720 -82.284 3.406 1335.24
61.720 -80.386 3.418 1016.97
61.720 -78.488 3.371 1598.17
61.720 -76.590 3.337 813.98
61.720 -74.691 3.300 847.15
61.720 -72.793 3.292 858.08
61.720 -70.895 3.337 591.46
61.720 -68.997 3.317 318.67
61.720 -67.098 3.286 313.70
61.720 -65.200 3.272 130.87
61.720 -63.302 3.286 13.99
61.720 -61.404 3.297 101.92
61.720 -59.505 3.284 0.00
61.720 -57.607 3.269 0.00
61.720 -55.709 3.263 0.00
61.720 -53.811 3.269 0.00
61.720 -51.913 3.272 0.00
61.720 -50.014 3.267 123.86
61.720 -48.116 3.271 224.75
61.720 -46.218 3.298 102.89
62.619 -154.123 3.342 247.82
62.619 -152.167 3.347 587.77
62.619 -150.212 3.360 861.91
62.619 -148.256 3.328 1559.84
62.619 -146.301 3.249 2494.17
62.619 -144.345 3.168 3624.74
62.619 -142.390 3.264 2958.82
62.619 -140.434 3.276 2857.52
62.619 -138.479 3.196 4521.49
62.619 -136.523 3.273 4125.55
62.619 -134.567 3.247 3953.93
62.619 -132.612 3.072 5385.58
62.619 -130.656 3.017 6037.99
62.619 -128.701 3.071 7131.51
62.619 -126.745 3.125 5332.03
62.619 -124.790 3.132 35401.15
62.619 -122.834 3.145 29321.64
62.619 -120.879 3.206 8009.76
62.619 -118.923 3.280 5027.53
62.619 -116.968 3.337 5322.20
62.619 -115.012 3.376 6068.67
62.619 -113.057 3.390 4415.84
62.619 -111.101 3.363 4676.99
62.619 -109.146 3.250 5008.13
62.619 -107.190 3.259 3825.22
62.619 -105.235 3.343 3082.92
62.619 -103.279 3.358 1922.06
62.619 -101.324 3.262 1921.84
62.619 -99.368 3.153 2584.08
62.619 -97.413 3.171 3571.01
62.619 -95.457 3.297 4166.37
62.619 -93.502 3.584 3033.37
62.619 -91.546 3.388 6649.58
62.619 -89.591 3.214 1483.63
62.619 -87.635 3.126 1560.32
62.619 -85.680 3.215 3246.34
62.619 -83.724 3.335 1663.11
62.619 -81.769 3.334 1146.26
62.619 -79.813 3.312 470.40
62.619 -77.858 3.304 1471.76
62.619 -75.902 3.327 1061.88
62.619 -73.946 3.311 1322.63
62.619 -71.991 3.310 456.53
62.619 -70.035 3.370 499.43
62.619 -68.080 3.327 435.58
62.619 -66.124 3.281 180.82
62.619 -64.169 3.280 61.94
62.619 -62.213 3.297 80.93
62.619 -60.258 3.289 20.98
62.619 -58.302 3.270 0.00
62.619 -56.347 3.260 0.00
62.619 -54.391 3.259 124.14
62.619 -52.436 3.265 126.85
62.619 -50.480 3.267 133.84
62.619 -48.525 3.268 33.96
62.619 -46.569 3.274 0.00
62.619 -44.614 3.291 51.95
63.518 -155.841 3.326 179.81
63.518 -153.824 3.332 313.60
63.518 -151.807 3.343 1368.23
63.518 -149.790 3.327 3143.55
63.518 -147.773 3.275 3111.21
63.518 -145.757 3.259 3334.42
63.518 -143.740 3.357 3471.53
63.518 -141.723 3.287 2549.64
63.518 -139.706 3.172 4551.22
63.518 -137.689 3.230 6293.08
63.518 -135.672 3.228 6067.15
63.518 -133.655 3.081 7474.13
63.518 -131.638 3.040 7731.03
63.518 -129.622 3.169 7675.89
63.518 -127.605 3.290 8962.84
63.518 -125.588 3.308 37491.12
63.518 -123.571 3.274 9186.03
63.518 -121.554 3.238 5649.67
63.518 -119.537 3.235 5350.90
63.518 -117.520 3.294 5135.69
63.518 -115.503 3.338 3459.41
63.518 -113.486 3.359 2695.31
63.518 -111.470 3.393 4009.33
63.518 -109.453 3.366 5078.85
63.518 -107.436 3.318 3224.79
63.518 -105.419 3.341 2491.03
63.518 -103.402 3.374 2181.67
63.518 -101.385 3.309 1397.95
63.518 -99.368 3.159 1872.83
63.518 -97.351 3.047 3183.33
63.518 -95.334 3.176 4096.86
63.518 -93.318 3.623 3320.17
63.518 -91.301 3.529 5173.07
63.518 -89.284 3.217 5025.92
63.518 -87.267 3.100 3368.78
63.518 -85.250 3.220 2554.68
63.518 -83.233 3.337 1279.52
63.518 -81.216 3.298 948.09
63.518 -79.199 3.254 477.86
63.518 -77.182 3.271 1284.66
63.518 -75.166 3.300 854.96
63.518 -73.149 3.297 1113.47
63.518 -71.132 3.326 795.71
63.518 -69.115 3.374 919.43
63.518 -67.098 3.323 290.72
63.518 -65.081 3.287 103.89
63.518 -63.064 3.295 54.96
63.518 -61.047 3.292 47.96
63.518 -59.030 3.272 0.00
63.518 -57.014 3.256 0.00
63.518 -54.997 3.255 0.00
63.518 -52.980 3.262 0.00
63.518 -50.963 3.265 0.00
63.518 -48.946 3.265 0.00
63.518 -46.929 3.275 0.00
63.518 -44.912 3.293 0.00
63.518 -42.895 3.302 15.98
64.418 -157.686 3.307 352.61
64.418 -155.603 3.300 30.97
64.418 -153.520 3.306 9.99
64.418 -151.437 3.313 1283.74
64.418 -149.355 3.312 2744.23
64.418 -147.272 3.331 4017.37
64.418 -145.189 3.360 4080.57
64.418 -143.106 3.293 3590.75
64.418 -141.023 3.214 4501.52
64.418 -138.941 3.229 6678.28
64.418 -136.858 3.183 7371.14
64.418 -134.775 3.108 8323.28
64.418 -132.692 3.166 8112.95
64.418 -130.610 3.372 7612.07
64.418 -128.527 3.552 13624.92
64.418 -126.444 3.500 8334.38
64.418 -124.361 3.354 6129.55
64.418 -122.279 3.268 5647.58
64.418 -120.196 3.270 4105.49
64.418 -118.113 3.307 2557.84
64.418 -116.030 3.354 2763.75
64.418 -113.948 3.414 2740.32
64.418 -111.865 3.452 3165.08
64.418 -109.782 3.412 4067.95
64.418 -107.699 3.370 2391.34
64.418 -105.616 3.346 2328.05
64.418 -103.534 3.349 2550.63
64.418 -101.451 3.369 2228.91
64.418 -99.368 3.283 1781.48
64.418 -97.285 3.100 3005.99
64.418 -95.203 3.075 3622.04
64.418 -93.120 3.349 3833.50
64.418 -91.037 3.531 2679.93
64.418 -88.954 3.312 9334.70
64.418 -86.872 3.194 7326.26
64.418 -84.789 3.270 1468.64
64.418 -82.706 3.339 1158.94
64.418 -80.623 3.276 1127.93
64.418 -78.541 3.245 875.18
64.418 -76.458 3.281 1272.79
64.418 -74.375 3.293 1388.69
64.418 -72.292 3.278 1059.01
64.418 -70.210 3.303 403.64
64.418 -68.127 3.324 562.46
64.418 -66.044 3.299 202.15
64.418 -63.961 3.296 37.97
64.418 -61.878 3.294 72.94
64.418 -59.796 3.276 0.00
64.418 -57.713 3.258 0.00
64.418 -55.630 3.249 0.00
64.418 -53.547 3.251 0.00
64.418 -51.465 3.255 0.00
64.418 -49.382 3.256 0.00
64.418 -47.299 3.259 0.00
64.418 -45.216 3.284 14.23
64.418 -43.134 3.331 605.38
64.418 -41.051 3.340 156.82
65.317 -159.670 3.328 0.00
65.317 -157.516 3.315 45.96
65.317 -155.363 3.302 73.93
65.317 -153.209 3.308 0.00
65.317 -151.055 3.334 581.00
65.317 -148.902 3.350 1569.30
65.317 -146.748 3.334 2858.37
65.317 -144.595 3.284 4337.92
65.317 -142.441 3.267 3989.67
65.317 -140.287 3.292 6928.23
65.317 -138.134 3.286 5750.49
65.317 -135.980 3.276 3966.02
65.317 -133.826 3.313 7015.19
65.317 -131.673 3.456 5417.94
65.317 -129.519 3.560 6414.50
65.317 -127.365 3.512 3895.27
65.317 -125.212 3.390 2998.67
65.317 -123.058 3.385 3302.83
65.317 -120.905 3.379 3457.09
65.317 -118.751 3.335 3038.69
65.317 -116.597 3.333 1931.99
65.317 -114.444 3.372 2275.83
65.317 -112.290 3.408 3021.79
65.317 -110.136 3.397 2173.33
65.317 -107.983 3.375 2067.86
65.317 -105.829 3.354 2301.67
65.317 -103.675 3.326 2134.88
65.317 -101.522 3.368 2062.01
65.317 -99.368 3.381 1702.26
65.317 -97.215 3.241 1833.76
65.317 -95.061 3.035 3699.53
65.317 -92.907 3.081 4352.66
65.317 -90.754 3.468 3374.05
65.317 -88.600 3.466 2394.86
65.317 -86.446 3.360 1050.27
65.317 -84.293 3.323 757.45
65.317 -82.139 3.316 898.70
65.317 -79.985 3.248 963.99
65.317 -77.832 3.238 1088.87
65.317 -75.678 3.282 1216.75
65.317 -73.525 3.277 1370.58
65.317 -71.371 3.250 585.39
65.317 -69.217 3.280 443.57
65.317 -67.064 3.290 257.75
65.317 -64.910 3.294 81.26
65.317 -62.756 3.297 97.92
65.317 -60.603 3.278 0.00
65.317 -58.449 3.261 0.00
65.317 -56.295 3.253 0.00
65.317 -54.142 3.252 0.00
65.317 -51.988 3.253 0.00
65.317 -49.835 3.252 0.00
65.317 -47.681 3.250 0.00
65.317 -45.527 3.253 0.00
65.317 -43.374 3.276 0.00
65.317 -41.220 3.324 142.91
65.317 -39.066 3.361 590.55
66.216 -161.810 3.378 921.27
66.216 -159.580 3.370 353.68
66.216 -157.350 3.332 364.67
66.216 -155.120 3.322 449.59
66.216 -152.890 3.337 375.65
66.216 -150.660 3.351 629.89
66.216 -148.430 3.348 1365.76
66.216 -146.200 3.349 1076.30
66.216 -143.970 3.363 3814.73
66.216 -141.740 3.358 11498.82
66.216 -139.510 3.356 6251.88
66.216 -137.279 3.346 6380.60
66.216 -135.049 3.333 8627.46
66.216 -132.819 3.370 5861.03
66.216 -130.589 3.457 5402.58
66.216 -128.359 3.399 4145.45
66.216 -126.129 3.364 3737.89
66.216 -123.899 3.367 2673.13
66.216 -121.669 3.352 2248.29
66.216 -119.439 3.334 2914.90
66.216 -117.209 3.304 3225.16
66.216 -114.979 3.308 2311.29
66.216 -112.749 3.334 2042.08
66.216 -110.519 3.353 1660.29
66.216 -108.288 3.363 2342.65
66.216 -106.058 3.366 2157.84
66.216 -103.828 3.324 2755.16
66.216 -101.598 3.321 2662.33
66.216 -99.368 3.388 2356.62
66.216 -97.138 3.341 2240.23
66.216 -94.908 3.174 3465.08
66.216 -92.678 3.049 4698.96
66.216 -90.448 3.339 2342.17
66.216 -88.218 3.519 999.18
66.216 -85.988 3.492 920.02
66.216 -83.758 3.372 965.05
66.216 -81.528 3.289 1114.19
66.216 -79.298 3.230 816.89
66.216 -77.067 3.230 1447.97
66.216 -74.837 3.265 1197.38
66.216 -72.607 3.262 1034.91
66.216 -70.377 3.255 489.48
66.216 -68.147 3.281 551.48
66.216 -65.917 3.291 206.80
66.216 -63.687 3.301 123.90
66.216 -61.457 3.284 0.00
66.216 -59.227 3.265 0.00
66.216 -56.997 3.256 0.00
66.216 -54.767 3.256 0.00
66.216 -52.537 3.258 0.00
66.216 -50.307 3.256 0.00
66.216 -48.077 3.254 0.00
66.216 -45.846 3.251 0.00
66.216 -43.616 3.249 0.00
66.216 -41.386 3.255 0.00
66.216 -39.156 3.277 0.00
66.216 -36.926 3.307 0.00
67.116 -164.125 3.346 310.80
67.116 -161.812 3.336 219.89
67.116 -159.499 3.305 191.91
67.116 -157.186 3.291 0.00
67.116 -154.874 3.292 84.93
67.116 -152.561 3.306 173.86
67.116 -150.248 3.318 662.73
67.116 -147.935 3.341 2004.27
67.116 -145.623 3.372 1377.47
67.116 -143.310 3.310 1283.47
67.116 -140.997 3.215 2608.33
67.116 -138.685 3.192 3588.11
67.116 -136.372 3.173 2258.88
67.116 -134.059 3.204 3879.91
67.116 -131.746 3.286 3794.36
67.116 -129.434 3.312 1715.26
67.116 -127.121 3.343 1517.54
67.116 -124.808 3.370 1526.81
67.116 -122.495 3.381 1420.95
67.116 -120.183 3.368 1007.90
67.116 -117.870 3.343 931.12
67.116 -115.557 3.311 961.06
67.116 -113.245 3.301 856.16
67.116 -110.932 3.314 1246.78
67.116 -108.619 3.348 1345.63
67.116 -106.306 3.368 2096.80
67.116 -103.994 3.380 2141.80
67.116 -101.681 3.347 2700.22
67.116 -99.368 3.383 2707.35
67.116 -97.055 3.447 1933.08
67.116 -94.743 3.384 1480.87
67.116 -92.430 3.201 3000.45
67.116 -90.117 3.193 3555.92
67.116 -87.805 3.410 797.77
67.116 -85.492 3.464 680.34
67.116 -83.179 3.339 776.22
67.116 -80.866 3.265 972.01
67.116 -78.554 3.231 776.19
67.116 -76.241 3.234 1695.28
67.116 -73.928 3.253 1598.88
67.116 -71.615 3.252 716.24
67.116 -69.303 3.277 556.98
67.116 -66.990 3.291 226.84
67.116 -64.677 3.309 99.82
67.116 -62.365 3.295 34.42
67.116 -60.052 3.273 15.13
67.116 -57.739 3.262 14.67
67.116 -55.426 3.262 14.52
67.116 -53.114 3.266 85.98
67.116 -50.801 3.263 63.17
67.116 -48.488 3.257 0.00
67.116 -46.176 3.255 0.00
67.116 -43.863 3.254 0.00
67.116 -41.550 3.252 0.00
67.116 -39.237 3.249 0.00
67.116 -36.925 3.251 0.00
67.116 -34.612 3.264 0.00
68.015 -166.634 3.292 15.99
68.015 -164.232 3.292 69.93
68.015 -161.829 3.284 64.95
68.015 -159.427 3.277 226.89
68.015 -157.025 3.270 228.89
68.015 -154.622 3.267 203.90
68.015 -152.220 3.267 65.94
68.015 -149.818 3.274 280.60
68.015 -147.415 3.282 1161.04
68.015 -145.013 3.224 1419.27
68.015 -142.611 3.139 2564.19
68.015 -140.208 3.145 2713.46
68.015 -137.806 3.115 1359.05
68.015 -135.404 3.152 4864.76
68.015 -133.001 3.221 2419.08
68.015 -130.599 3.247 1108.26
68.015 -128.196 3.268 703.12
68.015 -125.794 3.296 560.38
68.015 -123.392 3.332 661.76
68.015 -120.989 3.352 775.40
68.015 -118.587 3.363 797.17
68.015 -116.185 3.360 855.95
68.015 -113.782 3.346 1084.90
68.015 -111.380 3.340 1032.97
68.015 -108.978 3.363 1240.82
68.015 -106.575 3.402 1521.46
68.015 -104.173 3.427 1654.33
68.015 -101.771 3.431 1759.22
68.015 -99.368 3.411 2218.76
68.015 -96.966 3.486 2053.02
68.015 -94.563 3.490 1501.91
68.015 -92.161 3.372 2666.03
68.015 -89.759 3.202 3807.31
68.015 -87.356 3.333 1935.49
68.015 -84.954 3.358 1035.95
68.015 -82.552 3.284 680.32
68.015 -80.149 3.235 1288.69
68.015 -77.747 3.234 766.19
68.015 -75.345 3.251 1655.30
68.015 -72.942 3.255 1396.54
68.015 -70.540 3.262 576.39
68.015 -68.138 3.296 424.60
68.015 -65.735 3.314 102.90
68.015 -63.333 3.308 41.96
68.015 -60.931 3.283 0.00
68.015 -58.528 3.268 49.94
68.015 -56.126 3.265 82.90
68.015 -53.723 3.267 80.91
68.015 -51.321 3.265 8.99
68.015 -48.919 3.260 0.00
68.015 -46.516 3.256 0.00
68.015 -44.114 3.254 0.00
68.015 -41.712 3.254 0.00
68.015 -39.309 3.255 0.00
68.015 -36.907 3.251 0.00
68.015 -34.505 3.242 0.00
68.015 -32.102 3.240 0.00
68.915 -169.364 3.244 0.00
68.915 -166.864 3.247 0.00
68.915 -164.364 3.262 35.97
68.915 -161.865 3.271 69.93
68.915 -159.365 3.266 17.98
68.915 -156.865 3.255 29.99
68.915 -154.365 3.242 237.88
68.915 -151.865 3.231 342.78
68.915 -149.365 3.218 652.91
68.915 -146.865 3.160 1218.55
68.915 -144.366 3.104 3667.75
68.915 -141.866 3.150 3002.71
68.915 -139.366 3.186 492.03
68.915 -136.866 3.236 48.95
68.915 -134.366 3.254 136.00
68.915 -131.866 3.234 405.57
68.915 -129.366 3.207 576.80
68.915 -126.867 3.207 437.09
68.915 -124.367 3.236 345.71
68.915 -121.867 3.281 588.85
68.915 -119.367 3.317 695.66
68.915 -116.867 3.347 574.46
68.915 -114.367 3.362 473.58
68.915 -111.867 3.367 524.54
68.915 -109.368 3.374 336.67
68.915 -106.868 3.404 723.31
68.915 -104.368 3.444 1147.81
68.915 -101.868 3.472 1518.42
68.915 -99.368 3.468 1912.98
68.915 -96.868 3.486 2253.71
68.915 -94.368 3.573 1944.06
68.915 -91.869 3.560 1786.48
68.915 -89.369 3.374 4092.59
68.915 -86.869 3.348 2848.21
68.915 -84.369 3.272 1682.43
68.915 -81.869 3.254 662.70
68.915 -79.369 3.209 1286.68
68.915 -76.870 3.223 1227.73
68.915 -74.370 3.273 1819.13
68.915 -71.870 3.277 939.01
68.915 -69.370 3.296 692.32
68.915 -66.870 3.316 151.85
68.915 -64.370 3.319 131.86
68.915 -61.870 3.293 85.90
68.915 -59.371 3.271 85.90
68.915 -56.871 3.263 33.96
68.915 -54.371 3.262 0.00
68.915 -51.871 3.261 0.00
68.915 -49.371 3.258 0.00
68.915 -46.871 3.255 0.00
68.915 -44.371 3.253 0.00
68.915 -41.872 3.253 0.00
68.915 -39.372 3.254 0.00
68.915 -36.872 3.254 0.00
68.915 -34.372 3.249 0.00
68.915 -31.872 3.236 85.92
68.915 -29.372 3.223 163.85
69.814 -172.344 3.208 281.72
69.814 -169.737 3.207 96.90
69.814 -167.131 3.225 100.89
69.814 -164.525 3.237 105.89
69.814 -161.919 3.246 165.83
69.814 -159.312 3.246 188.81
69.814 -156.706 3.237 126.87
69.814 -154.100 3.234 112.89
69.814 -151.494 3.227 125.88
69.814 -148.887 3.182 434.98
69.814 -146.281 3.118 2723.22
69.814 -143.675 3.178 1123.59
69.814 -141.069 3.244 125.21
69.814 -138.462 3.292 300.68
69.814 -135.856 3.304 137.83
69.814 -133.250 3.281 38.17
69.814 -130.643 3.240 113.80
69.814 -128.037 3.205 185.89
69.814 -125.431 3.194 331.33
69.814 -122.825 3.215 287.18
69.814 -120.218 3.253 464.91
69.814 -117.612 3.291 648.73
69.814 -115.006 3.306 588.43
69.814 -112.400 3.318 507.53
69.814 -109.793 3.337 872.13
69.814 -107.187 3.364 454.59
69.814 -104.581 3.403 937.09
69.814 -101.974 3.445 1053.93
69.814 -99.368 3.463 1804.14
69.814 -96.762 3.479 2385.55
69.814 -94.156 3.543 2577.41
69.814 -91.549 3.606 2023.38
69.814 -88.943 3.573 3240.64
69.814 -86.337 3.461 4904.47
69.814 -83.731 3.402 1335.41
69.814 -81.124 3.336 832.88
69.814 -78.518 3.246 1434.52
69.814 -75.912 3.227 1691.26
69.814 -73.306 3.278 1993.91
69.814 -70.699 3.297 788.19
69.814 -68.093 3.322 507.47
69.814 -65.487 3.327 175.82
69.814 -62.880 3.296 22.97
69.814 -60.274 3.269 0.00
69.814 -57.668 3.258 0.00
69.814 -55.062 3.256 0.00
69.814 -52.455 3.256 0.00
69.814 -49.849 3.254 0.00
69.814 -47.243 3.253 0.00
69.814 -44.637 3.253 0.00
69.814 -42.030 3.253 0.00
69.814 -39.424 3.254 0.00
69.814 -36.818 3.254 0.00
69.814 -34.211 3.254 0.00
69.814 -31.605 3.253 0.00
69.814 -28.999 3.247 0.00
69.814 -26.393 3.238 0.00
70.713 -175.608 3.225 65.94
70.713 -172.885 3.224 88.92
70.713 -170.162 3.231 92.91
70.713 -167.439 3.236 96.91
70.713 -164.717 3.242 100.91
70.713 -161.994 3.249 106.90
70.713 -159.271 3.262 182.83
70.713 -156.548 3.270 118.89
70.713 -153.825 3.269 0.00
70.713 -151.102 3.248 0.00
70.713 -148.379 3.206 0.00
70.713 -145.657 3.212 156.87
70.713 -142.934 3.228 232.81
70.713 -140.211 3.254 134.88
70.713 -137.488 3.282 254.74
70.713 -134.765 3.289 278.72
70.713 -132.042 3.277 72.73
70.713 -129.320 3.258 75.81
70.713 -126.597 3.240 121.52
70.713 -123.874 3.223 123.54
70.713 -121.151 3.222 77.35
70.713 -118.428 3.223 241.55
70.713 -115.705 3.227 900.14
70.713 -112.982 3.244 955.07
70.713 -110.260 3.291 553.47
70.713 -107.537 3.336 630.41
70.713 -104.814 3.361 629.42
70.713 -102.091 3.392 1100.92
70.713 -99.368 3.423 1110.87
70.713 -96.645 3.445 1992.97
70.713 -93.923 3.487 2890.06
70.713 -91.200 3.550 3149.91
70.713 -88.477 3.641 2421.49
70.713 -85.754 3.593 5172.40
70.713 -83.031 3.688 1901.13
70.713 -80.308 3.489 967.98
70.713 -77.585 3.289 1756.18
70.713 -74.863 3.229 2331.61
70.713 -72.140 3.259 1711.22
70.713 -69.417 3.309 723.58
70.713 -66.694 3.327 130.88
70.713 -63.971 3.296 0.00
70.713 -61.248 3.265 0.00
70.713 -58.525 3.252 0.00
70.713 -55.803 3.251 0.00
70.713 -53.080 3.252 0.00
70.713 -50.357 3.252 0.00
70.713 -47.634 3.253 0.00
70.713 -44.911 3.254 0.00
70.713 -42.188 3.254 0.00
70.713 -39.466 3.254 0.00
70.713 -36.743 3.254 0.00
70.713 -34.020 3.254 0.00
70.713 -31.297 3.254 0.00
70.713 -28.574 3.255 0.00
70.713 -25.851 3.254 0.00
70.713 -23.128 3.251 0.00
71.613 -179.198 3.248 0.00
71.613 -176.347 3.250 0.00
71.613 -173.496 3.249 0.00
71.613 -170.645 3.248 0.00
71.613 -167.794 3.249 0.00
71.613 -164.943 3.253 0.00
71.613 -162.092 3.263 0.00
71.613 -159.241 3.276 11.99
71.613 -156.390 3.290 72.93
71.613 -153.539 3.289 49.95
71.613 -150.688 3.269 0.00
71.613 -147.837 3.256 0.00
71.613 -144.985 3.245 12.99
71.613 -142.134 3.238 137.89
71.613 -139.283 3.238 176.86
71.613 -136.432 3.250 200.81
71.613 -133.581 3.269 373.62
71.613 -130.730 3.273 331.68
71.613 -127.879 3.268 43.41
71.613 -125.028 3.254 108.89
71.613 -122.177 3.228 157.21
71.613 -119.326 3.198 324.16
71.613 -116.475 3.196 180.55
71.613 -113.624 3.241 307.70
71.613 -110.773 3.291 522.47
71.613 -107.921 3.328 453.55
71.613 -105.070 3.354 387.64
71.613 -102.219 3.377 725.29
71.613 -99.368 3.412 665.36
71.613 -96.517 3.461 1003.97
71.613 -93.666 3.512 2206.74
71.613 -90.815 3.583 3244.67
71.613 -87.964 3.694 2957.02
71.613 -85.113 3.813 3561.14
71.613 -82.262 3.851 4304.59
71.613 -79.411 3.634 910.42
71.613 -76.560 3.313 1666.27
71.613 -73.708 3.225 3199.71
71.613 -70.857 3.267 1019.98
71.613 -68.006 3.332 215.79
71.613 -65.155 3.304 5.00
71.613 -62.304 3.263 0.00
71.613 -59.453 3.247 0.00
71.613 -56.602 3.247 0.00
71.613 -53.751 3.251 0.00
71.613 -50.900 3.254 0.00
71.613 -48.049 3.256 0.00
71.613 -45.198 3.257 0.00
71.613 -42.347 3.257 0.00
71.613 -39.496 3.255 0.00
71.613 -36.644 3.254 0.00
71.613 -33.793 3.254 0.00
71.613 -30.942 3.254 0.00
71.613 -28.091 3.254 0.00
71.613 -25.240 3.254 0.00
71.613 -22.389 3.255 0.00
71.613 -19.538 3.255 0.00
72.512 -177.180 3.256 0.00
72.512 -174.187 3.254 0.00
72.512 -171.194 3.253 0.00
72.512 -168.202 3.253 0.00
72.512 -165.209 3.256 0.00
72.512 -162.216 3.262 0.00
72.512 -159.223 3.272 0.00
72.512 -156.231 3.284 23.98
72.512 -153.238 3.291 74.93
72.512 -150.245 3.285 42.96
72.512 -147.252 3.272 0.00
72.512 -144.260 3.258 0.00
72.512 -141.267 3.248 31.97
72.512 -138.274 3.246 129.88
72.512 -135.281 3.254 125.90
72.512 -132.289 3.269 191.82
72.512 -129.296 3.275 415.58
72.512 -126.303 3.262 303.71
72.512 -123.310 3.240 103.77
72.512 -120.318 3.217 222.96
72.512 -117.325 3.200 290.02
72.512 -114.332 3.207 233.11
72.512 -111.339 3.241 258.96
72.512 -108.346 3.279 617.40
72.512 -105.354 3.302 682.32
72.512 -102.361 3.337 515.51
72.512 -99.368 3.416 842.15
72.512 -96.375 3.503 548.49
72.512 -93.383 3.570 1166.85
72.512 -90.390 3.637 2524.38
72.512 -87.397 3.705 3817.07
72.512 -84.404 3.913 3272.06
72.512 -81.412 4.047 6684.40
72.512 -78.419 3.925 1352.89
72.512 -75.426 3.409 2797.13
72.512 -72.433 3.226 2881.03
72.512 -69.441 3.272 554.47
72.512 -66.448 3.322 24.98
72.512 -63.455 3.273 0.00
72.512 -60.462 3.246 0.00
72.512 -57.470 3.248 0.00
72.512 -54.477 3.254 0.00
72.512 -51.484 3.258 0.00
72.512 -48.491 3.261 0.00
72.512 -45.499 3.264 0.00
72.512 -42.506 3.264 23.97
72.512 -39.513 3.262 55.99
72.512 -36.520 3.257 0.00
72.512 -33.527 3.254 0.00
72.512 -30.535 3.254 0.00
72.512 -27.542 3.254 0.00
72.512 -24.549 3.254 0.00
72.512 -21.556 3.254 0.00
72.512 -18.564 3.254 0.00
72.512 -15.571 3.254 0.00
73.411 -178.120 3.255 0.00
73.411 -174.970 3.254 0.00
73.411 -171.820 3.253 0.00
73.411 -168.670 3.252 0.00
73.411 -165.520 3.253 0.00
73.411 -162.370 3.256 0.00
73.411 -159.220 3.263 0.00
73.411 -156.070 3.273 0.00
73.411 -152.919 3.283 32.97
73.411 -149.769 3.289 75.93
73.411 -146.619 3.284 39.96
73.411 -143.469 3.272 0.00
73.411 -140.319 3.263 0.00
73.411 -137.169 3.260 45.95
73.411 -134.019 3.263 101.90
73.411 -130.869 3.264 127.90
73.411 -127.719 3.277 248.77
73.411 -124.569 3.288 426.59
73.411 -121.419 3.281 217.79
73.411 -118.269 3.264 11.37
73.411 -115.119 3.251 124.50
73.411 -111.969 3.246 204.70
73.411 -108.818 3.259 189.79
73.411 -105.668 3.290 394.62
73.411 -102.518 3.317 683.33
