47.330 -98.041 3.227 33005.70
47.330 -96.714 3.250 36010.50
47.330 -95.387 3.213 30592.00
47.330 -94.061 3.200 28613.98
47.330 -92.734 3.153 22127.32
47.330 -91.407 3.109 13598.62
47.330 -90.080 3.153 13957.27
47.330 -88.753 3.254 12283.63
47.330 -87.426 3.315 7300.96
47.330 -86.099 3.367 4572.47
47.330 -84.772 3.436 3846.46
47.330 -83.445 3.451 4230.43
47.330 -82.118 3.353 5775.76
47.330 -80.791 3.237 7768.04
47.330 -79.464 3.234 9318.01
47.330 -78.137 3.253 8709.86
47.330 -76.811 3.266 12190.01
47.330 -75.484 3.239 10006.81
47.330 -74.157 3.265 8371.03
47.330 -72.830 3.270 7360.82
47.330 -71.503 3.191 6650.00
47.330 -70.176 3.134 8011.14
47.330 -68.849 3.117 973.76
47.330 -67.522 3.110 496.61
47.330 -66.195 3.133 519.36
47.330 -64.868 3.122 343.34
47.330 -63.541 3.120 192.34
47.330 -62.214 3.295 262.09
48.229 -137.170 3.779 403.49
48.229 -135.820 3.716 104.30
48.229 -134.470 3.489 63.27
48.229 -133.120 3.415 72.45
48.229 -131.770 3.660 159.72
48.229 -130.420 4.306 734.52
48.229 -129.070 5.179 1197.06
48.229 -127.720 4.931 2582.54
48.229 -126.370 4.226 2474.33
48.229 -125.020 3.442 6983.15
48.229 -123.670 3.068 16815.74
48.229 -122.320 2.960 16401.61
48.229 -120.969 3.289 17455.23
48.229 -119.619 3.516 14255.02
48.229 -118.269 3.319 15658.71
48.229 -116.919 3.132 18854.44
48.229 -115.569 2.995 15431.27
48.229 -114.219 3.075 13239.28
48.229 -112.869 3.171 13785.13
48.229 -111.519 3.188 9549.71
48.229 -110.169 3.129 10992.47
48.229 -108.819 3.173 9704.57
48.229 -107.469 3.161 12961.42
48.229 -106.119 2.989 11696.12
48.229 -104.769 2.987 18232.14
48.229 -103.418 3.036 13414.97
48.229 -102.068 3.087 16982.70
48.229 -100.718 3.148 18161.56
48.229 -99.368 3.182 21054.54
48.229 -98.018 3.197 19429.76
48.229 -96.668 3.186 21764.80
48.229 -95.318 3.178 25048.07
48.229 -93.968 3.214 17381.49
48.229 -92.618 3.207 7533.09
48.229 -91.268 3.152 6486.15
48.229 -89.918 3.190 4176.80
48.229 -88.568 3.224 5445.98
48.229 -87.217 3.238 3833.67
48.229 -85.867 3.262 3461.50
48.229 -84.517 3.309 3199.83
48.229 -83.167 3.324 3167.01
48.229 -81.817 3.290 4059.26
48.229 -80.467 3.269 4230.65
48.229 -79.117 3.279 4056.96
48.229 -77.767 3.325 4026.45
48.229 -76.417 3.302 3546.68
48.229 -75.067 3.226 2179.37
48.229 -73.717 3.211 2056.95
48.229 -72.367 3.212 1227.79
48.229 -71.017 3.181 882.90
48.229 -69.666 3.154 345.64
48.229 -68.316 3.126 230.89
48.229 -66.966 3.083 383.32
48.229 -65.616 3.077 344.54
48.229 -64.266 3.105 337.20
48.229 -62.916 3.211 268.84
48.229 -61.566 3.495 269.92
49.129 -137.851 4.054 598.46
49.129 -136.477 3.949 167.83
49.129 -135.103 3.592 137.56
49.129 -133.728 3.555 305.53
49.129 -132.354 3.892 672.32
49.129 -130.979 4.603 958.98
49.129 -129.605 4.942 849.87
49.129 -128.231 4.346 2495.88
49.129 -126.856 3.792 4313.55
49.129 -125.482 3.405 14972.88
49.129 -124.107 3.159 18026.12
49.129 -122.733 3.027 13450.16
49.129 -121.359 3.129 11980.64
49.129 -119.984 3.308 13636.06
49.129 -118.610 3.207 11861.72
49.129 -117.235 3.077 11068.51
49.129 -115.861 3.055 9138.26
49.129 -114.487 3.115 8536.17
49.129 -113.112 3.236 9738.56
49.129 -111.738 3.176 8036.15
49.129 -110.363 3.036 7608.69
49.129 -108.989 2.981 8563.26
49.129 -107.615 3.038 8676.86
49.129 -106.240 3.007 10823.35
49.129 -104.866 2.943 12168.42
49.129 -103.491 2.991 13530.97
49.129 -102.117 3.089 10578.10
49.129 -100.743 3.166 11654.90
49.129 -99.368 3.246 10092.59
49.129 -97.994 3.254 10732.44
49.129 -96.619 3.199 9732.26
49.129 -95.245 3.193 8016.68
49.129 -93.871 3.236 2474.12
49.129 -92.496 3.203 2758.85
49.129 -91.122 3.129 3485.18
49.129 -89.747 3.164 3598.86
49.129 -88.373 3.197 3756.38
49.129 -86.999 3.193 3884.43
49.129 -85.624 3.168 3425.44
49.129 -84.250 3.217 3078.21
49.129 -82.875 3.273 3963.70
49.129 -81.501 3.280 2777.71
49.129 -80.127 3.268 3621.24
49.129 -78.752 3.255 2635.04
49.129 -77.378 3.259 2070.11
49.129 -76.003 3.232 1766.30
49.129 -74.629 3.176 1340.08
49.129 -73.255 3.159 1051.88
49.129 -71.880 3.148 931.08
49.129 -70.506 3.145 501.23
49.129 -69.131 3.136 365.71
49.129 -67.757 3.111 552.89
49.129 -66.383 3.089 242.48
49.129 -65.008 3.132 157.66
49.129 -63.634 3.247 98.91
49.129 -62.259 3.469 144.13
49.129 -60.885 3.817 469.99
50.028 -138.567 4.153 631.06
50.028 -137.167 4.004 695.33
50.028 -135.767 3.589 453.07
50.028 -134.367 3.604 526.44
50.028 -132.967 4.057 311.70
50.028 -131.567 4.636 703.24
50.028 -130.167 4.379 1133.01
50.028 -128.767 3.764 3389.22
50.028 -127.368 3.508 15647.15
50.028 -125.968 3.329 19732.34
50.028 -124.568 3.183 16109.51
50.028 -123.168 3.031 12826.79
50.028 -121.768 3.110 13365.34
50.028 -120.368 3.264 11174.67
50.028 -118.968 3.167 9473.04
50.028 -117.568 3.066 9710.18
50.028 -116.168 3.094 7633.47
50.028 -114.768 3.035 7645.15
50.028 -113.368 3.049 7556.90
50.028 -111.968 2.983 7703.93
50.028 -110.568 2.921 6547.10
50.028 -109.168 2.873 8280.83
50.028 -107.768 2.957 7996.74
50.028 -106.368 3.055 9490.14
50.028 -104.968 2.976 9727.25
50.028 -103.568 2.992 13791.78
50.028 -102.168 3.101 8897.75
50.028 -100.768 3.210 8050.88
50.028 -99.368 3.297 6779.04
50.028 -97.968 3.312 6102.72
50.028 -96.568 3.270 8035.76
50.028 -95.168 3.261 3155.79
50.028 -93.768 3.255 2742.46
50.028 -92.368 3.177 2237.69
50.028 -90.968 3.062 4258.65
50.028 -89.568 3.075 3385.60
50.028 -88.168 3.127 3378.91
50.028 -86.769 3.157 2601.01
50.028 -85.369 3.146 2399.64
50.028 -83.969 3.171 2887.36
50.028 -82.569 3.236 2926.86
50.028 -81.169 3.228 3112.31
50.028 -79.769 3.178 2064.18
50.028 -78.369 3.151 1127.87
50.028 -76.969 3.153 1657.06
50.028 -75.569 3.166 2004.32
50.028 -74.169 3.182 1469.55
50.028 -72.769 3.185 747.27
50.028 -71.369 3.168 437.59
50.028 -69.969 3.157 393.65
50.028 -68.569 3.148 312.31
50.028 -67.169 3.167 474.65
50.028 -65.769 3.248 91.26
50.028 -64.369 3.389 133.68
50.028 -62.969 3.607 163.84
50.028 -61.569 3.855 525.50
50.028 -60.169 3.959 229.76
50.927 -139.320 3.914 990.01
50.927 -137.893 3.807 648.80
50.927 -136.466 3.526 301.74
50.927 -135.040 3.658 2.00
50.927 -133.613 4.117 677.30
50.927 -132.186 4.274 346.61
50.927 -130.759 3.816 1743.81
50.927 -129.332 3.445 19791.80
50.927 -127.905 3.378 26843.39
50.927 -126.478 3.226 17717.78
50.927 -125.052 3.143 16913.49
50.927 -123.625 3.103 13125.70
50.927 -122.198 3.105 11374.44
50.927 -120.771 3.237 9308.04
50.927 -119.344 3.017 9061.98
50.927 -117.917 2.878 9900.30
50.927 -116.490 2.981 6965.51
50.927 -115.064 2.994 6880.24
50.927 -113.637 2.941 6015.83
50.927 -112.210 2.956 6948.58
50.927 -110.783 2.982 5746.52
50.927 -109.356 2.971 6687.61
50.927 -107.929 3.038 6620.40
50.927 -106.502 3.252 8752.66
50.927 -105.076 3.185 9841.27
50.927 -103.649 3.139 12266.50
50.927 -102.222 3.187 10645.23
50.927 -100.795 3.264 6148.83
50.927 -99.368 3.318 5269.16
50.927 -97.941 3.350 4741.66
50.927 -96.514 3.312 3451.28
50.927 -95.088 3.236 3507.64
50.927 -93.661 3.150 2716.01
50.927 -92.234 3.064 2977.99
50.927 -90.807 3.051 3590.75
50.927 -89.380 3.132 2464.65
50.927 -87.953 3.188 2782.11
50.927 -86.526 3.201 3065.01
50.927 -85.100 3.208 2737.00
50.927 -83.673 3.252 1389.23
50.927 -82.246 3.298 2821.14
50.927 -80.819 3.257 2763.75
50.927 -79.392 3.178 1054.45
50.927 -77.965 3.153 1821.15
50.927 -76.538 3.179 1313.66
50.927 -75.112 3.202 1571.39
50.927 -73.685 3.229 1204.62
50.927 -72.258 3.234 459.73
50.927 -70.831 3.199 538.25
50.927 -69.404 3.189 345.96
50.927 -67.977 3.252 443.15
50.927 -66.550 3.399 200.65
50.927 -65.124 3.611 259.76
50.927 -63.697 3.836 306.71
50.927 -62.270 3.942 568.42
50.927 -60.843 3.891 405.73
50.927 -59.416 3.828 783.52
51.827 -140.113 3.641 797.48
51.827 -138.658 3.601 114.22
51.827 -137.203 3.494 21.97
51.827 -135.747 3.697 155.82
51.827 -134.292 4.072 700.29
51.827 -132.837 4.040 441.51
51.827 -131.382 3.637 28907.42
51.827 -129.927 3.507 41534.27
51.827 -128.472 3.443 21089.31
51.827 -127.016 3.278 15574.54
51.827 -125.561 3.203 12492.53
51.827 -124.106 3.073 10431.38
51.827 -122.651 3.043 9323.37
51.827 -121.196 3.146 6699.97
51.827 -119.741 2.995 6448.03
51.827 -118.285 2.886 6085.56
51.827 -116.830 3.006 5383.56
51.827 -115.375 3.056 3840.50
51.827 -113.920 3.021 4431.67
51.827 -112.465 3.041 5919.80
51.827 -111.010 3.133 5972.32
51.827 -109.554 3.152 6547.42
51.827 -108.099 3.193 7628.96
51.827 -106.644 3.349 10246.57
51.827 -105.189 3.406 11091.64
51.827 -103.734 3.227 11066.07
51.827 -102.279 3.202 11985.30
51.827 -100.823 3.196 6749.47
51.827 -99.368 3.193 4617.33
51.827 -97.913 3.206 4521.69
51.827 -96.458 3.198 2471.57
51.827 -95.003 3.168 3176.43
51.827 -93.548 3.080 2743.30
51.827 -92.092 3.043 2605.84
51.827 -90.637 3.108 3197.32
51.827 -89.182 3.203 2497.29
51.827 -87.727 3.245 3275.95
51.827 -86.272 3.280 2594.09
51.827 -84.817 3.292 1875.11
51.827 -83.361 3.339 2292.37
51.827 -81.906 3.379 2189.67
51.827 -80.451 3.344 1529.26
51.827 -78.996 3.262 2039.03
51.827 -77.541 3.259 2080.43
51.827 -76.085 3.319 1480.21
51.827 -74.630 3.375 975.28
51.827 -73.175 3.405 930.96
51.827 -71.720 3.411 810.53
51.827 -70.265 3.402 824.43
51.827 -68.810 3.437 375.50
51.827 -67.354 3.542 200.79
51.827 -65.899 3.731 213.80
51.827 -64.444 3.921 728.30
51.827 -62.989 3.978 763.25
51.827 -61.534 3.883 547.26
51.827 -60.079 3.736 731.20
51.827 -58.623 3.605 267.75
52.726 -140.948 3.496 124.64
52.726 -139.463 3.497 91.89
52.726 -137.978 3.531 135.84
52.726 -136.493 3.802 514.48
52.726 -135.008 4.086 410.61
52.726 -133.523 3.983 825.11
52.726 -132.038 3.646 3837.64
52.726 -130.553 3.497 6676.08
52.726 -129.068 3.477 5289.14
52.726 -127.583 3.355 5116.26
52.726 -126.098 3.254 5502.74
52.726 -124.613 3.151 6764.79
52.726 -123.128 3.178 4859.70
52.726 -121.643 3.259 4281.27
52.726 -120.158 3.098 4803.26
52.726 -118.673 3.002 5289.23
52.726 -117.188 3.102 4658.03
52.726 -115.703 3.180 4175.25
52.726 -114.218 3.177 4267.67
52.726 -112.733 3.179 7448.59
52.726 -111.248 3.175 7263.50
52.726 -109.763 3.211 7400.13
52.726 -108.278 3.153 9737.67
52.726 -106.793 3.146 12060.63
52.726 -105.308 3.284 11428.12
52.726 -103.823 3.143 11016.71
52.726 -102.338 3.110 10752.65
52.726 -100.853 3.088 7869.06
52.726 -99.368 3.154 4264.25
52.726 -97.883 3.203 3484.25
52.726 -96.398 3.219 2255.95
52.726 -94.913 3.179 3121.49
52.726 -93.428 3.099 2160.95
52.726 -91.943 3.079 2645.56
52.726 -90.458 3.145 2978.46
52.726 -88.973 3.204 2143.47
52.726 -87.488 3.205 2594.13
52.726 -86.003 3.239 2651.29
52.726 -84.518 3.246 2005.47
52.726 -83.033 3.275 1911.85
52.726 -81.548 3.323 1476.80
52.726 -80.063 3.323 1853.61
52.726 -78.578 3.274 2262.79
52.726 -77.093 3.305 1588.82
52.726 -75.608 3.371 1457.53
52.726 -74.123 3.433 1403.51
52.726 -72.638 3.489 676.35
52.726 -71.153 3.563 1254.06
52.726 -69.668 3.685 875.29
52.726 -68.183 3.791 618.27
52.726 -66.698 3.889 625.38
52.726 -65.213 3.968 898.15
52.726 -63.728 3.927 533.50
52.726 -62.243 3.815 535.36
52.726 -60.758 3.685 479.78
52.726 -59.273 3.533 0.00
52.726 -57.788 3.445 83.93
53.625 -141.829 3.428 457.03
53.625 -140.313 3.453 174.83
53.625 -138.796 3.597 114.90
53.625 -137.280 3.847 634.35
53.625 -135.763 3.983 195.80
53.625 -134.247 3.978 1127.45
53.625 -132.730 3.991 1600.50
53.625 -131.214 3.864 2368.53
53.625 -129.697 3.681 2970.26
53.625 -128.181 3.379 3890.22
53.625 -126.665 3.221 4201.91
53.625 -125.148 3.190 5220.33
53.625 -123.632 3.236 3660.81
53.625 -122.115 3.271 3640.93
53.625 -120.599 3.080 4835.31
53.625 -119.082 2.969 4367.75
53.625 -117.566 2.995 4600.03
53.625 -116.049 3.049 4260.83
53.625 -114.533 3.097 5266.84
53.625 -113.016 3.126 6171.91
53.625 -111.500 3.054 7904.87
53.625 -109.983 3.128 9087.97
53.625 -108.467 3.065 10897.98
53.625 -106.951 3.046 13133.86
53.625 -105.434 3.203 10805.41
53.625 -103.918 3.251 8529.54
53.625 -102.401 3.121 8598.96
53.625 -100.885 3.123 8778.92
53.625 -99.368 3.195 3933.97
53.625 -97.852 3.248 3003.56
53.625 -96.335 3.263 2411.80
53.625 -94.819 3.233 2320.61
53.625 -93.302 3.161 2032.63
53.625 -91.786 3.112 2497.20
53.625 -90.269 3.161 1865.04
53.625 -88.753 3.169 2414.68
53.625 -87.237 3.149 3341.68
53.625 -85.720 3.180 2517.44
53.625 -84.204 3.180 1482.52
53.625 -82.687 3.208 1335.68
53.625 -81.171 3.246 1247.79
53.625 -79.654 3.245 2208.47
53.625 -78.138 3.189 1760.82
53.625 -76.621 3.216 1433.06
53.625 -75.105 3.274 1289.87
53.625 -73.588 3.314 1574.05
53.625 -72.072 3.389 995.05
53.625 -70.555 3.546 1063.92
53.625 -69.039 3.796 1101.53
53.625 -67.523 3.991 1048.85
53.625 -66.006 3.998 681.37
53.625 -64.490 3.847 441.59
53.625 -62.973 3.714 433.57
53.625 -61.457 3.596 286.08
53.625 -59.940 3.457 106.90
53.625 -58.424 3.347 141.86
53.625 -56.907 3.303 192.75
54.525 -142.759 3.347 126.36
54.525 -141.209 3.376 0.00
54.525 -139.660 3.629 394.58
54.525 -138.110 3.810 317.70
54.525 -136.560 3.827 444.51
54.525 -135.011 3.909 1136.56
54.525 -133.461 4.191 1192.31
54.525 -131.911 4.033 2076.10
54.525 -130.362 3.691 2863.68
54.525 -128.812 3.306 3998.80
54.525 -127.262 3.196 4167.25
54.525 -125.713 3.198 4326.86
54.525 -124.163 3.255 3986.14
54.525 -122.613 3.267 3363.17
54.525 -121.064 3.085 4148.32
54.525 -119.514 2.990 3737.24
54.525 -117.964 2.965 3704.46
54.525 -116.415 2.987 4376.45
54.525 -114.865 3.101 5104.49
54.525 -113.315 3.178 5837.50
54.525 -111.766 3.166 8465.52
54.525 -110.216 3.192 10461.55
54.525 -108.666 3.114 11974.02
54.525 -107.117 3.059 12730.47
54.525 -105.567 3.215 9214.49
54.525 -104.017 3.343 6962.29
54.525 -102.468 3.172 7202.35
54.525 -100.918 3.173 6927.89
54.525 -99.368 3.177 5149.51
54.525 -97.819 3.204 2853.94
54.525 -96.269 3.255 2274.46
54.525 -94.719 3.267 2655.11
54.525 -93.170 3.200 2458.54
54.525 -91.620 3.143 1744.78
54.525 -90.070 3.187 2768.15
54.525 -88.520 3.170 2575.44
54.525 -86.971 3.133 2689.30
54.525 -85.421 3.166 1510.93
54.525 -83.871 3.186 1329.65
54.525 -82.322 3.212 1250.71
54.525 -80.772 3.217 1467.51
54.525 -79.222 3.176 2297.66
54.525 -77.673 3.140 1434.51
54.525 -76.123 3.150 923.09
54.525 -74.573 3.155 1403.19
54.525 -73.024 3.156 1035.65
54.525 -71.474 3.211 746.42
54.525 -69.924 3.369 637.79
54.525 -68.375 3.579 1117.72
54.525 -66.825 3.651 1093.13
54.525 -65.275 3.639 275.33
54.525 -63.726 3.539 350.90
54.525 -62.176 3.420 135.86
54.525 -60.626 3.341 99.88
54.525 -59.077 3.284 134.84
54.525 -57.527 3.223 124.88
54.525 -55.977 3.218 27.88
55.424 -143.742 3.338 0.00
55.424 -142.157 3.372 39.96
55.424 -140.572 3.623 564.41
55.424 -138.988 3.788 179.83
55.424 -137.403 3.812 609.32
55.424 -135.818 3.912 1371.57
55.424 -134.233 4.124 946.63
55.424 -132.648 3.896 2529.99
55.424 -131.064 3.623 2775.83
55.424 -129.479 3.299 4061.32
55.424 -127.894 3.188 3223.22
55.424 -126.309 3.171 4203.49
55.424 -124.725 3.192 4433.76
55.424 -123.140 3.182 3191.64
55.424 -121.555 3.074 4396.07
55.424 -119.970 3.026 4798.16
55.424 -118.385 2.970 4909.53
55.424 -116.801 2.975 4487.53
55.424 -115.216 3.127 5530.83
55.424 -113.631 3.262 6502.87
55.424 -112.046 3.343 9993.59
55.424 -110.462 3.279 13250.22
55.424 -108.877 3.122 12639.79
55.424 -107.292 3.085 10820.85
55.424 -105.707 3.133 8524.46
55.424 -104.123 3.278 5431.06
55.424 -102.538 3.233 4675.97
55.424 -100.953 3.184 6462.35
55.424 -99.368 3.148 7806.98
55.424 -97.783 3.189 2490.25
55.424 -96.199 3.226 2589.29
55.424 -94.614 3.235 1570.39
55.424 -93.029 3.182 2511.45
55.424 -91.444 3.134 1999.62
55.424 -89.860 3.189 2764.21
55.424 -88.275 3.167 2026.93
55.424 -86.690 3.142 2360.67
55.424 -85.105 3.192 1249.68
55.424 -83.520 3.202 1640.29
55.424 -81.936 3.194 1169.13
55.424 -80.351 3.164 2150.29
55.424 -78.766 3.130 1899.12
55.424 -77.181 3.126 1303.30
55.424 -75.597 3.136 837.16
55.424 -74.012 3.156 1245.63
55.424 -72.427 3.162 709.28
55.424 -70.842 3.171 685.86
55.424 -69.257 3.226 831.21
55.424 -67.673 3.310 1146.48
55.424 -66.088 3.351 455.97
55.424 -64.503 3.357 438.94
55.424 -62.918 3.308 224.74
55.424 -61.334 3.254 127.85
55.424 -59.749 3.207 30.96
55.424 -58.164 3.173 19.25
55.424 -56.579 3.140 30.85
55.424 -54.995 3.204 0.00
56.324 -144.782 3.432 0.00
56.324 -143.160 3.480 453.52
56.324 -141.538 3.636 169.82
56.324 -139.916 3.798 423.57
56.324 -138.294 3.886 1066.87
56.324 -136.672 3.962 1174.95
56.324 -135.050 3.956 934.72
56.324 -133.428 3.663 2380.44
56.324 -131.806 3.569 3449.94
56.324 -130.184 3.314 3674.67
56.324 -128.563 3.184 2814.44
56.324 -126.941 3.185 3466.21
56.324 -125.319 3.105 5428.05
56.324 -123.697 3.067 4592.34
56.324 -122.075 3.018 4865.66
56.324 -120.453 2.994 3971.80
56.324 -118.831 2.984 5014.24
56.324 -117.209 2.979 4650.45
56.324 -115.587 3.068 5964.63
56.324 -113.965 3.219 9057.37
56.324 -112.343 3.309 12700.84
56.324 -110.722 3.253 14850.29
56.324 -109.100 3.099 11090.15
56.324 -107.478 3.042 9376.17
56.324 -105.856 3.037 5264.34
56.324 -104.234 3.175 5883.93
56.324 -102.612 3.269 5460.71
56.324 -100.990 3.140 6835.34
56.324 -99.368 3.160 5786.51
56.324 -97.746 3.162 3700.44
56.324 -96.124 3.203 1641.33
56.324 -94.502 3.192 1982.90
56.324 -92.881 3.150 3438.64
56.324 -91.259 3.097 1770.82
56.324 -89.637 3.123 1745.21
56.324 -88.015 3.126 2095.90
56.324 -86.393 3.125 2074.94
56.324 -84.771 3.154 1269.63
56.324 -83.149 3.127 1615.38
56.324 -81.527 3.097 1574.41
56.324 -79.905 3.075 2056.50
56.324 -78.283 3.132 1408.59
56.324 -76.661 3.183 729.30
56.324 -75.040 3.184 1072.09
56.324 -73.418 3.202 1321.53
56.324 -71.796 3.221 602.36
56.324 -70.174 3.218 737.23
56.324 -68.552 3.216 741.71
56.324 -66.930 3.216 699.19
56.324 -65.308 3.177 453.75
56.324 -63.686 3.164 285.07
56.324 -62.064 3.165 30.16
56.324 -60.442 3.147 6.63
56.324 -58.820 3.130 0.00
56.324 -57.199 3.112 36.05
56.324 -55.577 3.105 0.00
56.324 -53.955 3.230 0.00
57.223 -145.883 3.585 144.85
57.223 -144.222 3.632 501.47
57.223 -142.561 3.714 22.97
57.223 -140.899 3.830 740.23
57.223 -139.238 3.966 1245.14
57.223 -137.577 3.984 1155.61
57.223 -135.916 3.782 1198.26
57.223 -134.254 3.487 1679.91
57.223 -132.593 3.484 3710.53
57.223 -130.932 3.258 2906.16
57.223 -129.271 3.175 3328.12
57.223 -127.609 3.231 3516.33
57.223 -125.948 3.107 5555.04
57.223 -124.287 2.996 5027.77
57.223 -122.626 2.980 4263.39
57.223 -120.964 2.988 3186.08
57.223 -119.303 3.055 3782.87
57.223 -117.642 3.053 4157.87
57.223 -115.981 3.063 7046.10
57.223 -114.319 3.158 12035.94
57.223 -112.658 3.209 15477.11
57.223 -110.997 3.216 14015.14
57.223 -109.336 3.101 9730.88
57.223 -107.674 2.944 7115.54
57.223 -106.013 2.965 5795.62
57.223 -104.352 3.078 5125.16
57.223 -102.691 3.230 5947.48
57.223 -101.029 3.117 4353.41
57.223 -99.368 3.105 4594.42
57.223 -97.707 3.105 5973.00
57.223 -96.046 3.150 3025.83
57.223 -94.384 3.169 2566.42
57.223 -92.723 3.113 2878.12
57.223 -91.062 3.034 1526.01
57.223 -89.401 3.048 1851.04
57.223 -87.739 3.065 1897.02
57.223 -86.078 3.087 1708.33
57.223 -84.417 3.149 2042.88
57.223 -82.756 3.133 1736.54
57.223 -81.094 3.098 1952.73
57.223 -79.433 3.091 1684.27
57.223 -77.772 3.159 1106.81
57.223 -76.111 3.225 932.02
57.223 -74.449 3.192 1132.86
57.223 -72.788 3.178 868.06
57.223 -71.127 3.188 607.41
57.223 -69.466 3.198 184.75
57.223 -67.805 3.194 619.21
57.223 -66.143 3.177 308.71
57.223 -64.482 3.120 200.83
57.223 -62.821 3.088 194.50
57.223 -61.160 3.079 201.74
57.223 -59.498 3.078 189.75
57.223 -57.837 3.088 31.60
57.223 -56.176 3.087 18.21
57.223 -54.515 3.104 190.58
57.223 -52.853 3.273 9.99
58.122 -147.051 3.751 590.38
58.122 -145.348 3.783 84.91
58.122 -143.645 3.835 323.66
58.122 -141.942 3.910 1016.92
58.122 -140.239 4.021 1197.31
58.122 -138.537 3.937 1307.66
58.122 -136.834 3.614 541.23
58.122 -135.131 3.359 2410.94
58.122 -133.428 3.355 4170.98
58.122 -131.725 3.199 3237.89
58.122 -130.022 3.171 4358.54
58.122 -128.319 3.286 2910.50
58.122 -126.616 3.166 5174.28
58.122 -124.913 2.997 5561.05
58.122 -123.210 2.981 3689.46
58.122 -121.507 2.991 4263.95
58.122 -119.804 3.096 3677.45
58.122 -118.101 3.113 5698.67
58.122 -116.398 3.077 9989.94
58.122 -114.695 3.136 16821.67
58.122 -112.992 3.242 15681.95
58.122 -111.289 3.313 11734.38
58.122 -109.586 3.173 6304.62
58.122 -107.883 3.036 5873.87
58.122 -106.180 2.992 5219.11
58.122 -104.477 3.079 4700.09
58.122 -102.774 3.224 4975.54
58.122 -101.071 3.218 4331.67
58.122 -99.368 3.112 4813.89
58.122 -97.665 3.114 6430.18
58.122 -95.962 3.188 4506.45
58.122 -94.259 3.228 3243.91
58.122 -92.556 3.155 1862.74
58.122 -90.853 3.087 1800.11
58.122 -89.150 3.071 1564.32
58.122 -87.447 3.071 2194.68
58.122 -85.744 3.097 1916.10
58.122 -84.041 3.159 2180.81
58.122 -82.339 3.159 1757.25
58.122 -80.636 3.138 1366.62
58.122 -78.933 3.140 1336.18
58.122 -77.230 3.191 812.17
58.122 -75.527 3.234 1401.59
58.122 -73.824 3.170 1243.65
58.122 -72.121 3.134 489.55
58.122 -70.418 3.136 359.50
58.122 -68.715 3.154 230.34
58.122 -67.012 3.172 445.57
58.122 -65.309 3.153 144.86
58.122 -63.606 3.113 176.82
58.122 -61.903 3.095 51.95
58.122 -60.200 3.083 130.90
58.122 -58.497 3.080 120.54
58.122 -56.794 3.075 180.40
58.122 -55.091 3.062 180.00
58.122 -53.388 3.089 61.38
58.122 -51.685 3.283 188.90
59.022 -148.292 3.800 773.75
59.022 -146.545 3.848 98.33
59.022 -144.798 3.908 875.08
59.022 -143.050 3.979 1196.74
59.022 -141.303 4.000 1197.57
59.022 -139.556 3.804 807.21
59.022 -137.808 3.477 650.20
59.022 -136.061 3.274 4297.82
59.022 -134.314 3.319 5787.77
59.022 -132.567 3.219 3304.15
59.022 -130.819 3.217 3990.33
59.022 -129.072 3.322 3152.44
59.022 -127.325 3.191 5650.26
59.022 -125.577 3.034 6267.43
59.022 -123.830 3.056 4488.26
59.022 -122.083 3.056 3978.00
59.022 -120.336 3.121 4131.57
59.022 -118.588 3.113 8113.73
59.022 -116.841 3.107 16327.83
59.022 -115.094 3.138 18967.35
59.022 -113.346 3.285 12874.25
59.022 -111.599 3.325 7362.54
59.022 -109.852 3.221 4697.32
59.022 -108.105 3.093 5291.67
59.022 -106.357 3.038 3399.65
59.022 -104.610 3.052 4912.23
59.022 -102.863 3.169 4377.26
59.022 -101.115 3.304 4508.64
59.022 -99.368 3.144 5517.20
59.022 -97.621 3.158 3869.78
59.022 -95.874 3.182 5992.30
59.022 -94.126 3.245 3000.02
59.022 -92.379 3.187 1207.39
59.022 -90.632 3.138 1091.87
59.022 -88.884 3.094 1260.68
59.022 -87.137 3.092 2671.31
59.022 -85.390 3.124 1875.13
59.022 -83.643 3.177 2234.33
59.022 -81.895 3.162 1562.82
59.022 -80.148 3.149 962.05
59.022 -78.401 3.149 1435.52
59.022 -76.654 3.184 1104.88
59.022 -74.906 3.223 1007.97
59.022 -73.159 3.163 1044.97
59.022 -71.412 3.123 570.89
59.022 -69.664 3.136 108.50
59.022 -67.917 3.162 369.64
59.022 -66.170 3.159 229.63
59.022 -64.423 3.138 104.89
59.022 -62.675 3.123 11.99
59.022 -60.928 3.118 51.95
59.022 -59.181 3.112 60.94
59.022 -57.433 3.103 44.96
59.022 -55.686 3.086 149.89
59.022 -53.939 3.071 101.22
59.022 -52.192 3.088 142.05
59.022 -50.444 3.242 181.26
59.921 -149.612 3.616 933.81
59.921 -147.818 3.680 437.10
59.921 -146.023 3.786 1013.51
59.921 -144.229 3.856 1406.54
59.921 -142.434 3.807 1054.13
59.921 -140.640 3.565 423.07
59.921 -138.845 3.320 1540.78
59.921 -137.051 3.272 2247.00
59.921 -135.257 3.351 3474.85
59.921 -133.462 3.277 3551.24
59.921 -131.668 3.289 3403.42
59.921 -129.873 3.335 3549.27
59.921 -128.079 3.244 4898.52
59.921 -126.284 3.100 6808.54
59.921 -124.490 3.117 6109.32
59.921 -122.696 3.135 3219.21
59.921 -120.901 3.144 5172.68
59.921 -119.107 3.129 14377.08
59.921 -117.312 3.079 22084.74
59.921 -115.518 3.134 14287.13
59.921 -113.724 3.232 7519.20
59.921 -111.929 3.290 6218.22
59.921 -110.135 3.247 4987.10
59.921 -108.340 3.184 3716.57
59.921 -106.546 3.127 3500.58
59.921 -104.751 3.047 5529.19
59.921 -102.957 3.068 5544.15
59.921 -101.163 3.249 4276.66
59.921 -99.368 3.200 3987.86
59.921 -97.574 3.131 5046.25
59.921 -95.779 3.132 5230.11
59.921 -93.985 3.197 2437.51
59.921 -92.191 3.176 1135.84
59.921 -90.396 3.153 1396.57
59.921 -88.602 3.129 1093.88
59.921 -86.807 3.126 2298.64
59.921 -85.013 3.129 2267.79
59.921 -83.218 3.161 2641.32
59.921 -81.424 3.135 1494.42
59.921 -79.630 3.131 1283.66
59.921 -77.835 3.141 1203.81
59.921 -76.041 3.170 737.27
59.921 -74.246 3.197 1408.22
59.921 -72.452 3.163 645.98
59.921 -70.657 3.151 329.63
59.921 -68.863 3.161 172.82
59.921 -67.069 3.173 344.67
59.921 -65.274 3.150 120.88
59.921 -63.480 3.128 64.93
59.921 -61.685 3.121 0.00
59.921 -59.891 3.121 0.00
59.921 -58.097 3.120 14.99
59.921 -56.302 3.116 75.93
59.921 -54.508 3.109 21.98
59.921 -52.713 3.102 76.94
59.921 -50.919 3.120 163.27
59.921 -49.124 3.218 255.03
60.820 -151.018 3.375 502.74
60.820 -149.173 3.398 1680.53
60.820 -147.329 3.513 1296.13
60.820 -145.484 3.551 2201.09
60.820 -143.639 3.484 1146.65
60.820 -141.795 3.287 406.23
60.820 -139.950 3.161 1591.69
60.820 -138.106 3.205 1238.58
60.820 -136.261 3.252 2370.88
60.820 -134.416 3.268 4127.11
60.820 -132.572 3.326 3677.39
60.820 -130.727 3.306 3437.74
60.820 -128.882 3.253 4243.84
60.820 -127.038 3.106 7713.77
60.820 -125.193 3.090 5410.48
60.820 -123.348 3.107 3753.25
60.820 -121.504 3.088 10662.69
60.820 -119.659 3.094 26542.42
60.820 -117.815 3.113 17174.88
60.820 -115.970 3.140 7155.58
60.820 -114.125 3.177 6911.67
60.820 -112.281 3.206 4846.77
60.820 -110.436 3.229 4618.62
60.820 -108.591 3.219 4354.64
60.820 -106.747 3.208 4931.76
60.820 -104.902 3.143 3714.49
60.820 -103.057 3.058 3623.44
60.820 -101.213 3.104 4636.39
60.820 -99.368 3.229 4278.00
60.820 -97.524 3.091 4553.24
60.820 -95.679 3.080 2989.31
60.820 -93.834 3.133 5934.21
60.820 -91.990 3.181 1365.58
60.820 -90.145 3.183 1436.56
60.820 -88.300 3.154 1136.82
60.820 -86.456 3.143 2660.28
60.820 -84.611 3.098 3161.11
60.820 -82.766 3.110 2401.44
60.820 -80.922 3.111 735.25
60.820 -79.077 3.125 1564.67
60.820 -77.233 3.128 1169.86
60.820 -75.388 3.138 930.80
60.820 -73.543 3.172 1093.84
60.820 -71.699 3.199 528.43
60.820 -69.854 3.190 207.76
60.820 -68.009 3.179 426.59
60.820 -66.165 3.158 175.83
60.820 -64.320 3.134 100.89
60.820 -62.475 3.122 0.00
60.820 -60.631 3.117 0.00
60.820 -58.786 3.120 0.00
60.820 -56.942 3.124 0.00
60.820 -55.097 3.128 0.00
60.820 -53.252 3.131 54.95
60.820 -51.408 3.137 59.94
60.820 -49.563 3.154 0.00
60.820 -47.718 3.198 223.47
61.720 -152.518 3.256 481.75
61.720 -150.620 3.265 525.89
61.720 -148.722 3.329 2789.89
61.720 -146.824 3.327 2590.10
61.720 -144.926 3.217 2527.19
61.720 -143.027 3.081 1951.66
61.720 -141.129 3.038 1613.89
61.720 -139.231 3.094 1552.77
61.720 -137.333 3.113 2457.38
61.720 -135.434 3.185 4143.96
61.720 -133.536 3.286 3532.61
61.720 -131.638 3.232 5321.02
61.720 -129.740 3.177 3915.67
61.720 -127.842 3.050 7848.48
61.720 -125.943 3.071 4664.48
61.720 -124.045 3.088 6527.22
61.720 -122.147 3.047 31650.85
61.720 -120.249 3.093 21876.34
61.720 -118.350 3.157 7404.51
61.720 -116.452 3.184 5143.01
61.720 -114.554 3.203 5371.98
61.720 -112.656 3.171 5072.68
61.720 -110.758 3.177 5395.32
61.720 -108.859 3.222 4834.04
61.720 -106.961 3.286 3564.95
61.720 -105.063 3.249 2995.93
61.720 -103.165 3.102 3079.12
61.720 -101.266 3.011 3745.16
61.720 -99.368 3.159 4109.28
61.720 -97.470 3.140 4296.32
61.720 -95.572 3.142 3310.14
61.720 -93.674 3.122 4602.39
61.720 -91.775 3.193 3264.65
61.720 -89.877 3.213 1589.39
61.720 -87.979 3.163 1639.31
61.720 -86.081 3.148 3085.89
61.720 -84.182 3.095 2806.23
61.720 -82.284 3.118 1284.68
61.720 -80.386 3.123 881.11
61.720 -78.488 3.120 1711.55
61.720 -76.590 3.106 912.00
61.720 -74.691 3.118 853.14
61.720 -72.793 3.166 758.18
61.720 -70.895 3.240 591.46
61.720 -68.997 3.216 318.67
61.720 -67.098 3.176 313.70
61.720 -65.200 3.142 130.87
61.720 -63.302 3.127 13.99
61.720 -61.404 3.119 0.00
61.720 -59.505 3.119 0.00
61.720 -57.607 3.128 0.00
61.720 -55.709 3.140 0.00
61.720 -53.811 3.151 0.00
61.720 -51.913 3.155 0.00
61.720 -50.014 3.153 123.86
61.720 -48.116 3.155 224.75
61.720 -46.218 3.166 102.89
62.619 -154.123 3.183 285.98
62.619 -152.167 3.184 598.14
62.619 -150.212 3.240 669.97
62.619 -148.256 3.245 1669.01
62.619 -146.301 3.169 2636.24
62.619 -144.345 3.064 3518.16
62.619 -142.390 3.048 2726.71
62.619 -140.434 3.051 2777.99
62.619 -138.479 3.033 4507.48
62.619 -136.523 3.097 4394.75
62.619 -134.567 3.203 4257.32
62.619 -132.612 3.082 5617.87
62.619 -130.656 3.006 5975.73
62.619 -128.701 2.957 6692.40
62.619 -126.745 3.022 4886.55
62.619 -124.790 3.063 35372.48
62.619 -122.834 3.010 29744.20
62.619 -120.879 3.097 7826.45
62.619 -118.923 3.212 5136.81
62.619 -116.968 3.246 5442.90
62.619 -115.012 3.218 6170.11
62.619 -113.057 3.178 4231.73
62.619 -111.101 3.177 4605.84
62.619 -109.146 3.220 4979.66
62.619 -107.190 3.260 3647.40
62.619 -105.235 3.263 2968.98
62.619 -103.279 3.174 2184.22
62.619 -101.324 3.035 2441.40
62.619 -99.368 3.023 3172.59
62.619 -97.413 3.156 3509.13
62.619 -95.457 3.151 4766.37
62.619 -93.502 3.127 2716.25
62.619 -91.546 3.134 6983.20
62.619 -89.591 3.203 1591.66
62.619 -87.635 3.184 2340.61
62.619 -85.680 3.142 3542.74
62.619 -83.724 3.103 2037.89
62.619 -81.769 3.141 1364.03
62.619 -79.813 3.148 814.37
62.619 -77.858 3.132 1348.47
62.619 -75.902 3.112 938.02
62.619 -73.946 3.110 1198.76
62.619 -71.991 3.170 431.55
62.619 -70.035 3.257 499.43
62.619 -68.080 3.223 435.58
62.619 -66.124 3.160 180.82
62.619 -64.169 3.130 61.94
62.619 -62.213 3.121 0.00
62.619 -60.258 3.118 0.00
62.619 -58.302 3.122 0.00
62.619 -56.347 3.133 0.00
62.619 -54.391 3.144 124.14
62.619 -52.436 3.154 126.85
62.619 -50.480 3.156 133.84
62.619 -48.525 3.154 33.96
62.619 -46.569 3.148 0.00
62.619 -44.614 3.142 51.95
63.518 -155.841 3.132 103.90
63.518 -153.824 3.134 153.97
63.518 -151.807 3.181 1482.66
63.518 -149.790 3.200 3239.33
63.518 -147.773 3.158 3267.09
63.518 -145.757 3.095 3636.87
63.518 -143.740 3.109 3640.66
63.518 -141.723 3.100 3249.54
63.518 -139.706 3.072 5080.62
63.518 -137.689 3.082 6492.05
63.518 -135.672 3.143 6713.40
63.518 -133.655 3.001 8053.54
63.518 -131.638 2.936 8115.96
63.518 -129.622 2.964 8110.98
63.518 -127.605 3.075 8240.48
63.518 -125.588 3.077 37643.25
63.518 -123.571 3.081 9026.22
63.518 -121.554 3.110 5791.52
63.518 -119.537 3.181 5307.92
63.518 -117.520 3.263 4878.75
63.518 -115.503 3.252 3517.93
63.518 -113.486 3.173 2682.99
63.518 -111.470 3.162 3689.68
63.518 -109.453 3.196 4825.67
63.518 -107.436 3.229 3011.50
63.518 -105.419 3.248 1743.44
63.518 -103.402 3.203 1797.55
63.518 -101.385 3.096 1759.97
63.518 -99.368 2.978 2622.75
63.518 -97.351 3.073 3293.42
63.518 -95.334 3.067 4459.55
63.518 -93.318 3.093 3022.14
63.518 -91.301 3.100 6007.04
63.518 -89.284 3.153 5525.83
63.518 -87.267 3.183 4476.51
63.518 -85.250 3.118 2876.23
63.518 -83.233 3.104 1540.75
63.518 -81.216 3.171 1228.74
63.518 -79.199 3.195 829.15
63.518 -77.182 3.171 1476.45
63.518 -75.166 3.140 1043.93
63.518 -73.149 3.133 1126.79
63.518 -71.132 3.187 862.16
63.518 -69.115 3.248 985.29
63.518 -67.098 3.198 290.72
63.518 -65.081 3.143 103.89
63.518 -63.064 3.124 0.00
63.518 -61.047 3.118 0.00
63.518 -59.030 3.118 0.00
63.518 -57.014 3.121 0.00
63.518 -54.997 3.129 0.00
63.518 -52.980 3.139 0.00
63.518 -50.963 3.145 0.00
63.518 -48.946 3.142 0.00
63.518 -46.929 3.136 0.00
63.518 -44.912 3.131 0.00
63.518 -42.895 3.124 0.00
64.418 -157.686 3.113 87.92
64.418 -155.603 3.114 30.97
64.418 -153.520 3.142 56.94
64.418 -151.437 3.171 1430.72
64.418 -149.355 3.169 2837.40
64.418 -147.272 3.143 3778.14
64.418 -145.189 3.134 4253.23
64.418 -143.106 3.105 4078.77
64.418 -141.023 3.115 4710.08
64.418 -138.941 3.140 7536.09
64.418 -136.858 3.085 7792.87
64.418 -134.775 3.008 8969.60
64.418 -132.692 3.045 8440.28
64.418 -130.610 3.128 7969.79
64.418 -128.527 3.270 12702.59
64.418 -126.444 3.254 8166.36
64.418 -124.361 3.177 5948.21
64.418 -122.279 3.162 5351.05
64.418 -120.196 3.191 4051.62
64.418 -118.113 3.224 2578.74
64.418 -116.030 3.243 2823.20
64.418 -113.948 3.221 2791.27
64.418 -111.865 3.199 3077.96
64.418 -109.782 3.174 3703.09
64.418 -107.699 3.191 1774.87
64.418 -105.616 3.230 1996.36
64.418 -103.534 3.258 2082.93
64.418 -101.451 3.231 2226.64
64.418 -99.368 3.123 2217.82
64.418 -97.285 3.015 3333.93
64.418 -95.203 2.995 3485.32
64.418 -93.120 2.988 3607.06
64.418 -91.037 3.022 2850.54
64.418 -88.954 3.095 10284.82
64.418 -86.872 3.200 8640.71
64.418 -84.789 3.137 1810.68
64.418 -82.706 3.122 1288.82
64.418 -80.623 3.197 1317.74
64.418 -78.541 3.210 989.06
64.418 -76.458 3.171 1272.79
64.418 -74.375 3.145 1368.71
64.418 -72.292 3.153 979.08
64.418 -70.210 3.193 411.63
64.418 -68.127 3.206 654.36
64.418 -66.044 3.160 202.15
64.418 -63.961 3.131 8.99
64.418 -61.878 3.119 0.00
64.418 -59.796 3.117 0.00
64.418 -57.713 3.119 0.00
64.418 -55.630 3.119 0.00
64.418 -53.547 3.120 0.00
64.418 -51.465 3.124 0.00
64.418 -49.382 3.126 0.00
64.418 -47.299 3.123 0.00
64.418 -45.216 3.123 14.23
64.418 -43.134 3.128 458.53
64.418 -41.051 3.128 19.98
65.317 -159.670 3.118 0.00
65.317 -157.516 3.117 45.96
65.317 -155.363 3.124 73.93
65.317 -153.209 3.136 1.00
65.317 -151.055 3.153 747.97
65.317 -148.902 3.153 1646.09
65.317 -146.748 3.127 3004.41
65.317 -144.595 3.118 4923.35
65.317 -142.441 3.150 4593.33
65.317 -140.287 3.186 8046.85
65.317 -138.134 3.112 5811.33
65.317 -135.980 3.095 3988.14
65.317 -133.826 3.153 7680.68
65.317 -131.673 3.207 6010.60
65.317 -129.519 3.261 6572.24
65.317 -127.365 3.229 3756.87
65.317 -125.212 3.173 2692.00
65.317 -123.058 3.163 3069.03
65.317 -120.905 3.152 3139.13
65.317 -118.751 3.157 3108.18
65.317 -116.597 3.202 1969.66
65.317 -114.444 3.225 2141.92
65.317 -112.290 3.211 2782.79
65.317 -110.136 3.182 1672.04
65.317 -107.983 3.172 1663.03
65.317 -105.829 3.197 2091.32
65.317 -103.675 3.247 1723.28
65.317 -101.522 3.263 1757.12
65.317 -99.368 3.224 2093.84
65.317 -97.215 3.074 2499.71
65.317 -95.061 3.010 3460.65
65.317 -92.907 2.911 4951.20
65.317 -90.754 3.011 2944.68
65.317 -88.600 3.141 2777.09
65.317 -86.446 3.234 1503.08
65.317 -84.293 3.177 863.60
65.317 -82.139 3.138 1002.52
65.317 -79.985 3.188 1166.79
65.317 -77.832 3.192 1190.77
65.317 -75.678 3.154 1216.75
65.317 -73.525 3.139 1270.68
65.317 -71.371 3.163 585.39
65.317 -69.217 3.193 544.46
65.317 -67.064 3.169 257.75
65.317 -64.910 3.139 76.26
65.317 -62.756 3.121 0.00
65.317 -60.603 3.116 0.00
65.317 -58.449 3.119 0.00
65.317 -56.295 3.122 0.00
65.317 -54.142 3.122 0.00
65.317 -51.988 3.119 0.00
65.317 -49.835 3.119 0.00
65.317 -47.681 3.119 0.00
65.317 -45.527 3.119 0.00
65.317 -43.374 3.124 0.00
65.317 -41.220 3.135 142.91
65.317 -39.066 3.140 590.55
66.216 -161.810 3.133 921.27
66.216 -159.580 3.130 353.68
66.216 -157.350 3.122 364.67
66.216 -155.120 3.119 449.59
66.216 -152.890 3.127 375.65
66.216 -150.660 3.134 733.47
66.216 -148.430 3.125 1660.00
66.216 -146.200 3.128 863.57
66.216 -143.970 3.170 4102.49
66.216 -141.740 3.164 12512.73
66.216 -139.510 3.122 6515.42
66.216 -137.279 3.107 6852.71
66.216 -135.049 3.159 9685.23
66.216 -132.819 3.155 5962.70
66.216 -130.589 3.183 5082.84
66.216 -128.359 3.140 4047.72
66.216 -126.129 3.150 3922.02
66.216 -123.899 3.167 2840.65
66.216 -121.669 3.153 2570.12
66.216 -119.439 3.151 2905.54
66.216 -117.209 3.151 2949.47
66.216 -114.979 3.163 2030.61
66.216 -112.749 3.171 1915.23
66.216 -110.519 3.163 1566.71
66.216 -108.288 3.149 1856.88
66.216 -106.058 3.147 1767.06
66.216 -103.828 3.172 2478.74
66.216 -101.598 3.203 2287.70
66.216 -99.368 3.217 2378.74
66.216 -97.138 3.166 3072.62
66.216 -94.908 3.045 4029.49
66.216 -92.678 2.958 5106.94
66.216 -90.448 3.070 2210.10
66.216 -88.218 3.216 1077.20
66.216 -85.988 3.286 1149.37
66.216 -83.758 3.227 1073.93
66.216 -81.528 3.155 1318.39
66.216 -79.298 3.166 981.05
66.216 -77.067 3.166 1479.31
66.216 -74.837 3.143 1197.29
66.216 -72.607 3.145 935.01
66.216 -70.377 3.177 522.44
66.216 -68.147 3.180 618.41
66.216 -65.917 3.147 206.80
66.216 -63.687 3.127 20.98
66.216 -61.457 3.117 0.00
66.216 -59.227 3.120 0.00
66.216 -56.997 3.125 0.00
66.216 -54.767 3.128 0.00
66.216 -52.537 3.126 0.00
66.216 -50.307 3.123 0.00
66.216 -48.077 3.121 0.00
66.216 -45.846 3.120 0.00
66.216 -43.616 3.120 0.00
66.216 -41.386 3.123 0.00
66.216 -39.156 3.129 0.00
66.216 -36.926 3.135 0.00
67.116 -164.125 3.146 310.80
67.116 -161.812 3.141 219.89
67.116 -159.499 3.127 191.91
67.116 -157.186 3.119 0.00
67.116 -154.874 3.117 84.93
67.116 -152.561 3.123 173.86
67.116 -150.248 3.127 948.08
67.116 -147.935 3.136 2605.97
67.116 -145.623 3.154 1534.00
67.116 -143.310 3.066 1458.08
67.116 -140.997 2.986 2919.41
67.116 -138.685 2.963 4329.19
67.116 -136.372 3.002 2623.22
67.116 -134.059 2.989 4002.50
67.116 -131.746 3.076 3544.31
67.116 -129.434 3.109 1705.17
67.116 -127.121 3.146 1528.15
67.116 -124.808 3.183 1428.55
67.116 -122.495 3.214 1128.39
67.116 -120.183 3.210 787.00
67.116 -117.870 3.195 951.09
67.116 -115.557 3.179 1230.76
67.116 -113.245 3.179 1201.78
67.116 -110.932 3.181 1587.43
67.116 -108.619 3.183 1579.39
67.116 -106.306 3.181 1948.29
67.116 -103.994 3.193 2096.94
67.116 -101.681 3.232 2468.25
67.116 -99.368 3.259 2390.24
67.116 -97.055 3.278 2296.84
67.116 -94.743 3.165 2329.13
67.116 -92.430 3.087 2804.44
67.116 -90.117 3.081 3321.09
67.116 -87.805 3.206 1315.90
67.116 -85.492 3.250 911.00
67.116 -83.179 3.203 887.10
67.116 -80.866 3.160 1279.72
67.116 -78.554 3.154 878.07
67.116 -76.241 3.149 1695.28
67.116 -73.928 3.138 1528.46
67.116 -71.615 3.161 681.72
67.116 -69.303 3.189 655.39
67.116 -66.990 3.161 224.43
67.116 -64.677 3.140 13.51
67.116 -62.365 3.125 13.12
67.116 -60.052 3.124 12.86
67.116 -57.739 3.130 12.47
67.116 -55.426 3.134 12.34
67.116 -53.114 3.136 83.86
67.116 -50.801 3.132 61.77
67.116 -48.488 3.125 0.00
67.116 -46.176 3.122 0.00
67.116 -43.863 3.121 0.00
67.116 -41.550 3.122 0.00
67.116 -39.237 3.122 0.00
67.116 -36.925 3.121 0.00
67.116 -34.612 3.124 0.00
68.015 -166.634 3.139 15.99
68.015 -164.232 3.146 69.93
68.015 -161.829 3.140 64.95
68.015 -159.427 3.128 226.89
68.015 -157.025 3.119 228.89
68.015 -154.622 3.116 203.90
68.015 -152.220 3.114 65.94
68.015 -149.818 3.115 326.05
68.015 -147.415 3.109 1419.30
68.015 -145.013 3.003 1479.26
68.015 -142.611 2.912 2293.97
68.015 -140.208 2.917 2849.46
68.015 -137.806 2.933 1778.46
68.015 -135.404 2.958 4691.75
68.015 -133.001 3.077 2369.11
68.015 -130.599 3.115 936.31
68.015 -128.196 3.146 424.11
68.015 -125.794 3.174 454.14
68.015 -123.392 3.204 660.39
68.015 -120.989 3.229 781.11
68.015 -118.587 3.240 790.07
68.015 -116.185 3.246 876.86
68.015 -113.782 3.254 1224.78
68.015 -111.380 3.251 1270.70
68.015 -108.978 3.237 1358.81
68.015 -106.575 3.239 1412.45
68.015 -104.173 3.243 1372.30
68.015 -101.771 3.278 1456.26
68.015 -99.368 3.308 1844.77
68.015 -96.966 3.327 1700.14
68.015 -94.563 3.301 2162.20
68.015 -92.161 3.184 3039.39
68.015 -89.759 3.113 3789.31
68.015 -87.356 3.131 1891.02
68.015 -84.954 3.182 1472.37
68.015 -82.552 3.173 828.16
68.015 -80.149 3.156 1557.43
68.015 -77.747 3.151 868.08
68.015 -75.345 3.149 1655.30
68.015 -72.942 3.149 1296.64
68.015 -70.540 3.179 635.33
68.015 -68.138 3.184 465.55
68.015 -65.735 3.157 41.96
68.015 -63.333 3.137 0.00
68.015 -60.931 3.129 0.00
68.015 -58.528 3.134 49.94
68.015 -56.126 3.139 82.90
68.015 -53.723 3.139 80.91
68.015 -51.321 3.134 8.99
68.015 -48.919 3.128 0.00
68.015 -46.516 3.123 0.00
68.015 -44.114 3.121 0.00
68.015 -41.712 3.122 0.00
68.015 -39.309 3.122 0.00
68.015 -36.907 3.118 0.00
68.015 -34.505 3.108 0.00
68.015 -32.102 3.099 0.00
68.915 -169.364 3.099 0.00
68.915 -166.864 3.107 0.00
68.915 -164.364 3.121 35.97
68.915 -161.865 3.125 69.93
68.915 -159.365 3.118 17.98
68.915 -156.865 3.106 29.99
68.915 -154.365 3.090 237.88
68.915 -151.865 3.075 342.78
68.915 -149.365 3.052 660.80
68.915 -146.865 2.979 1391.95
68.915 -144.366 2.913 3812.86
68.915 -141.866 2.940 3363.55
68.915 -139.366 2.978 496.07
68.915 -136.866 3.041 243.31
68.915 -134.366 3.119 244.80
68.915 -131.866 3.148 642.73
68.915 -129.366 3.139 872.71
68.915 -126.867 3.139 471.65
68.915 -124.367 3.148 345.71
68.915 -121.867 3.174 586.70
68.915 -119.367 3.209 697.74
68.915 -116.867 3.240 576.46
68.915 -114.367 3.258 481.57
68.915 -111.867 3.271 614.44
68.915 -109.368 3.273 677.31
68.915 -106.868 3.283 922.12
68.915 -104.368 3.302 1018.15
68.915 -101.868 3.315 1081.99
68.915 -99.368 3.335 1460.83
68.915 -96.868 3.331 1709.90
68.915 -94.368 3.337 1990.78
68.915 -91.869 3.309 2695.65
68.915 -89.369 3.260 3967.13
68.915 -86.869 3.158 2528.74
68.915 -84.369 3.152 2219.35
68.915 -81.869 3.160 969.40
68.915 -79.369 3.146 1494.48
68.915 -76.870 3.153 1328.62
68.915 -74.370 3.168 1798.15
68.915 -71.870 3.175 860.09
68.915 -69.370 3.201 793.20
68.915 -66.870 3.178 113.89
68.915 -64.370 3.152 65.92
68.915 -61.870 3.136 85.90
68.915 -59.371 3.134 85.90
68.915 -56.871 3.136 33.96
68.915 -54.371 3.133 0.00
68.915 -51.871 3.129 0.00
68.915 -49.371 3.126 0.00
68.915 -46.871 3.122 0.00
68.915 -44.371 3.121 0.00
68.915 -41.872 3.121 0.00
68.915 -39.372 3.121 0.00
68.915 -36.872 3.121 0.00
68.915 -34.372 3.113 0.00
68.915 -31.872 3.093 85.92
68.915 -29.372 3.071 163.85
69.814 -172.344 3.048 281.72
69.814 -169.737 3.050 96.90
69.814 -167.131 3.071 100.89
69.814 -164.525 3.082 105.89
69.814 -161.919 3.087 165.83
69.814 -159.312 3.084 188.81
69.814 -156.706 3.072 126.87
69.814 -154.100 3.068 112.89
69.814 -151.494 3.060 125.88
69.814 -148.887 3.017 444.75
69.814 -146.281 2.976 2715.72
69.814 -143.675 3.015 1364.28
69.814 -141.069 3.060 178.16
69.814 -138.462 3.107 141.42
69.814 -135.856 3.144 7.13
69.814 -133.250 3.151 31.82
69.814 -130.643 3.140 147.62
69.814 -128.037 3.131 497.50
69.814 -125.431 3.132 556.75
69.814 -122.825 3.150 383.95
69.814 -120.218 3.173 561.88
69.814 -117.612 3.186 648.59
69.814 -115.006 3.195 517.50
69.814 -112.400 3.211 399.63
69.814 -109.793 3.244 802.18
69.814 -107.187 3.284 754.26
69.814 -104.581 3.319 998.02
69.814 -101.974 3.355 1002.74
69.814 -99.368 3.379 1218.40
69.814 -96.762 3.370 1888.68
69.814 -94.156 3.363 2044.16
69.814 -91.549 3.472 2412.13
69.814 -88.943 3.437 3790.54
69.814 -86.337 3.267 4405.25
69.814 -83.731 3.205 1623.20
69.814 -81.124 3.189 1125.84
69.814 -78.518 3.161 1642.32
69.814 -75.912 3.164 1793.15
69.814 -73.306 3.185 1894.01
69.814 -70.699 3.198 876.10
69.814 -68.093 3.201 502.47
69.814 -65.487 3.170 88.90
69.814 -62.880 3.137 22.97
69.814 -60.274 3.126 0.00
69.814 -57.668 3.128 0.00
69.814 -55.062 3.127 0.00
69.814 -52.455 3.124 0.00
69.814 -49.849 3.121 0.00
69.814 -47.243 3.120 0.00
69.814 -44.637 3.120 0.00
69.814 -42.030 3.120 0.00
69.814 -39.424 3.121 0.00
69.814 -36.818 3.122 0.00
69.814 -34.211 3.122 0.00
69.814 -31.605 3.119 0.00
69.814 -28.999 3.109 0.00
69.814 -26.393 3.092 0.00
70.713 -175.608 3.066 65.94
70.713 -172.885 3.064 88.92
70.713 -170.162 3.072 92.91
70.713 -167.439 3.076 96.91
70.713 -164.717 3.079 100.91
70.713 -161.994 3.084 106.90
70.713 -159.271 3.094 182.83
70.713 -156.548 3.108 118.89
70.713 -153.825 3.116 0.00
70.713 -151.102 3.103 0.00
70.713 -148.379 3.077 0.00
70.713 -145.657 3.094 78.44
70.713 -142.934 3.111 86.93
70.713 -140.211 3.122 77.14
70.713 -137.488 3.128 210.40
70.713 -134.765 3.128 80.96
70.713 -132.042 3.130 8.74
70.713 -129.320 3.134 69.08
70.713 -126.597 3.136 231.37
70.713 -123.874 3.133 362.86
70.713 -121.151 3.129 125.78
70.713 -118.428 3.112 238.44
70.713 -115.705 3.098 900.14
70.713 -112.982 3.133 919.10
70.713 -110.260 3.211 438.58
70.713 -107.537 3.281 525.51
70.713 -104.814 3.308 926.09
70.713 -102.091 3.348 1234.78
70.713 -99.368 3.396 994.60
70.713 -96.645 3.404 1332.07
70.713 -93.923 3.385 2406.09
70.713 -91.200 3.482 2606.53
70.713 -88.477 3.502 3372.50
70.713 -85.754 3.445 5063.34
70.713 -83.031 3.330 1560.09
70.713 -80.308 3.253 1357.85
70.713 -77.585 3.178 1965.98
70.713 -74.863 3.165 2434.49
70.713 -72.140 3.168 1627.30
70.713 -69.417 3.187 807.48
70.713 -66.694 3.174 26.97
70.713 -63.971 3.139 0.00
70.713 -61.248 3.119 0.00
70.713 -58.525 3.119 0.00
70.713 -55.803 3.121 0.00
70.713 -53.080 3.120 0.00
70.713 -50.357 3.120 0.00
70.713 -47.634 3.120 0.00
70.713 -44.911 3.121 0.00
70.713 -42.188 3.121 0.00
70.713 -39.466 3.121 0.00
70.713 -36.743 3.121 0.00
70.713 -34.020 3.121 0.00
70.713 -31.297 3.122 0.00
70.713 -28.574 3.123 0.00
70.713 -25.851 3.122 0.00
70.713 -23.128 3.116 0.00
71.613 -179.198 3.106 0.00
71.613 -176.347 3.110 0.00
71.613 -173.496 3.109 0.00
71.613 -170.645 3.107 0.00
71.613 -167.794 3.106 0.00
71.613 -164.943 3.110 0.00
71.613 -162.092 3.118 0.00
71.613 -159.241 3.133 11.99
71.613 -156.390 3.150 72.93
71.613 -153.539 3.151 49.95
71.613 -150.688 3.137 0.00
71.613 -147.837 3.134 0.00
71.613 -144.985 3.131 12.99
71.613 -142.134 3.124 82.92
71.613 -139.283 3.115 60.27
71.613 -136.432 3.111 142.17
71.613 -133.581 3.118 225.69
71.613 -130.730 3.127 51.96
71.613 -127.879 3.130 15.57
71.613 -125.028 3.129 120.07
71.613 -122.177 3.111 350.69
71.613 -119.326 3.074 531.45
71.613 -116.475 3.073 185.71
71.613 -113.624 3.118 307.70
71.613 -110.773 3.187 522.47
71.613 -107.921 3.248 347.65
71.613 -105.070 3.281 260.76
71.613 -102.219 3.307 905.68
71.613 -99.368 3.371 847.72
71.613 -96.517 3.421 776.03
71.613 -93.666 3.425 1444.58
71.613 -90.815 3.499 2639.81
71.613 -87.964 3.561 2766.52
71.613 -85.113 3.543 4210.09
71.613 -82.262 3.452 3928.02
71.613 -79.411 3.343 1422.81
71.613 -76.560 3.197 1969.96
71.613 -73.708 3.154 3128.78
71.613 -70.857 3.164 1098.89
71.613 -68.006 3.182 115.88
71.613 -65.155 3.146 0.00
71.613 -62.304 3.115 0.00
71.613 -59.453 3.113 0.00
71.613 -56.602 3.118 0.00
71.613 -53.751 3.120 0.00
71.613 -50.900 3.121 0.00
71.613 -48.049 3.122 0.00
71.613 -45.198 3.123 0.00
71.613 -42.347 3.122 0.00
71.613 -39.496 3.122 0.00
71.613 -36.644 3.121 0.00
71.613 -33.793 3.121 0.00
71.613 -30.942 3.121 0.00
71.613 -28.091 3.121 0.00
71.613 -25.240 3.122 0.00
71.613 -22.389 3.123 0.00
71.613 -19.538 3.123 0.00
72.512 -177.180 3.124 0.00
72.512 -174.187 3.122 0.00
72.512 -171.194 3.122 0.00
72.512 -168.202 3.121 0.00
72.512 -165.209 3.123 0.00
72.512 -162.216 3.129 0.00
72.512 -159.223 3.137 0.00
72.512 -156.231 3.146 23.98
72.512 -153.238 3.151 74.93
72.512 -150.245 3.148 42.96
72.512 -147.252 3.140 0.00
72.512 -144.260 3.131 0.00
72.512 -141.267 3.123 31.97
72.512 -138.274 3.117 84.91
72.512 -135.281 3.115 39.96
72.512 -132.289 3.116 178.28
72.512 -129.296 3.122 215.56
72.512 -126.303 3.125 31.03
72.512 -123.310 3.119 34.50
72.512 -120.318 3.107 189.97
72.512 -117.325 3.102 441.65
72.512 -114.332 3.120 340.16
72.512 -111.339 3.152 186.49
72.512 -108.346 3.185 537.61
72.512 -105.354 3.221 550.01
72.512 -102.361 3.252 362.40
72.512 -99.368 3.310 956.02
72.512 -96.375 3.394 757.24
72.512 -93.383 3.452 1220.56
72.512 -90.390 3.546 1792.99
72.512 -87.397 3.611 2861.98
72.512 -84.404 3.660 3764.33
72.512 -81.412 3.673 6485.55
72.512 -78.419 3.537 1787.52
72.512 -75.426 3.286 3110.80
72.512 -72.433 3.138 2830.07
72.512 -69.441 3.145 526.48
72.512 -66.448 3.164 0.00
72.512 -63.455 3.124 0.00
72.512 -60.462 3.110 0.00
72.512 -57.470 3.118 0.00
72.512 -54.477 3.123 0.00
72.512 -51.484 3.123 0.00
72.512 -48.491 3.124 0.00
72.512 -45.499 3.125 0.00
72.512 -42.506 3.124 23.97
72.512 -39.513 3.123 55.99
72.512 -36.520 3.122 0.00
72.512 -33.527 3.121 0.00
72.512 -30.535 3.121 0.00
72.512 -27.542 3.121 0.00
72.512 -24.549 3.121 0.00
72.512 -21.556 3.121 0.00
72.512 -18.564 3.121 0.00
72.512 -15.571 3.122 0.00
73.411 -178.120 3.123 0.00
73.411 -174.970 3.123 0.00
73.411 -171.820 3.122 0.00
73.411 -168.670 3.121 0.00
73.411 -165.520 3.121 0.00
73.411 -162.370 3.123 0.00
73.411 -159.220 3.128 0.00
73.411 -156.070 3.135 0.00
73.411 -152.919 3.143 32.97
73.411 -149.769 3.148 75.93
73.411 -146.619 3.144 39.96
73.411 -143.469 3.138 0.00
73.411 -140.319 3.131 0.00
73.411 -137.169 3.124 45.95
73.411 -134.019 3.118 86.91
73.411 -130.869 3.116 51.95
73.411 -127.719 3.119 203.76
73.411 -124.569 3.125 204.77
73.411 -121.419 3.125 12.34
73.411 -118.269 3.125 24.77
73.411 -115.119 3.132 191.89
73.411 -111.969 3.132 448.10
73.411 -108.818 3.138 365.33
73.411 -105.668 3.164 448.79
73.411 -102.518 3.186 683.33
73.411 -99.368 3.218 707.26
73.411 -96.218 3.296 628.77
73.411 -93.068 3.416 1425.80
73.411 -89.918 3.581 1138.86
73.411 -86.768 3.705 1668.87
73.411 -83.618 3.838 3759.35
73.411 -80.468 4.041 6801.40
73.411 -77.318 3.877 5089.27
73.411 -74.168 3.488 4977.87
73.411 -71.018 3.203 1779.18
73.411 -67.867 3.150 4.99
73.411 -64.717 3.124 0.00
73.411 -61.567 3.110 0.00
73.411 -58.417 3.118 0.00
73.411 -55.267 3.125 0.00
73.411 -52.117 3.126 0.00
73.411 -48.967 3.125 7.99
73.411 -45.817 3.124 76.91
73.411 -42.667 3.124 74.91
