29.343 -81.829 2.915 16.21
29.343 -80.797 2.918 2.62
29.343 -79.765 2.917 0.00
29.343 -78.734 2.915 0.00
29.343 -77.702 2.915 0.00
29.343 -76.670 2.915 0.00
29.343 -75.639 2.915 0.00
29.343 -74.607 2.915 0.00
29.343 -73.575 2.915 0.00
29.343 -72.543 2.915 0.00
29.343 -71.512 2.915 0.00
29.343 -70.480 2.915 0.00
30.242 -128.517 2.915 0.00
30.242 -127.476 2.915 0.00
30.242 -126.435 2.915 0.00
30.242 -125.394 2.915 0.00
30.242 -124.353 2.915 0.00
30.242 -123.312 2.915 0.00
30.242 -122.271 2.915 0.00
30.242 -121.230 2.915 0.00
30.242 -120.189 2.915 0.00
30.242 -119.148 2.915 0.00
30.242 -118.107 2.915 0.00
30.242 -117.066 2.915 0.00
30.242 -116.025 2.915 0.00
30.242 -114.984 2.915 0.00
30.242 -113.943 2.915 0.00
30.242 -112.902 2.915 0.00
30.242 -111.861 2.915 0.00
30.242 -110.820 2.915 0.00
30.242 -109.779 2.915 0.00
30.242 -108.738 2.915 0.00
30.242 -107.697 2.915 0.00
30.242 -106.655 2.914 0.00
30.242 -105.614 2.921 0.00
30.242 -104.573 2.929 0.00
30.242 -103.532 2.927 0.00
30.242 -102.491 2.941 1.45
30.242 -101.450 2.927 0.00
30.242 -100.409 2.881 8.60
30.242 -99.368 2.867 141.79
30.242 -98.327 2.900 61.61
30.242 -97.286 2.933 0.00
30.242 -96.245 2.935 0.00
30.242 -95.204 2.928 0.00
30.242 -94.163 2.925 0.00
30.242 -93.122 2.918 0.00
30.242 -92.081 2.913 0.00
30.242 -91.040 2.914 0.00
30.242 -89.999 2.915 0.00
30.242 -88.958 2.916 0.00
30.242 -87.917 2.916 0.00
30.242 -86.876 2.915 0.00
30.242 -85.835 2.915 0.00
30.242 -84.794 2.917 0.00
30.242 -83.753 2.914 0.00
30.242 -82.712 2.901 9.12
30.242 -81.671 2.899 40.02
30.242 -80.629 2.915 0.00
30.242 -79.588 2.920 0.00
30.242 -78.547 2.916 0.00
30.242 -77.506 2.915 0.00
30.242 -76.465 2.915 0.00
30.242 -75.424 2.915 0.00
30.242 -74.383 2.915 0.00
30.242 -73.342 2.915 0.00
30.242 -72.301 2.915 0.00
30.242 -71.260 2.915 0.00
30.242 -70.219 2.915 0.00
31.141 -128.790 2.915 0.00
31.141 -127.739 2.915 0.00
31.141 -126.689 2.915 0.00
31.141 -125.638 2.915 0.00
31.141 -124.587 2.915 0.00
31.141 -123.536 2.915 0.00
31.141 -122.485 2.915 0.00
31.141 -121.435 2.915 0.00
31.141 -120.384 2.915 0.00
31.141 -119.333 2.915 0.00
31.141 -118.282 2.915 0.00
31.141 -117.232 2.915 0.00
31.141 -116.181 2.915 0.00
31.141 -115.130 2.915 0.00
31.141 -114.079 2.915 0.00
31.141 -113.028 2.915 0.00
31.141 -111.978 2.915 0.00
31.141 -110.927 2.915 0.00
31.141 -109.876 2.916 0.00
31.141 -108.825 2.915 0.00
31.141 -107.774 2.915 0.00
31.141 -106.724 2.921 0.00
31.141 -105.673 2.935 0.00
31.141 -104.622 2.920 0.00
31.141 -103.571 2.894 1.55
31.141 -102.521 2.916 2.14
31.141 -101.470 2.899 96.52
31.141 -100.419 2.814 1563.66
31.141 -99.368 2.790 2252.05
31.141 -98.317 2.844 72.04
31.141 -97.267 2.913 2.04
31.141 -96.216 2.931 0.00
31.141 -95.165 2.933 0.00
31.141 -94.114 2.942 0.00
31.141 -93.063 2.941 0.00
31.141 -92.013 2.927 0.00
31.141 -90.962 2.917 0.00
31.141 -89.911 2.915 0.00
31.141 -88.860 2.917 0.00
31.141 -87.810 2.916 0.00
31.141 -86.759 2.915 0.00
31.141 -85.708 2.917 0.00
31.141 -84.657 2.918 0.00
31.141 -83.606 2.900 69.21
31.141 -82.556 2.860 418.86
31.141 -81.505 2.847 426.60
31.141 -80.454 2.895 0.00
31.141 -79.403 2.919 0.00
31.141 -78.353 2.918 0.00
31.141 -77.302 2.916 0.00
31.141 -76.251 2.916 0.00
31.141 -75.200 2.915 0.00
31.141 -74.149 2.915 0.00
31.141 -73.099 2.915 0.00
31.141 -72.048 2.915 0.00
31.141 -70.997 2.915 0.00
31.141 -69.946 2.915 0.00
32.041 -129.076 2.915 0.00
32.041 -128.015 2.915 0.00
32.041 -126.954 2.915 0.00
32.041 -125.893 2.915 0.00
32.041 -124.832 2.915 0.00
32.041 -123.771 2.915 0.00
32.041 -122.710 2.915 0.00
32.041 -121.649 2.915 0.00
32.041 -120.588 2.915 0.00
32.041 -119.527 2.915 0.00
32.041 -118.466 2.915 0.00
32.041 -117.405 2.915 0.00
32.041 -116.344 2.915 0.00
32.041 -115.283 2.915 0.00
32.041 -114.222 2.915 0.00
32.041 -113.161 2.915 0.00
32.041 -112.100 2.915 0.00
32.041 -111.039 2.916 0.00
32.041 -109.978 2.916 0.00
32.041 -108.917 2.916 0.00
32.041 -107.856 2.917 0.00
32.041 -106.795 2.926 0.00
32.041 -105.734 2.914 44.86
32.041 -104.673 2.824 157.21
32.041 -103.612 2.727 98.35
32.041 -102.551 2.748 35.30
32.041 -101.490 2.774 181.76
32.041 -100.429 2.727 2134.33
32.041 -99.368 2.721 5825.83
32.041 -98.307 2.769 1410.65
32.041 -97.246 2.826 166.19
32.041 -96.185 2.818 3.85
32.041 -95.124 2.818 0.00
32.041 -94.063 2.872 1.77
32.041 -93.002 2.936 0.52
32.041 -91.941 2.960 0.00
32.041 -90.880 2.940 0.00
32.041 -89.819 2.913 0.00
32.041 -88.758 2.909 0.00
32.041 -87.697 2.910 1.11
32.041 -86.636 2.910 7.85
32.041 -85.575 2.922 120.94
32.041 -84.515 2.926 97.27
32.041 -83.454 2.896 572.36
32.041 -82.393 2.823 633.10
32.041 -81.332 2.778 1247.26
32.041 -80.271 2.856 0.00
32.041 -79.210 2.907 0.00
32.041 -78.149 2.917 0.00
32.041 -77.088 2.914 0.00
32.041 -76.027 2.915 0.00
32.041 -74.966 2.916 0.00
32.041 -73.905 2.915 0.00
32.041 -72.844 2.915 0.00
32.041 -71.783 2.915 0.00
32.041 -70.722 2.915 0.00
32.041 -69.661 2.915 0.00
32.940 -129.374 2.915 0.00
32.940 -128.302 2.915 0.00
32.940 -127.231 2.915 0.00
32.940 -126.159 2.915 0.00
32.940 -125.087 2.915 0.00
32.940 -124.016 2.915 0.00
32.940 -122.944 2.915 0.00
32.940 -121.873 2.915 0.00
32.940 -120.801 2.915 0.00
32.940 -119.729 2.915 0.00
32.940 -118.658 2.915 0.00
32.940 -117.586 2.915 0.00
32.940 -116.514 2.915 0.00
32.940 -115.443 2.915 0.00
32.940 -114.371 2.915 0.00
32.940 -113.299 2.915 0.00
32.940 -112.228 2.916 0.00
32.940 -111.156 2.916 0.00
32.940 -110.085 2.915 0.00
32.940 -109.013 2.913 0.00
32.940 -107.941 2.911 0.00
32.940 -106.870 2.914 2.00
32.940 -105.798 2.869 117.88
32.940 -104.726 2.702 386.74
32.940 -103.655 2.511 4166.62
32.940 -102.583 2.514 1790.06
32.940 -101.511 2.596 1264.71
32.940 -100.440 2.649 3058.75
32.940 -99.368 2.697 5705.88
32.940 -98.297 2.717 3778.67
32.940 -97.225 2.711 3378.10
32.940 -96.153 2.610 1349.57
32.940 -95.082 2.543 1348.37
32.940 -94.010 2.606 440.39
32.940 -92.938 2.764 159.79
32.940 -91.867 2.919 0.00
32.940 -90.795 2.950 0.00
32.940 -89.723 2.900 4.74
32.940 -88.652 2.887 213.70
32.940 -87.580 2.892 202.66
32.940 -86.509 2.895 535.88
32.940 -85.437 2.928 663.91
32.940 -84.365 2.953 218.61
32.940 -83.294 2.939 648.69
32.940 -82.222 2.844 3797.70
32.940 -81.150 2.764 1802.08
32.940 -80.079 2.828 213.87
32.940 -79.007 2.895 573.48
32.940 -77.935 2.915 0.00
32.940 -76.864 2.911 0.00
32.940 -75.792 2.912 0.00
32.940 -74.721 2.915 0.00
32.940 -73.649 2.916 0.00
32.940 -72.577 2.915 0.00
32.940 -71.506 2.915 0.00
32.940 -70.434 2.915 0.00
32.940 -69.362 2.915 0.00
33.839 -129.686 2.915 0.00
33.839 -128.603 2.915 0.00
33.839 -127.521 2.915 0.00
33.839 -126.438 2.915 0.00
33.839 -125.355 2.915 0.00
33.839 -124.272 2.915 0.00
33.839 -123.189 2.915 0.00
33.839 -122.107 2.915 0.00
33.839 -121.024 2.915 0.00
33.839 -119.941 2.915 0.00
33.839 -118.858 2.915 0.00
33.839 -117.775 2.915 0.00
33.839 -116.693 2.915 0.00
33.839 -115.610 2.915 0.00
33.839 -114.527 2.915 0.00
33.839 -113.444 2.916 0.00
33.839 -112.362 2.916 0.00
33.839 -111.279 2.914 0.00
33.839 -110.196 2.908 0.00
33.839 -109.113 2.903 0.00
33.839 -108.030 2.902 94.90
33.839 -106.948 2.915 116.88
33.839 -105.865 2.880 61.75
33.839 -104.782 2.704 249.91
33.839 -103.699 2.493 2598.82
33.839 -102.617 2.421 1803.12
33.839 -101.534 2.477 2829.49
33.839 -100.451 2.532 4328.55
33.839 -99.368 2.533 4950.68
33.839 -98.285 2.507 4322.51
33.839 -97.203 2.534 3787.94
33.839 -96.120 2.448 2653.06
33.839 -95.037 2.314 4023.09
33.839 -93.954 2.297 3290.01
33.839 -92.872 2.455 1952.64
33.839 -91.789 2.701 152.21
33.839 -90.706 2.841 25.13
33.839 -89.623 2.837 947.39
33.839 -88.540 2.871 2463.43
33.839 -87.458 2.900 2795.92
33.839 -86.375 2.882 1483.63
33.839 -85.292 2.907 1656.94
33.839 -84.209 2.971 3665.35
33.839 -83.126 3.031 7237.77
33.839 -82.044 2.974 9591.18
33.839 -80.961 2.881 4637.34
33.839 -79.878 2.891 4308.25
33.839 -78.795 2.950 2266.73
33.839 -77.713 2.951 0.00
33.839 -76.630 2.919 0.00
33.839 -75.547 2.910 0.00
33.839 -74.464 2.914 0.00
33.839 -73.381 2.915 0.00
33.839 -72.299 2.915 0.00
33.839 -71.216 2.915 0.00
33.839 -70.133 2.915 0.00
33.839 -69.050 2.915 0.00
34.739 -130.012 2.915 0.00
34.739 -128.918 2.915 0.00
34.739 -127.823 2.915 0.00
34.739 -126.729 2.915 0.00
34.739 -125.635 2.915 0.00
34.739 -124.540 2.915 0.00
34.739 -123.446 2.915 0.00
34.739 -122.351 2.915 0.00
34.739 -121.257 2.915 0.00
34.739 -120.162 2.915 0.00
34.739 -119.068 2.915 0.00
34.739 -117.974 2.915 0.00
34.739 -116.879 2.915 0.00
34.739 -115.785 2.915 0.00
34.739 -114.690 2.916 0.00
34.739 -113.596 2.916 0.00
34.739 -112.501 2.914 0.00
34.739 -111.407 2.908 0.00
34.739 -110.313 2.899 77.92
34.739 -109.218 2.895 118.88
34.739 -108.124 2.904 22.98
34.739 -107.029 2.919 0.00
34.739 -105.935 2.889 226.50
34.739 -104.840 2.742 377.65
34.739 -103.746 2.559 2208.36
34.739 -102.651 2.467 1793.34
34.739 -101.557 2.483 3215.73
34.739 -100.463 2.432 3820.59
34.739 -99.368 2.295 4964.76
34.739 -98.274 2.269 4871.53
34.739 -97.179 2.393 4195.63
34.739 -96.085 2.473 7416.86
34.739 -94.990 2.341 5524.30
34.739 -93.896 2.231 7343.45
34.739 -92.802 2.318 7895.08
34.739 -91.707 2.507 2396.10
34.739 -90.613 2.662 649.11
34.739 -89.518 2.732 3215.19
34.739 -88.424 2.904 12367.19
34.739 -87.329 3.003 4808.18
34.739 -86.235 2.921 5005.50
34.739 -85.141 2.854 6395.03
34.739 -84.046 2.913 9434.01
34.739 -82.952 3.033 14090.09
34.739 -81.857 3.087 14193.33
34.739 -80.763 3.089 10172.36
34.739 -79.668 3.125 9732.62
34.739 -78.574 3.120 5920.11
34.739 -77.480 3.043 2796.24
34.739 -76.385 2.943 0.00
34.739 -75.291 2.912 0.00
34.739 -74.196 2.913 0.00
34.739 -73.102 2.915 0.00
34.739 -72.007 2.915 0.00
34.739 -70.913 2.915 0.00
34.739 -69.818 2.915 0.00
34.739 -68.724 2.915 0.00
35.638 -130.353 2.915 0.00
35.638 -129.247 2.915 0.00
35.638 -128.140 2.915 0.00
35.638 -127.034 2.915 0.00
35.638 -125.927 2.915 0.00
35.638 -124.820 2.915 0.00
35.638 -123.714 2.915 0.00
35.638 -122.607 2.915 0.00
35.638 -121.500 2.915 0.00
35.638 -120.394 2.915 0.00
35.638 -119.287 2.915 0.00
35.638 -118.181 2.915 10.74
35.638 -117.074 2.915 0.00
35.638 -115.967 2.915 0.00
35.638 -114.861 2.915 0.00
35.638 -113.754 2.915 0.00
35.638 -112.648 2.913 0.00
35.638 -111.541 2.907 42.79
35.638 -110.434 2.904 39.96
35.638 -109.328 2.907 0.00
35.638 -108.221 2.915 0.00
35.638 -107.115 2.914 0.00
35.638 -106.008 2.854 165.98
35.638 -104.901 2.697 1095.04
35.638 -103.795 2.570 2022.80
35.638 -102.688 2.542 3032.99
35.638 -101.581 2.553 5415.00
35.638 -100.475 2.376 2216.73
35.638 -99.368 2.157 3169.00
35.638 -98.262 2.124 5573.76
35.638 -97.155 2.319 19937.68
35.638 -96.048 2.668 29236.35
35.638 -94.942 2.741 15383.62
35.638 -93.835 2.594 13629.39
35.638 -92.729 2.610 13436.86
35.638 -91.622 2.666 11808.29
35.638 -90.515 2.698 3602.66
35.638 -89.409 2.715 5923.14
35.638 -88.302 2.935 16024.46
35.638 -87.195 3.153 10284.89
35.638 -86.089 3.069 5621.77
35.638 -84.982 2.899 3984.35
35.638 -83.876 2.866 10617.34
35.638 -82.769 2.939 11701.43
35.638 -81.662 3.049 14045.83
35.638 -80.556 3.171 19176.43
35.638 -79.449 3.274 9640.18
35.638 -78.343 3.274 11310.34
35.638 -77.236 3.115 2260.65
35.638 -76.129 2.957 8.59
35.638 -75.023 2.909 0.00
35.638 -73.916 2.911 0.00
35.638 -72.809 2.915 0.00
35.638 -71.703 2.915 0.00
35.638 -70.596 2.915 0.00
35.638 -69.490 2.915 0.00
35.638 -68.383 2.915 0.00
36.538 -130.710 2.915 0.00
36.538 -129.591 2.915 0.00
36.538 -128.471 2.915 0.00
36.538 -127.352 2.915 0.00
36.538 -126.233 2.915 0.00
36.538 -125.113 2.915 0.00
36.538 -123.994 2.915 0.00
36.538 -122.875 2.915 0.00
36.538 -121.755 2.915 0.00
36.538 -120.636 2.915 0.00
36.538 -119.516 2.915 0.00
36.538 -118.397 2.915 23.15
36.538 -117.278 2.915 2.06
36.538 -116.158 2.915 0.00
36.538 -115.039 2.915 0.00
36.538 -113.920 2.916 0.00
36.538 -112.800 2.915 0.00
36.538 -111.681 2.913 0.00
36.538 -110.562 2.912 0.00
36.538 -109.442 2.915 0.00
36.538 -108.323 2.921 0.00
36.538 -107.204 2.916 0.81
36.538 -106.084 2.846 21.41
36.538 -104.965 2.676 1853.51
36.538 -103.846 2.581 3280.27
36.538 -102.726 2.600 6035.68
36.538 -101.607 2.580 4998.16
36.538 -100.488 2.426 3063.41
36.538 -99.368 2.265 3888.99
36.538 -98.249 2.284 7606.86
36.538 -97.130 2.515 21739.11
36.538 -96.010 2.799 39627.20
36.538 -94.891 3.083 38830.63
36.538 -93.771 3.095 35252.24
36.538 -92.652 3.091 27788.57
36.538 -91.533 3.044 27962.83
36.538 -90.413 2.972 19401.14
36.538 -89.294 2.835 14614.22
36.538 -88.175 2.966 21101.47
36.538 -87.055 3.133 14176.63
36.538 -85.936 3.017 6577.64
36.538 -84.817 2.821 12943.05
36.538 -83.697 2.697 11097.85
36.538 -82.578 2.694 12467.19
36.538 -81.459 2.769 14111.21
36.538 -80.339 2.930 11112.62
36.538 -79.220 3.088 12194.40
36.538 -78.101 3.151 2531.90
36.538 -76.981 3.044 1279.11
36.538 -75.862 2.930 4.66
36.538 -74.743 2.907 0.00
36.538 -73.623 2.913 0.00
36.538 -72.504 2.916 0.00
36.538 -71.384 2.916 0.00
36.538 -70.265 2.915 0.00
36.538 -69.146 2.915 0.00
36.538 -68.026 2.915 0.00
37.437 -131.083 2.915 0.00
37.437 -129.950 2.915 0.00
37.437 -128.817 2.915 0.00
37.437 -127.685 2.915 0.00
37.437 -126.552 2.915 0.00
37.437 -125.419 2.915 0.00
37.437 -124.287 2.915 0.00
37.437 -123.154 2.915 0.00
37.437 -122.021 2.915 0.00
37.437 -120.889 2.915 0.00
37.437 -119.756 2.915 0.00
37.437 -118.623 2.915 12.08
37.437 -117.491 2.915 14.45
37.437 -116.358 2.915 0.00
37.437 -115.225 2.915 0.00
37.437 -114.093 2.916 0.00
37.437 -112.960 2.916 0.00
37.437 -111.827 2.915 0.00
37.437 -110.695 2.915 0.00
37.437 -109.562 2.916 0.00
37.437 -108.429 2.922 0.00
37.437 -107.297 2.927 1.46
37.437 -106.164 2.892 2.76
37.437 -105.032 2.776 135.30
37.437 -103.899 2.666 1857.26
37.437 -102.766 2.637 8546.02
37.437 -101.634 2.592 7866.96
37.437 -100.501 2.547 12265.30
37.437 -99.368 2.499 13605.54
37.437 -98.236 2.544 14594.71
37.437 -97.103 2.760 21032.34
37.437 -95.970 2.942 35272.68
37.437 -94.838 3.092 42903.64
37.437 -93.705 3.101 37641.24
37.437 -92.572 3.097 38303.30
37.437 -91.440 3.067 45171.06
37.437 -90.307 3.088 42561.66
37.437 -89.174 2.919 34330.43
37.437 -88.042 2.887 25042.10
37.437 -86.909 2.857 12089.67
37.437 -85.776 2.780 10248.13
37.437 -84.644 2.689 9359.65
37.437 -83.511 2.567 9891.96
37.437 -82.378 2.488 9110.78
37.437 -81.246 2.487 11896.15
37.437 -80.113 2.577 11898.41
37.437 -78.980 2.767 5844.96
37.437 -77.848 2.940 986.93
37.437 -76.715 2.981 1134.70
37.437 -75.582 2.942 67.70
37.437 -74.450 2.914 0.00
37.437 -73.317 2.911 0.00
37.437 -72.184 2.915 0.00
37.437 -71.052 2.916 0.00
37.437 -69.919 2.916 0.00
37.437 -68.786 2.915 0.00
37.437 -67.654 2.915 0.00
38.336 -131.472 2.915 0.00
38.336 -130.326 2.915 0.00
38.336 -129.179 2.915 0.00
38.336 -128.033 2.915 0.00
38.336 -126.886 2.915 0.00
38.336 -125.740 2.915 0.00
38.336 -124.593 2.915 0.00
38.336 -123.446 2.915 0.00
38.336 -122.300 2.915 0.00
38.336 -121.153 2.915 0.00
38.336 -120.007 2.915 0.00
38.336 -118.860 2.915 0.00
38.336 -117.713 2.915 8.62
38.336 -116.567 2.915 0.00
38.336 -115.420 2.915 0.00
38.336 -114.274 2.915 0.00
38.336 -113.127 2.915 0.00
38.336 -111.981 2.916 0.00
38.336 -110.834 2.915 0.00
38.336 -109.687 2.915 0.00
38.336 -108.541 2.917 0.00
38.336 -107.394 2.929 0.00
38.336 -106.248 2.934 2.08
38.336 -105.101 2.884 0.61
38.336 -103.955 2.790 251.28
38.336 -102.808 2.718 1241.90
38.336 -101.661 2.630 2405.06
38.336 -100.515 2.571 6526.59
38.336 -99.368 2.540 15474.81
38.336 -98.222 2.579 12161.07
38.336 -97.075 2.757 17677.43
38.336 -95.928 2.915 21136.81
38.336 -94.782 3.021 29519.50
38.336 -93.635 3.037 38986.99
38.336 -92.489 3.076 33257.78
38.336 -91.342 3.085 45992.75
38.336 -90.196 3.019 42709.89
38.336 -89.049 2.792 37753.82
38.336 -87.902 2.649 18851.41
38.336 -86.756 2.545 12352.55
38.336 -85.609 2.549 15745.20
38.336 -84.463 2.659 13783.87
38.336 -83.316 2.630 8553.38
38.336 -82.170 2.434 12582.55
38.336 -81.023 2.283 9180.91
38.336 -79.876 2.377 7917.45
38.336 -78.730 2.618 1565.97
38.336 -77.583 2.859 721.62
38.336 -76.437 3.003 1083.09
38.336 -75.290 2.974 99.82
38.336 -74.143 2.919 0.00
38.336 -72.997 2.906 0.00
38.336 -71.850 2.911 0.00
38.336 -70.704 2.915 0.00
38.336 -69.557 2.916 0.00
38.336 -68.411 2.916 0.00
38.336 -67.264 2.915 0.00
39.236 -131.880 2.915 0.00
39.236 -130.719 2.915 0.00
39.236 -129.558 2.915 0.00
39.236 -128.397 2.915 0.00
39.236 -127.235 2.915 0.00
39.236 -126.074 2.915 0.00
39.236 -124.913 2.915 0.00
39.236 -123.752 2.915 0.00
39.236 -122.591 2.915 0.00
39.236 -121.430 2.915 0.00
39.236 -120.269 2.915 0.00
39.236 -119.107 2.915 0.00
39.236 -117.946 2.915 0.00
39.236 -116.785 2.915 0.00
39.236 -115.624 2.915 0.00
39.236 -114.463 2.915 0.00
39.236 -113.302 2.915 0.00
39.236 -112.141 2.915 0.00
39.236 -110.980 2.915 0.00
39.236 -109.818 2.915 0.00
39.236 -108.657 2.914 0.00
39.236 -107.496 2.917 0.00
39.236 -106.335 2.932 0.00
39.236 -105.174 2.939 0.00
39.236 -104.013 2.913 20.43
39.236 -102.852 2.869 96.77
39.236 -101.690 2.779 26.16
39.236 -100.529 2.662 480.55
39.236 -99.368 2.574 4865.27
39.236 -98.207 2.583 5664.36
39.236 -97.046 2.713 8772.06
39.236 -95.885 2.839 11487.65
39.236 -94.724 2.930 16443.10
39.236 -93.563 2.988 31754.17
39.236 -92.401 3.064 38439.59
39.236 -91.240 3.059 40569.41
39.236 -90.079 2.940 25903.13
39.236 -88.918 2.682 27999.27
39.236 -87.757 2.491 23329.03
39.236 -86.596 2.428 10605.76
39.236 -85.435 2.551 12904.53
39.236 -84.273 2.794 14091.21
39.236 -83.112 2.822 11283.35
39.236 -81.951 2.446 8604.80
39.236 -80.790 2.213 5640.93
39.236 -79.629 2.315 3684.71
39.236 -78.468 2.570 2172.92
39.236 -77.307 2.816 485.22
39.236 -76.145 2.960 1066.70
39.236 -74.984 2.959 100.29
39.236 -73.823 2.933 0.00
39.236 -72.662 2.914 0.00
39.236 -71.501 2.905 0.00
39.236 -70.340 2.909 0.00
39.236 -69.179 2.914 0.00
39.236 -68.018 2.916 0.00
39.236 -66.856 2.916 0.00
40.135 -132.306 2.915 0.00
40.135 -131.130 2.915 0.00
40.135 -129.954 2.915 0.00
40.135 -128.777 2.915 0.00
40.135 -127.601 2.915 0.00
40.135 -126.424 2.915 0.00
40.135 -125.248 2.915 0.00
40.135 -124.072 2.915 0.00
40.135 -122.895 2.915 0.00
40.135 -121.719 2.915 0.00
40.135 -120.543 2.915 0.87
40.135 -119.366 2.915 0.00
40.135 -118.190 2.915 0.00
40.135 -117.014 2.915 1.08
40.135 -115.837 2.915 0.00
40.135 -114.661 2.915 0.52
40.135 -113.484 2.915 2.81
40.135 -112.308 2.915 5.98
40.135 -111.132 2.915 2.08
40.135 -109.955 2.915 1.96
40.135 -108.779 2.915 1.96
40.135 -107.603 2.913 1.94
40.135 -106.426 2.916 1.96
40.135 -105.250 2.926 0.32
40.135 -104.074 2.934 0.00
40.135 -102.897 2.943 102.93
40.135 -101.721 2.936 9.99
40.135 -100.545 2.851 3.18
40.135 -99.368 2.756 502.05
40.135 -98.192 2.709 1285.88
40.135 -97.015 2.729 1907.82
40.135 -95.839 2.770 5258.74
40.135 -94.663 2.856 9456.57
40.135 -93.486 2.940 21753.20
40.135 -92.310 3.002 26037.04
40.135 -91.134 2.987 26325.39
40.135 -89.957 2.860 13451.84
40.135 -88.781 2.668 7330.70
40.135 -87.605 2.560 8869.18
40.135 -86.428 2.582 6410.59
40.135 -85.252 2.756 20871.29
40.135 -84.076 2.999 19958.64
40.135 -82.899 2.943 9700.61
40.135 -81.723 2.528 10356.02
40.135 -80.546 2.291 2226.05
40.135 -79.370 2.352 1903.96
40.135 -78.194 2.532 1859.70
40.135 -77.017 2.688 4045.68
40.135 -75.841 2.819 3458.88
40.135 -74.665 2.903 2992.60
40.135 -73.488 2.962 540.79
40.135 -72.312 2.958 0.00
40.135 -71.136 2.923 0.00
40.135 -69.959 2.907 0.00
40.135 -68.783 2.909 0.00
40.135 -67.607 2.914 0.00
40.135 -66.430 2.916 0.00
41.034 -132.752 2.915 0.00
41.034 -131.560 2.915 0.00
41.034 -130.368 2.915 0.00
41.034 -129.175 2.915 0.00
41.034 -127.983 2.915 0.00
41.034 -126.791 2.915 0.00
41.034 -125.598 2.915 0.00
41.034 -124.406 2.915 0.00
41.034 -123.214 2.915 0.00
41.034 -122.022 2.915 0.00
41.034 -120.829 2.915 0.85
41.034 -119.637 2.915 0.25
41.034 -118.445 2.915 0.00
41.034 -117.252 2.915 1.09
41.034 -116.060 2.915 5.54
41.034 -114.868 2.915 18.41
41.034 -113.676 2.915 11.54
41.034 -112.483 2.915 0.24
41.034 -111.291 2.915 1.71
41.034 -110.099 2.915 1.25
41.034 -108.906 2.915 0.00
41.034 -107.714 2.915 0.00
41.034 -106.522 2.914 0.00
41.034 -105.330 2.914 0.00
41.034 -104.137 2.915 0.00
41.034 -102.945 2.921 0.00
41.034 -101.753 2.940 113.92
41.034 -100.560 2.936 0.00
41.034 -99.368 2.896 50.82
41.034 -98.176 2.847 882.20
41.034 -96.984 2.770 1321.99
41.034 -95.791 2.705 3132.36
41.034 -94.599 2.738 5286.25
41.034 -93.407 2.847 10181.08
41.034 -92.215 2.932 21289.83
41.034 -91.022 2.917 18726.62
41.034 -89.830 2.831 11548.17
41.034 -88.638 2.768 11435.92
41.034 -87.445 2.796 8303.46
41.034 -86.253 2.842 9943.03
41.034 -85.061 2.930 19147.16
41.034 -83.869 3.105 11481.14
41.034 -82.676 3.005 10558.26
41.034 -81.484 2.722 6790.75
41.034 -80.292 2.527 3971.58
41.034 -79.099 2.490 1250.10
41.034 -77.907 2.510 983.57
41.034 -76.715 2.555 2481.57
41.034 -75.523 2.670 3793.46
41.034 -74.330 2.845 4799.49
41.034 -73.138 3.009 5885.83
41.034 -71.946 3.038 1567.77
41.034 -70.753 2.977 75.69
41.034 -69.561 2.923 0.00
41.034 -68.369 2.907 0.00
41.034 -67.177 2.912 0.00
41.034 -65.984 2.916 0.00
41.934 -133.219 2.916 0.00
41.934 -132.010 2.915 0.00
41.934 -130.801 2.915 0.00
41.934 -129.592 2.915 0.00
41.934 -128.383 2.915 0.00
41.934 -127.174 2.915 0.00
41.934 -125.965 2.915 0.00
41.934 -124.756 2.915 0.00
41.934 -123.547 2.915 0.00
41.934 -122.338 2.915 0.00
41.934 -121.129 2.915 0.00
41.934 -119.920 2.915 0.90
41.934 -118.711 2.915 0.51
41.934 -117.502 2.915 2.21
41.934 -116.293 2.915 0.24
41.934 -115.085 2.915 1.60
41.934 -113.876 2.915 9.85
41.934 -112.667 2.915 18.40
41.934 -111.458 2.915 9.95
41.934 -110.249 2.915 7.44
41.934 -109.040 2.915 0.00
41.934 -107.831 2.915 0.00
41.934 -106.622 2.915 0.00
41.934 -105.413 2.915 0.00
41.934 -104.204 2.913 0.00
41.934 -102.995 2.908 0.00
41.934 -101.786 2.908 73.95
41.934 -100.577 2.913 40.97
41.934 -99.368 2.899 1157.00
41.934 -98.159 2.887 332.14
41.934 -96.950 2.831 2207.61
41.934 -95.741 2.721 4538.59
41.934 -94.532 2.684 5169.19
41.934 -93.323 2.745 2864.50
41.934 -92.115 2.895 10125.08
41.934 -90.906 2.964 32742.80
41.934 -89.697 2.909 13848.64
41.934 -88.488 2.891 15054.85
41.934 -87.279 2.926 20981.85
41.934 -86.070 2.889 22485.16
41.934 -84.861 2.879 17284.64
41.934 -83.652 2.991 13853.40
41.934 -82.443 3.051 17514.68
41.934 -81.234 2.975 9708.51
41.934 -80.025 2.877 8786.97
41.934 -78.816 2.740 9012.90
41.934 -77.607 2.649 3298.24
41.934 -76.398 2.614 1575.37
41.934 -75.189 2.664 4741.61
41.934 -73.980 2.812 6362.50
41.934 -72.771 3.021 8669.68
41.934 -71.562 3.123 12825.33
41.934 -70.353 3.038 14452.68
41.934 -69.145 2.961 0.00
41.934 -67.936 2.909 0.00
41.934 -66.727 2.904 0.00
41.934 -65.518 2.915 0.00
42.833 -133.707 2.916 0.00
42.833 -132.481 2.916 0.00
42.833 -131.254 2.915 0.00
42.833 -130.028 2.915 0.00
42.833 -128.802 2.915 0.00
42.833 -127.575 2.915 0.00
42.833 -126.349 2.915 0.00
42.833 -125.122 2.915 0.00
42.833 -123.896 2.915 0.00
42.833 -122.670 2.915 0.00
42.833 -121.443 2.915 0.00
42.833 -120.217 2.915 0.00
42.833 -118.990 2.915 0.17
42.833 -117.764 2.915 0.00
42.833 -116.538 2.915 0.00
42.833 -115.311 2.915 0.00
42.833 -114.085 2.915 0.54
42.833 -112.858 2.915 6.03
42.833 -111.632 2.915 18.37
42.833 -110.406 2.915 8.11
42.833 -109.179 2.915 1.18
42.833 -107.953 2.915 0.00
42.833 -106.727 2.915 0.00
42.833 -105.500 2.916 0.00
42.833 -104.274 2.916 0.00
42.833 -103.047 2.913 0.00
42.833 -101.821 2.907 0.00
42.833 -100.595 2.896 114.92
42.833 -99.368 2.883 513.71
42.833 -98.142 2.879 2751.48
42.833 -96.915 2.882 3779.25
42.833 -95.689 2.797 5069.25
42.833 -94.463 2.688 4642.99
42.833 -93.236 2.684 2729.16
42.833 -92.010 2.871 4603.06
42.833 -90.783 3.087 25585.46
42.833 -89.557 3.049 17272.85
42.833 -88.331 2.980 14946.98
42.833 -87.104 2.918 20303.00
42.833 -85.878 2.700 15902.99
42.833 -84.652 2.598 15980.25
42.833 -83.425 2.725 19340.46
42.833 -82.199 3.030 21327.23
42.833 -80.972 3.139 24397.27
42.833 -79.746 3.148 17715.87
42.833 -78.520 3.067 20377.82
42.833 -77.293 2.965 24743.28
42.833 -76.067 2.900 21990.84
42.833 -74.840 2.923 16406.66
42.833 -73.614 2.987 17378.12
42.833 -72.388 3.082 16113.67
42.833 -71.161 3.129 14221.15
42.833 -69.935 3.087 5599.76
42.833 -68.708 3.007 377.79
42.833 -67.482 2.932 0.00
42.833 -66.256 2.903 0.00
42.833 -65.029 2.908 0.00
43.732 -134.219 2.916 0.00
43.732 -132.974 2.916 0.00
43.732 -131.729 2.915 0.00
43.732 -130.485 2.915 0.00
43.732 -129.240 2.915 0.00
43.732 -127.995 2.915 0.00
43.732 -126.751 2.915 0.00
43.732 -125.506 2.915 0.00
43.732 -124.261 2.915 0.00
43.732 -123.017 2.915 0.00
43.732 -121.772 2.915 0.00
43.732 -120.527 2.915 0.00
43.732 -119.283 2.915 0.00
43.732 -118.038 2.915 0.00
43.732 -116.793 2.915 0.00
43.732 -115.549 2.915 0.00
43.732 -114.304 2.915 2.76
43.732 -113.059 2.915 1.25
43.732 -111.815 2.915 0.93
43.732 -110.570 2.915 4.48
43.732 -109.325 2.915 0.00
43.732 -108.081 2.915 0.00
43.732 -106.836 2.915 0.00
43.732 -105.591 2.915 0.00
43.732 -104.347 2.916 0.00
43.732 -103.102 2.916 0.00
43.732 -101.858 2.913 0.00
43.732 -100.613 2.901 41.97
43.732 -99.368 2.887 1902.75
43.732 -98.124 2.896 4087.37
43.732 -96.879 2.916 8054.22
43.732 -95.634 2.852 4846.32
43.732 -94.390 2.713 7101.32
43.732 -93.145 2.644 3378.69
43.732 -91.900 2.827 4505.73
43.732 -90.656 3.135 28288.62
43.732 -89.411 3.139 25572.63
43.732 -88.166 2.995 25226.92
43.732 -86.922 2.775 19232.31
43.732 -85.677 2.369 32683.70
43.732 -84.432 2.167 20750.44
43.732 -83.188 2.331 18166.17
43.732 -81.943 2.769 17820.44
43.732 -80.698 3.057 34018.36
43.732 -79.454 3.135 33637.00
43.732 -78.209 3.144 28066.47
43.732 -76.964 3.173 32610.92
43.732 -75.720 3.194 32218.65
43.732 -74.475 3.170 35840.92
43.732 -73.230 3.101 34018.71
43.732 -71.986 3.080 23891.45
43.732 -70.741 3.101 18810.07
43.732 -69.496 3.117 10997.27
43.732 -68.252 3.058 1700.58
43.732 -67.007 2.953 0.00
43.732 -65.763 2.908 0.00
43.732 -64.518 2.907 0.00
44.632 -134.754 2.915 0.00
44.632 -133.490 2.915 0.00
44.632 -132.227 2.915 0.00
44.632 -130.963 2.915 0.00
44.632 -129.699 2.915 0.00
44.632 -128.435 2.915 0.00
44.632 -127.172 2.915 0.00
44.632 -125.908 2.915 0.00
44.632 -124.644 2.915 0.00
44.632 -123.380 2.915 0.00
44.632 -122.116 2.915 0.00
44.632 -120.853 2.915 0.00
44.632 -119.589 2.915 0.00
44.632 -118.325 2.915 0.00
44.632 -117.061 2.915 0.00
44.632 -115.797 2.915 0.00
44.632 -114.534 2.915 0.00
44.632 -113.270 2.915 0.00
44.632 -112.006 2.915 0.00
44.632 -110.742 2.915 0.85
44.632 -109.479 2.915 0.00
44.632 -108.215 2.915 0.00
44.632 -106.951 2.915 0.00
44.632 -105.687 2.915 0.00
44.632 -104.423 2.915 0.00
44.632 -103.160 2.916 0.00
44.632 -101.896 2.915 0.00
44.632 -100.632 2.906 0.00
44.632 -99.368 2.897 809.45
44.632 -98.104 2.933 2615.96
44.632 -96.841 2.989 5775.05
44.632 -95.577 3.006 7238.57
44.632 -94.313 2.827 4740.56
44.632 -93.049 2.669 2286.19
44.632 -91.785 2.794 3621.38
44.632 -90.522 3.127 17562.79
44.632 -89.258 3.226 25540.76
44.632 -87.994 3.109 25762.21
44.632 -86.730 2.917 15491.75
44.632 -85.467 2.571 15036.02
44.632 -84.203 2.404 15642.82
44.632 -82.939 2.560 10237.88
44.632 -81.675 2.897 9586.22
44.632 -80.411 3.112 15268.20
44.632 -79.148 3.174 24944.21
44.632 -77.884 3.159 31929.21
44.632 -76.620 3.219 28972.88
44.632 -75.356 3.254 32311.14
44.632 -74.092 3.174 31465.58
44.632 -72.829 3.059 24977.23
44.632 -71.565 3.035 20264.23
44.632 -70.301 3.101 21171.20
44.632 -69.037 3.154 15436.71
44.632 -67.773 3.063 14531.15
44.632 -66.510 2.958 92.95
44.632 -65.246 2.905 93.95
44.632 -63.982 2.903 75.14
45.531 -135.316 2.914 0.00
45.531 -134.032 2.915 0.00
45.531 -132.748 2.915 0.00
45.531 -131.464 2.915 0.00
45.531 -130.180 2.915 0.00
45.531 -128.897 2.915 0.00
45.531 -127.613 2.915 0.00
45.531 -126.329 2.915 0.00
45.531 -125.045 2.915 0.00
45.531 -123.761 2.915 0.00
45.531 -122.477 2.915 0.00
45.531 -121.193 2.915 0.00
45.531 -119.910 2.915 0.00
45.531 -118.626 2.915 0.00
45.531 -117.342 2.915 0.00
45.531 -116.058 2.915 0.00
45.531 -114.774 2.915 0.00
45.531 -113.490 2.915 0.00
45.531 -112.207 2.915 0.00
45.531 -110.923 2.915 0.00
45.531 -109.639 2.915 0.00
45.531 -108.355 2.915 0.00
45.531 -107.071 2.915 0.00
45.531 -105.787 2.915 0.00
45.531 -104.504 2.915 0.00
45.531 -103.220 2.916 0.00
45.531 -101.936 2.913 0.00
45.531 -100.652 2.909 0.00
45.531 -99.368 2.925 321.34
45.531 -98.084 2.989 1653.45
45.531 -96.801 3.072 5126.48
45.531 -95.517 3.128 9510.41
45.531 -94.233 2.972 4878.55
45.531 -92.949 2.772 5914.72
45.531 -91.665 2.825 7890.54
45.531 -90.381 3.088 8796.30
45.531 -89.097 3.220 18677.03
45.531 -87.814 3.138 16128.22
45.531 -86.530 2.930 11428.66
45.531 -85.246 2.777 13223.82
45.531 -83.962 2.843 18352.26
45.531 -82.678 3.085 24122.71
45.531 -81.394 3.184 11547.13
45.531 -80.111 3.207 12705.48
45.531 -78.827 3.207 20909.08
45.531 -77.543 3.187 28759.18
45.531 -76.259 3.190 31144.98
45.531 -74.975 3.184 24970.98
45.531 -73.691 3.062 24646.56
45.531 -72.408 2.885 18152.29
45.531 -71.124 2.951 14152.70
45.531 -69.840 3.101 16258.82
45.531 -68.556 3.135 8819.11
45.531 -67.272 3.041 2110.52
45.531 -65.988 2.944 11.17
45.531 -64.705 2.905 24.53
45.531 -63.421 2.906 0.00
46.431 -135.904 2.915 0.00
46.431 -134.600 2.915 0.00
46.431 -133.295 2.915 0.00
46.431 -131.990 2.915 0.00
46.431 -130.685 2.915 0.00
46.431 -129.380 2.915 0.00
46.431 -128.075 2.915 0.00
46.431 -126.770 2.915 0.00
46.431 -125.466 2.915 0.00
46.431 -124.161 2.915 0.00
46.431 -122.856 2.915 0.00
46.431 -121.551 2.915 0.00
46.431 -120.246 2.915 0.00
46.431 -118.941 2.915 0.00
46.431 -117.636 2.915 0.00
46.431 -116.331 2.915 0.00
46.431 -115.027 2.915 0.00
46.431 -113.722 2.915 2.24
46.431 -112.417 2.915 0.00
46.431 -111.112 2.915 0.00
46.431 -109.807 2.915 0.00
46.431 -108.502 2.915 0.00
46.431 -107.197 2.915 0.00
46.431 -105.893 2.915 0.00
46.431 -104.588 2.915 0.00
46.431 -103.283 2.915 0.00
46.431 -101.978 2.912 0.00
46.431 -100.673 2.908 0.00
46.431 -99.368 2.932 35.08
46.431 -98.063 3.022 1073.13
46.431 -96.758 3.143 4428.24
46.431 -95.454 3.180 7384.02
46.431 -94.149 3.121 5335.64
46.431 -92.844 2.939 3918.15
46.431 -91.539 2.883 2344.58
46.431 -90.234 2.972 2829.16
46.431 -88.929 3.015 3410.54
46.431 -87.624 2.978 7463.70
46.431 -86.320 2.791 6011.58
46.431 -85.015 2.707 9921.24
46.431 -83.710 2.924 10062.13
46.431 -82.405 3.251 9539.44
46.431 -81.100 3.321 12801.14
46.431 -79.795 3.233 18939.25
46.431 -78.490 3.194 17718.87
46.431 -77.185 3.156 18930.74
46.431 -75.881 3.171 20521.47
46.431 -74.576 3.192 20040.92
46.431 -73.271 3.087 21668.95
46.431 -71.966 2.846 12589.81
46.431 -70.661 2.858 8913.82
46.431 -69.356 3.001 9752.73
46.431 -68.051 3.090 8534.00
46.431 -66.747 2.998 93.11
46.431 -65.442 2.921 89.10
46.431 -64.137 2.903 0.00
46.431 -62.832 2.910 0.00
47.330 -136.522 2.916 0.00
47.330 -135.195 2.916 0.00
47.330 -133.868 2.915 0.00
47.330 -132.541 2.915 0.00
47.330 -131.214 2.915 0.00
47.330 -129.887 2.915 0.00
47.330 -128.561 2.915 0.00
47.330 -127.234 2.915 0.00
47.330 -125.907 2.915 0.00
47.330 -124.580 2.915 0.00
47.330 -123.253 2.915 0.00
47.330 -121.926 2.915 0.00
47.330 -120.599 2.915 0.00
47.330 -119.272 2.915 0.00
47.330 -117.945 2.915 0.00
47.330 -116.618 2.915 0.00
47.330 -115.291 2.915 7.49
47.330 -113.964 2.915 3.19
47.330 -112.637 2.915 0.00
47.330 -111.311 2.915 0.00
47.330 -109.984 2.915 0.00
47.330 -108.657 2.915 0.00
47.330 -107.330 2.915 0.00
47.330 -106.003 2.915 0.00
47.330 -104.676 2.916 0.00
47.330 -103.349 2.915 0.00
47.330 -102.022 2.912 0.00
47.330 -100.695 2.909 0.00
47.330 -99.368 2.938 6.94
47.330 -98.041 3.040 2223.71
47.330 -96.714 3.178 4055.12
47.330 -95.387 3.235 5762.25
47.330 -94.061 3.235 7432.00
47.330 -92.734 3.134 3726.86
47.330 -91.407 2.996 2414.17
47.330 -90.080 2.928 716.05
47.330 -88.753 2.907 832.79
47.330 -87.426 2.901 336.75
47.330 -86.099 2.843 17.52
47.330 -84.772 2.825 6.64
47.330 -83.445 2.956 711.43
47.330 -82.118 3.134 1671.26
47.330 -80.791 3.186 2481.73
47.330 -79.464 3.174 3638.57
47.330 -78.137 3.177 5037.68
47.330 -76.811 3.160 12678.38
47.330 -75.484 3.147 7850.35
47.330 -74.157 3.139 5990.52
47.330 -72.830 3.085 5937.98
47.330 -71.503 2.958 4930.89
47.330 -70.176 2.920 4689.92
47.330 -68.849 2.953 804.55
47.330 -67.522 2.980 191.36
47.330 -66.195 2.937 0.00
47.330 -64.868 2.906 0.00
47.330 -63.541 2.907 0.00
47.330 -62.214 2.915 0.00
48.229 -137.170 2.916 0.00
48.229 -135.820 2.916 0.00
48.229 -134.470 2.915 0.00
48.229 -133.120 2.915 0.00
48.229 -131.770 2.915 0.00
48.229 -130.420 2.915 0.00
48.229 -129.070 2.915 0.00
48.229 -127.720 2.915 0.00
48.229 -126.370 2.915 0.00
48.229 -125.020 2.915 0.00
48.229 -123.670 2.915 0.00
48.229 -122.320 2.915 0.00
48.229 -120.969 2.915 0.00
48.229 -119.619 2.915 0.00
48.229 -118.269 2.915 0.00
48.229 -116.919 2.915 5.15
48.229 -115.569 2.915 0.71
48.229 -114.219 2.915 0.00
48.229 -112.869 2.915 0.00
48.229 -111.519 2.915 0.00
48.229 -110.169 2.915 0.00
48.229 -108.819 2.915 0.00
48.229 -107.469 2.915 0.00
48.229 -106.119 2.915 0.00
48.229 -104.769 2.916 0.00
48.229 -103.418 2.915 0.00
48.229 -102.068 2.911 0.00
48.229 -100.718 2.912 0.00
48.229 -99.368 2.943 0.00
48.229 -98.018 3.028 1475.21
48.229 -96.668 3.156 3663.25
48.229 -95.318 3.222 7659.19
48.229 -93.968 3.237 9281.50
48.229 -92.618 3.195 2974.85
48.229 -91.268 3.060 2155.05
48.229 -89.918 2.932 1518.88
48.229 -88.568 2.899 277.47
48.229 -87.217 2.903 0.00
48.229 -85.867 2.900 0.00
48.229 -84.517 2.901 0.00
48.229 -83.167 2.924 0.00
48.229 -81.817 2.962 0.00
48.229 -80.467 2.986 0.00
48.229 -79.117 2.999 0.00
48.229 -77.767 3.024 0.00
48.229 -76.417 3.027 0.00
48.229 -75.067 3.027 17.41
48.229 -73.717 3.039 110.28
48.229 -72.367 3.017 5.26
48.229 -71.017 2.968 11.76
48.229 -69.666 2.938 18.08
48.229 -68.316 2.929 1.42
48.229 -66.966 2.924 6.56
48.229 -65.616 2.910 0.00
48.229 -64.266 2.906 0.00
48.229 -62.916 2.914 0.00
48.229 -61.566 2.917 0.00
49.129 -137.851 2.916 0.00
49.129 -136.477 2.915 0.00
49.129 -135.103 2.915 0.00
49.129 -133.728 2.915 0.00
49.129 -132.354 2.915 0.00
49.129 -130.979 2.915 0.00
49.129 -129.605 2.915 0.00
49.129 -128.231 2.915 0.00
49.129 -126.856 2.915 0.00
49.129 -125.482 2.915 0.00
49.129 -124.107 2.915 0.00
49.129 -122.733 2.915 0.00
49.129 -121.359 2.915 0.00
49.129 -119.984 2.915 0.00
49.129 -118.610 2.915 0.00
49.129 -117.235 2.915 0.00
49.129 -115.861 2.915 0.00
49.129 -114.487 2.915 0.00
49.129 -113.112 2.915 0.00
49.129 -111.738 2.915 0.00
49.129 -110.363 2.915 0.00
49.129 -108.989 2.915 0.00
49.129 -107.615 2.915 0.00
49.129 -106.240 2.915 0.00
49.129 -104.866 2.915 0.00
49.129 -103.491 2.915 0.00
49.129 -102.117 2.913 0.00
49.129 -100.743 2.912 0.00
49.129 -99.368 2.929 0.00
49.129 -97.994 2.979 2074.69
49.129 -96.619 3.065 2054.32
49.129 -95.245 3.107 2856.95
49.129 -93.871 3.097 128.28
49.129 -92.496 3.055 0.00
49.129 -91.122 2.970 0.00
49.129 -89.747 2.898 232.81
49.129 -88.373 2.900 74.96
49.129 -86.999 2.912 0.00
49.129 -85.624 2.916 0.00
49.129 -84.250 2.916 0.00
49.129 -82.875 2.910 1.68
49.129 -81.501 2.902 5.48
49.129 -80.127 2.899 5.48
49.129 -78.752 2.899 5.43
49.129 -77.378 2.909 5.37
49.129 -76.003 2.911 5.37
49.129 -74.629 2.915 0.95
49.129 -73.255 2.930 119.75
49.129 -71.880 2.927 8.94
49.129 -70.506 2.920 2.41
49.129 -69.131 2.913 9.78
49.129 -67.757 2.910 7.40
49.129 -66.383 2.909 0.00
49.129 -65.008 2.910 0.00
49.129 -63.634 2.913 0.00
49.129 -62.259 2.916 0.00
49.129 -60.885 2.916 0.00
50.028 -138.567 2.915 0.00
50.028 -137.167 2.915 0.00
50.028 -135.767 2.915 0.00
50.028 -134.367 2.915 0.00
50.028 -132.967 2.915 0.00
50.028 -131.567 2.915 0.00
50.028 -130.167 2.915 0.00
50.028 -128.767 2.915 0.00
50.028 -127.368 2.915 0.00
50.028 -125.968 2.915 0.00
50.028 -124.568 2.915 0.00
50.028 -123.168 2.915 0.00
50.028 -121.768 2.915 0.00
50.028 -120.368 2.915 0.00
50.028 -118.968 2.915 0.00
50.028 -117.568 2.915 0.00
50.028 -116.168 2.915 0.00
50.028 -114.768 2.915 0.00
50.028 -113.368 2.915 0.00
50.028 -111.968 2.915 0.00
50.028 -110.568 2.915 0.00
50.028 -109.168 2.915 0.00
50.028 -107.768 2.915 0.00
50.028 -106.368 2.915 0.00
50.028 -104.968 2.915 0.00
50.028 -103.568 2.915 0.00
50.028 -102.168 2.914 0.00
50.028 -100.768 2.912 0.00
50.028 -99.368 2.917 0.00
50.028 -97.968 2.930 0.00
50.028 -96.568 2.954 0.00
50.028 -95.168 2.960 0.00
50.028 -93.768 2.944 0.00
50.028 -92.368 2.915 0.00
50.028 -90.968 2.887 0.00
50.028 -89.568 2.876 307.77
50.028 -88.168 2.900 0.00
50.028 -86.769 2.914 0.00
50.028 -85.369 2.917 0.00
50.028 -83.969 2.916 0.00
50.028 -82.569 2.914 0.00
50.028 -81.169 2.909 0.00
50.028 -79.769 2.905 0.00
50.028 -78.369 2.901 0.00
50.028 -76.969 2.900 0.00
50.028 -75.569 2.901 0.00
50.028 -74.169 2.907 4.30
50.028 -72.769 2.917 127.97
50.028 -71.369 2.915 0.00
50.028 -69.969 2.910 0.00
50.028 -68.569 2.910 9.78
50.028 -67.169 2.911 0.00
50.028 -65.769 2.913 0.00
50.028 -64.369 2.915 0.00
50.028 -62.969 2.916 0.00
50.028 -61.569 2.916 0.00
50.028 -60.169 2.915 0.00
50.927 -139.320 2.915 0.00
50.927 -137.893 2.915 0.00
50.927 -136.466 2.915 0.00
50.927 -135.040 2.915 0.00
50.927 -133.613 2.915 0.00
50.927 -132.186 2.915 0.00
50.927 -130.759 2.915 0.00
50.927 -129.332 2.915 0.00
50.927 -127.905 2.915 0.00
50.927 -126.478 2.915 0.00
50.927 -125.052 2.915 0.00
50.927 -123.625 2.915 0.00
50.927 -122.198 2.915 0.00
50.927 -120.771 2.915 0.00
50.927 -119.344 2.915 0.00
50.927 -117.917 2.915 0.00
50.927 -116.490 2.915 0.00
50.927 -115.064 2.915 0.00
50.927 -113.637 2.915 0.00
50.927 -112.210 2.915 0.00
50.927 -110.783 2.915 0.00
50.927 -109.356 2.915 0.00
50.927 -107.929 2.915 0.00
50.927 -106.502 2.915 0.00
50.927 -105.076 2.915 0.00
50.927 -103.649 2.916 0.00
50.927 -102.222 2.915 0.00
50.927 -100.795 2.913 0.00
50.927 -99.368 2.912 0.00
50.927 -97.941 2.912 0.00
50.927 -96.514 2.911 0.00
50.927 -95.088 2.907 0.00
50.927 -93.661 2.900 0.00
50.927 -92.234 2.887 0.00
50.927 -90.807 2.876 162.86
50.927 -89.380 2.887 145.89
50.927 -87.953 2.909 0.00
50.927 -86.526 2.917 0.00
50.927 -85.100 2.917 0.00
50.927 -83.673 2.916 0.00
50.927 -82.246 2.915 0.00
50.927 -80.819 2.916 0.00
50.927 -79.392 2.916 0.00
50.927 -77.965 2.915 0.00
50.927 -76.538 2.914 0.00
50.927 -75.112 2.914 8.08
50.927 -73.685 2.918 4.64
50.927 -72.258 2.929 54.95
50.927 -70.831 2.930 65.94
50.927 -69.404 2.919 0.00
50.927 -67.977 2.915 9.78
50.927 -66.550 2.915 0.00
50.927 -65.124 2.916 0.00
50.927 -63.697 2.916 0.00
50.927 -62.270 2.916 0.00
50.927 -60.843 2.915 0.00
50.927 -59.416 2.915 0.00
51.827 -140.113 2.915 0.00
51.827 -138.658 2.915 0.00
51.827 -137.203 2.915 0.00
51.827 -135.747 2.915 0.00
51.827 -134.292 2.915 0.00
51.827 -132.837 2.915 0.00
51.827 -131.382 2.915 0.00
51.827 -129.927 2.915 0.00
51.827 -128.472 2.915 0.00
51.827 -127.016 2.915 0.00
51.827 -125.561 2.915 0.00
51.827 -124.106 2.915 0.00
51.827 -122.651 2.915 0.00
51.827 -121.196 2.915 0.00
51.827 -119.741 2.915 0.00
51.827 -118.285 2.915 0.00
51.827 -116.830 2.915 0.00
51.827 -115.375 2.915 0.00
51.827 -113.920 2.915 0.00
51.827 -112.465 2.915 0.00
51.827 -111.010 2.915 0.00
51.827 -109.554 2.915 0.00
51.827 -108.099 2.915 0.00
51.827 -106.644 2.915 0.00
51.827 -105.189 2.915 0.00
51.827 -103.734 2.915 0.00
51.827 -102.279 2.916 0.00
51.827 -100.823 2.915 0.00
51.827 -99.368 2.914 0.00
51.827 -97.913 2.913 0.00
51.827 -96.458 2.911 0.00
51.827 -95.003 2.911 0.00
51.827 -93.548 2.909 0.00
51.827 -92.092 2.900 0.00
51.827 -90.637 2.883 214.09
51.827 -89.182 2.899 0.00
51.827 -87.727 2.914 0.00
51.827 -86.272 2.917 0.00
51.827 -84.817 2.916 0.00
51.827 -83.361 2.915 0.00
51.827 -81.906 2.915 0.00
51.827 -80.451 2.916 0.00
51.827 -78.996 2.916 0.00
51.827 -77.541 2.916 3.18
51.827 -76.085 2.916 8.94
51.827 -74.630 2.915 0.86
51.827 -73.175 2.918 0.00
51.827 -71.720 2.928 0.00
51.827 -70.265 2.936 121.89
51.827 -68.810 2.924 8.64
51.827 -67.354 2.916 1.14
51.827 -65.899 2.915 0.00
51.827 -64.444 2.915 0.00
51.827 -62.989 2.915 0.00
51.827 -61.534 2.915 0.00
51.827 -60.079 2.915 0.00
51.827 -58.623 2.915 0.00
52.726 -140.948 2.915 0.00
52.726 -139.463 2.915 0.00
52.726 -137.978 2.915 0.00
52.726 -136.493 2.915 0.00
52.726 -135.008 2.915 0.00
52.726 -133.523 2.915 0.00
52.726 -132.038 2.915 0.00
52.726 -130.553 2.915 0.00
52.726 -129.068 2.915 0.00
52.726 -127.583 2.915 0.00
52.726 -126.098 2.915 0.00
52.726 -124.613 2.915 0.00
52.726 -123.128 2.915 0.00
52.726 -121.643 2.915 0.00
52.726 -120.158 2.915 0.00
52.726 -118.673 2.915 0.00
52.726 -117.188 2.915 0.00
52.726 -115.703 2.915 0.00
52.726 -114.218 2.915 0.00
52.726 -112.733 2.915 0.00
52.726 -111.248 2.915 0.00
52.726 -109.763 2.915 0.00
52.726 -108.278 2.915 0.00
52.726 -106.793 2.915 0.00
52.726 -105.308 2.915 0.00
52.726 -103.823 2.915 0.00
52.726 -102.338 2.915 0.00
52.726 -100.853 2.916 0.00
52.726 -99.368 2.915 0.00
52.726 -97.883 2.915 0.00
52.726 -96.398 2.915 0.00
52.726 -94.913 2.916 0.00
52.726 -93.428 2.916 0.00
52.726 -91.943 2.910 0.00
52.726 -90.458 2.898 74.86
52.726 -88.973 2.908 0.00
52.726 -87.488 2.916 0.00
52.726 -86.003 2.916 0.00
52.726 -84.518 2.915 0.00
52.726 -83.033 2.915 0.00
52.726 -81.548 2.915 0.00
52.726 -80.063 2.916 0.00
52.726 -78.578 2.916 7.48
52.726 -77.093 2.916 5.84
52.726 -75.608 2.915 0.00
52.726 -74.123 2.914 0.00
52.726 -72.638 2.916 0.00
52.726 -71.153 2.924 0.00
52.726 -69.668 2.936 122.89
52.726 -68.183 2.926 9.88
52.726 -66.698 2.917 0.00
52.726 -65.213 2.914 0.00
52.726 -63.728 2.915 0.00
52.726 -62.243 2.915 0.00
52.726 -60.758 2.915 0.00
52.726 -59.273 2.915 0.00
52.726 -57.788 2.915 0.00
53.625 -141.829 2.915 0.00
53.625 -140.313 2.915 0.00
53.625 -138.796 2.915 0.00
53.625 -137.280 2.915 0.00
53.625 -135.763 2.915 0.00
53.625 -134.247 2.915 0.00
53.625 -132.730 2.915 0.00
53.625 -131.214 2.915 0.00
53.625 -129.697 2.915 0.00
53.625 -128.181 2.915 0.00
53.625 -126.665 2.915 0.00
53.625 -125.148 2.915 0.00
53.625 -123.632 2.915 0.00
53.625 -122.115 2.915 0.00
53.625 -120.599 2.915 0.00
53.625 -119.082 2.915 0.00
53.625 -117.566 2.915 0.00
53.625 -116.049 2.915 0.00
53.625 -114.533 2.915 0.00
53.625 -113.016 2.915 0.00
53.625 -111.500 2.915 0.00
53.625 -109.983 2.915 0.00
53.625 -108.467 2.915 0.00
53.625 -106.951 2.915 0.00
53.625 -105.434 2.915 0.00
53.625 -103.918 2.915 0.00
53.625 -102.401 2.915 0.00
53.625 -100.885 2.915 0.00
53.625 -99.368 2.915 0.00
53.625 -97.852 2.915 0.00
53.625 -96.335 2.915 0.00
53.625 -94.819 2.916 0.00
53.625 -93.302 2.917 0.00
53.625 -91.786 2.915 0.00
53.625 -90.269 2.911 0.00
53.625 -88.753 2.915 0.00
53.625 -87.237 2.916 0.00
53.625 -85.720 2.916 0.00
53.625 -84.204 2.915 0.00
53.625 -82.687 2.915 0.00
53.625 -81.171 2.916 3.27
53.625 -79.654 2.916 9.11
53.625 -78.138 2.916 1.46
53.625 -76.621 2.915 0.00
53.625 -75.105 2.915 0.00
53.625 -73.588 2.915 0.00
53.625 -72.072 2.915 0.00
53.625 -70.555 2.921 0.00
53.625 -69.039 2.932 93.92
53.625 -67.523 2.928 40.75
53.625 -66.006 2.919 0.00
53.625 -64.490 2.915 0.00
53.625 -62.973 2.915 0.00
53.625 -61.457 2.915 0.00
53.625 -59.940 2.915 0.00
53.625 -58.424 2.915 0.00
53.625 -56.907 2.915 0.00
54.525 -142.759 2.915 0.00
54.525 -141.209 2.915 0.00
54.525 -139.660 2.915 0.00
54.525 -138.110 2.915 0.00
54.525 -136.560 2.915 0.00
54.525 -135.011 2.915 0.00
54.525 -133.461 2.915 0.00
54.525 -131.911 2.915 0.00
54.525 -130.362 2.915 0.00
54.525 -128.812 2.915 0.00
54.525 -127.262 2.915 0.00
54.525 -125.713 2.915 0.00
54.525 -124.163 2.915 0.00
54.525 -122.613 2.915 0.00
54.525 -121.064 2.915 0.00
54.525 -119.514 2.915 0.00
54.525 -117.964 2.915 0.00
54.525 -116.415 2.915 0.00
54.525 -114.865 2.915 0.00
54.525 -113.315 2.915 0.00
54.525 -111.766 2.915 0.00
54.525 -110.216 2.915 0.00
54.525 -108.666 2.915 0.00
54.525 -107.117 2.915 0.00
54.525 -105.567 2.915 0.00
54.525 -104.017 2.915 0.00
54.525 -102.468 2.915 0.00
54.525 -100.918 2.915 0.00
54.525 -99.368 2.915 0.00
54.525 -97.819 2.915 0.00
54.525 -96.269 2.915 0.00
54.525 -94.719 2.915 0.00
54.525 -93.170 2.916 0.00
54.525 -91.620 2.916 0.00
54.525 -90.070 2.915 0.00
54.525 -88.520 2.916 0.00
54.525 -86.971 2.916 0.00
54.525 -85.421 2.915 0.00
54.525 -83.871 2.916 0.00
54.525 -82.322 2.916 8.51
54.525 -80.772 2.916 5.76
54.525 -79.222 2.916 0.00
54.525 -77.673 2.915 0.00
54.525 -76.123 2.915 0.00
54.525 -74.573 2.915 0.00
54.525 -73.024 2.915 0.00
54.525 -71.474 2.915 0.00
54.525 -69.924 2.918 0.00
54.525 -68.375 2.925 0.00
54.525 -66.825 2.928 113.58
54.525 -65.275 2.920 0.00
54.525 -63.726 2.916 0.00
54.525 -62.176 2.915 0.00
54.525 -60.626 2.915 0.00
54.525 -59.077 2.915 0.00
54.525 -57.527 2.915 0.00
54.525 -55.977 2.915 0.00
55.424 -143.742 2.915 0.00
55.424 -142.157 2.915 0.00
55.424 -140.572 2.915 0.00
55.424 -138.988 2.915 0.00
55.424 -137.403 2.915 0.00
55.424 -135.818 2.915 0.00
55.424 -134.233 2.915 0.00
55.424 -132.648 2.915 0.00
55.424 -131.064 2.915 0.00
55.424 -129.479 2.915 0.00
55.424 -127.894 2.915 0.00
55.424 -126.309 2.915 0.00
55.424 -124.725 2.915 0.00
55.424 -123.140 2.915 0.00
55.424 -121.555 2.915 0.00
55.424 -119.970 2.915 0.00
55.424 -118.385 2.915 0.00
55.424 -116.801 2.915 0.00
55.424 -115.216 2.915 0.00
55.424 -113.631 2.915 0.00
55.424 -112.046 2.915 0.00
55.424 -110.462 2.915 0.00
55.424 -108.877 2.915 0.00
55.424 -107.292 2.915 0.00
55.424 -105.707 2.915 0.00
55.424 -104.123 2.915 0.00
55.424 -102.538 2.915 0.00
55.424 -100.953 2.915 0.00
55.424 -99.368 2.915 0.00
55.424 -97.783 2.915 0.00
55.424 -96.199 2.915 0.00
55.424 -94.614 2.915 0.00
55.424 -93.029 2.915 0.00
55.424 -91.444 2.916 0.00
55.424 -89.860 2.916 0.00
55.424 -88.275 2.916 0.00
55.424 -86.690 2.916 0.00
55.424 -85.105 2.916 5.24
55.424 -83.520 2.916 9.11
55.424 -81.936 2.916 0.52
55.424 -80.351 2.915 0.00
55.424 -78.766 2.915 0.00
55.424 -77.181 2.915 0.00
55.424 -75.597 2.915 0.00
55.424 -74.012 2.915 0.00
55.424 -72.427 2.915 0.00
55.424 -70.842 2.915 0.00
55.424 -69.257 2.915 0.00
55.424 -67.673 2.918 0.00
55.424 -66.088 2.920 0.00
55.424 -64.503 2.917 0.00
55.424 -62.918 2.915 0.00
55.424 -61.334 2.915 0.00
55.424 -59.749 2.915 0.00
55.424 -58.164 2.915 0.00
55.424 -56.579 2.915 0.00
55.424 -54.995 2.915 0.00
56.324 -144.782 2.915 0.00
56.324 -143.160 2.915 0.00
56.324 -141.538 2.915 0.00
56.324 -139.916 2.915 0.00
56.324 -138.294 2.915 0.00
56.324 -136.672 2.915 0.00
56.324 -135.050 2.915 0.00
56.324 -133.428 2.916 0.00
56.324 -131.806 2.916 0.00
56.324 -130.184 2.915 0.00
56.324 -128.563 2.915 0.00
56.324 -126.941 2.915 0.00
56.324 -125.319 2.915 0.00
56.324 -123.697 2.915 0.00
56.324 -122.075 2.915 0.00
56.324 -120.453 2.915 0.00
56.324 -118.831 2.915 0.00
56.324 -117.209 2.915 0.00
56.324 -115.587 2.915 0.00
56.324 -113.965 2.915 0.00
56.324 -112.343 2.915 0.00
56.324 -110.722 2.915 0.00
56.324 -109.100 2.915 0.00
56.324 -107.478 2.915 0.00
56.324 -105.856 2.915 0.00
56.324 -104.234 2.915 0.00
56.324 -102.612 2.915 0.00
56.324 -100.990 2.915 0.00
56.324 -99.368 2.915 0.00
56.324 -97.746 2.915 0.00
56.324 -96.124 2.915 0.00
56.324 -94.502 2.915 0.00
56.324 -92.881 2.915 0.00
56.324 -91.259 2.915 0.00
56.324 -89.637 2.916 0.00
56.324 -88.015 2.916 2.58
56.324 -86.393 2.916 9.11
56.324 -84.771 2.916 3.95
56.324 -83.149 2.916 0.00
56.324 -81.527 2.915 0.00
56.324 -79.905 2.915 0.00
56.324 -78.283 2.915 0.00
56.324 -76.661 2.915 0.00
56.324 -75.040 2.915 0.00
56.324 -73.418 2.915 0.00
56.324 -71.796 2.915 0.00
56.324 -70.174 2.915 0.00
56.324 -68.552 2.915 0.00
56.324 -66.930 2.915 0.00
56.324 -65.308 2.916 0.00
56.324 -63.686 2.915 0.00
56.324 -62.064 2.915 0.00
56.324 -60.442 2.915 0.00
56.324 -58.820 2.915 0.00
56.324 -57.199 2.915 0.00
56.324 -55.577 2.915 0.00
56.324 -53.955 2.915 0.00
57.223 -145.883 2.915 0.00
57.223 -144.222 2.915 0.00
57.223 -142.561 2.915 0.00
57.223 -140.899 2.915 0.00
57.223 -139.238 2.915 0.00
57.223 -137.577 2.915 0.00
57.223 -135.916 2.916 0.00
57.223 -134.254 2.916 0.00
57.223 -132.593 2.915 0.00
57.223 -130.932 2.915 0.00
57.223 -129.271 2.915 0.00
57.223 -127.609 2.915 0.00
57.223 -125.948 2.915 0.00
57.223 -124.287 2.915 0.00
57.223 -122.626 2.915 0.00
57.223 -120.964 2.915 0.00
57.223 -119.303 2.915 0.00
57.223 -117.642 2.915 0.00
57.223 -115.981 2.915 0.00
57.223 -114.319 2.915 0.00
57.223 -112.658 2.915 0.00
57.223 -110.997 2.915 0.00
57.223 -109.336 2.915 0.00
57.223 -107.674 2.915 0.00
57.223 -106.013 2.915 0.00
57.223 -104.352 2.915 0.00
57.223 -102.691 2.915 0.00
57.223 -101.029 2.915 0.00
57.223 -99.368 2.915 0.00
57.223 -97.707 2.915 0.00
