32.940 -106.870 3.594 45485.39
32.940 -105.798 3.644 42546.82
32.940 -104.726 3.548 37530.79
32.940 -103.655 3.554 36867.39
32.940 -102.583 3.765 38339.09
32.940 -101.511 3.871 40771.03
32.940 -100.440 3.831 39617.79
32.940 -99.368 3.752 42436.78
32.940 -98.297 3.765 43497.47
32.940 -97.225 3.836 40366.44
32.940 -96.153 3.783 31921.19
32.940 -95.082 3.728 29834.83
32.940 -94.010 3.629 42328.03
32.940 -92.938 3.759 28046.87
32.940 -91.867 3.875 22691.43
32.940 -90.795 3.845 21831.45
32.940 -89.723 3.779 19704.61
32.940 -88.652 3.766 20450.61
32.940 -87.580 3.797 17313.12
32.940 -86.509 3.804 14508.89
32.940 -85.437 3.765 14402.37
32.940 -84.365 3.761 10860.56
32.940 -83.294 3.860 6771.63
32.940 -82.222 3.893 6099.59
32.940 -81.150 3.820 3494.28
32.940 -80.079 3.749 1876.14
32.940 -79.007 3.768 380.17
32.940 -77.935 3.793 386.62
32.940 -76.864 3.780 36.96
32.940 -75.792 3.790 99.88
32.940 -74.721 3.770 99.88
32.940 -73.649 3.716 0.00
32.940 -72.577 3.693 6.52
32.940 -71.506 3.697 12.40
32.940 -70.434 3.702 5.88
32.940 -69.362 3.708 0.00
33.839 -129.686 3.723 0.00
33.839 -128.603 3.726 0.00
33.839 -127.521 3.732 0.00
33.839 -126.438 3.726 0.00
33.839 -125.355 3.708 0.00
33.839 -124.272 3.699 0.00
33.839 -123.189 3.701 0.00
33.839 -122.107 3.702 0.00
33.839 -121.024 3.707 0.00
33.839 -119.941 3.734 327.00
33.839 -118.858 3.741 1235.22
33.839 -117.775 3.696 20441.80
33.839 -116.693 3.811 26313.37
33.839 -115.610 3.948 57486.65
33.839 -114.527 3.811 75012.37
33.839 -113.444 3.806 82910.23
33.839 -112.362 3.795 80563.65
33.839 -111.279 3.665 76179.06
33.839 -110.196 3.621 66985.24
33.839 -109.113 3.543 61335.36
33.839 -108.030 3.496 58283.64
33.839 -106.948 3.504 51828.50
33.839 -105.865 3.535 44772.46
33.839 -104.782 3.519 37854.05
33.839 -103.699 3.629 39230.70
33.839 -102.617 3.814 41971.60
33.839 -101.534 3.830 44444.95
33.839 -100.451 3.737 42599.18
33.839 -99.368 3.656 42481.74
33.839 -98.285 3.703 45821.80
33.839 -97.203 3.783 43571.84
33.839 -96.120 3.762 38605.43
33.839 -95.037 3.773 37194.62
33.839 -93.954 3.686 42783.59
33.839 -92.872 3.713 35611.34
33.839 -91.789 3.829 28389.63
33.839 -90.706 3.830 23751.83
33.839 -89.623 3.807 21219.84
33.839 -88.540 3.775 20891.07
33.839 -87.458 3.757 17711.40
33.839 -86.375 3.773 16281.21
33.839 -85.292 3.791 20323.11
33.839 -84.209 3.780 15746.45
33.839 -83.126 3.839 7741.77
33.839 -82.044 3.867 5958.01
33.839 -80.961 3.822 3032.68
33.839 -79.878 3.764 1826.20
33.839 -78.795 3.787 405.34
33.839 -77.713 3.801 424.58
33.839 -76.630 3.781 0.00
33.839 -75.547 3.791 119.86
33.839 -74.464 3.760 80.91
33.839 -73.381 3.712 0.00
33.839 -72.299 3.695 0.00
33.839 -71.216 3.697 0.00
33.839 -70.133 3.697 6.52
33.839 -69.050 3.698 12.53
34.739 -130.012 3.700 6.65
34.739 -128.918 3.697 0.00
34.739 -127.823 3.701 0.00
34.739 -126.729 3.701 0.00
34.739 -125.635 3.697 0.00
34.739 -124.540 3.699 0.00
34.739 -123.446 3.701 0.00
34.739 -122.351 3.687 0.00
34.739 -121.257 3.679 0.00
34.739 -120.162 3.708 831.00
34.739 -119.068 3.731 4455.17
34.739 -117.974 3.571 20544.45
34.739 -116.879 3.590 30878.82
34.739 -115.785 3.778 54462.66
34.739 -114.690 3.764 59594.87
34.739 -113.596 3.727 53553.65
34.739 -112.501 3.619 54262.66
34.739 -111.407 3.629 60419.10
34.739 -110.313 3.682 64391.52
34.739 -109.218 3.624 61206.22
34.739 -108.124 3.569 58816.92
34.739 -107.029 3.464 56117.26
34.739 -105.935 3.495 50274.10
34.739 -104.840 3.473 46432.61
34.739 -103.746 3.607 47657.88
34.739 -102.651 3.755 51718.64
34.739 -101.557 3.762 50017.45
34.739 -100.463 3.670 52042.38
34.739 -99.368 3.685 52724.74
34.739 -98.274 3.749 48589.49
34.739 -97.179 3.750 48414.12
34.739 -96.085 3.746 47140.55
34.739 -94.990 3.732 48600.99
34.739 -93.896 3.670 47341.30
34.739 -92.802 3.693 39669.16
34.739 -91.707 3.791 31526.17
34.739 -90.613 3.852 29766.15
34.739 -89.518 3.840 28313.22
34.739 -88.424 3.812 27883.41
34.739 -87.329 3.744 19647.77
34.739 -86.235 3.709 15584.71
34.739 -85.141 3.744 15779.58
34.739 -84.046 3.687 13613.76
34.739 -82.952 3.740 6942.51
34.739 -81.857 3.773 6971.74
34.739 -80.763 3.805 4377.43
34.739 -79.668 3.811 2359.77
34.739 -78.574 3.832 945.11
34.739 -77.480 3.810 385.65
34.739 -76.385 3.788 5.99
34.739 -75.291 3.792 194.77
34.739 -74.196 3.744 0.00
34.739 -73.102 3.704 0.00
34.739 -72.007 3.695 0.00
34.739 -70.913 3.698 0.00
34.739 -69.818 3.699 0.00
34.739 -68.724 3.699 0.00
35.638 -130.353 3.699 18.15
35.638 -129.247 3.698 8.31
35.638 -128.140 3.698 0.00
35.638 -127.034 3.698 0.00
35.638 -125.927 3.699 0.00
35.638 -124.820 3.701 0.00
35.638 -123.714 3.695 0.00
35.638 -122.607 3.672 0.00
35.638 -121.500 3.642 1802.46
35.638 -120.394 3.653 10844.25
35.638 -119.287 3.749 15669.93
35.638 -118.181 3.586 20658.10
35.638 -117.074 3.461 30309.78
35.638 -115.967 3.588 51359.21
35.638 -114.861 3.610 56383.65
35.638 -113.754 3.606 57774.70
35.638 -112.648 3.543 59779.35
35.638 -111.541 3.550 60737.05
35.638 -110.434 3.649 52920.69
35.638 -109.328 3.724 49578.39
35.638 -108.221 3.661 54223.71
35.638 -107.115 3.487 56568.95
35.638 -106.008 3.438 51283.89
35.638 -104.901 3.430 50464.88
35.638 -103.795 3.534 51007.39
35.638 -102.688 3.710 51740.61
35.638 -101.581 3.737 58509.70
35.638 -100.475 3.678 65891.33
35.638 -99.368 3.756 59126.15
35.638 -98.262 3.798 57395.43
35.638 -97.155 3.708 88007.52
35.638 -96.048 3.750 67068.29
35.638 -94.942 3.718 49593.45
35.638 -93.835 3.683 47877.43
35.638 -92.729 3.742 61147.67
35.638 -91.622 3.824 44109.37
35.638 -90.515 3.879 39663.71
35.638 -89.409 3.836 33312.72
35.638 -88.302 3.778 29952.13
35.638 -87.195 3.686 20988.36
35.638 -86.089 3.687 18340.29
35.638 -84.982 3.719 15681.71
35.638 -83.876 3.713 12003.61
35.638 -82.769 3.742 7778.63
35.638 -81.662 3.731 5904.69
35.638 -80.556 3.783 7079.21
35.638 -79.449 3.842 3070.42
35.638 -78.343 3.865 2297.22
35.638 -77.236 3.801 214.23
35.638 -76.129 3.787 146.06
35.638 -75.023 3.780 99.88
35.638 -73.916 3.730 0.00
35.638 -72.809 3.697 0.00
35.638 -71.703 3.695 0.00
35.638 -70.596 3.699 0.00
35.638 -69.490 3.700 0.00
35.638 -68.383 3.700 0.00
36.538 -130.710 3.701 0.00
36.538 -129.591 3.701 4.22
36.538 -128.471 3.701 12.53
36.538 -127.352 3.701 11.00
36.538 -126.233 3.702 0.00
36.538 -125.113 3.702 0.00
36.538 -123.994 3.696 0.00
36.538 -122.875 3.687 0.00
36.538 -121.755 3.686 2606.65
36.538 -120.636 3.792 40762.98
36.538 -119.516 3.845 53788.64
36.538 -118.397 3.666 51896.25
36.538 -117.278 3.507 49718.12
36.538 -116.158 3.524 62999.21
36.538 -115.039 3.517 66935.40
36.538 -113.920 3.447 74995.82
36.538 -112.800 3.461 63019.55
36.538 -111.681 3.548 57050.49
36.538 -110.562 3.645 50068.82
36.538 -109.442 3.766 45491.47
36.538 -108.323 3.737 48604.01
36.538 -107.204 3.505 51077.84
36.538 -106.084 3.414 52101.11
36.538 -104.965 3.402 54004.73
36.538 -103.846 3.501 63262.05
36.538 -102.726 3.725 66745.88
36.538 -101.607 3.804 67992.27
36.538 -100.488 3.745 61305.02
36.538 -99.368 3.740 58688.92
36.538 -98.249 3.812 57546.24
36.538 -97.130 3.746 60044.37
36.538 -96.010 3.714 65305.91
36.538 -94.891 3.798 61710.15
36.538 -93.771 3.802 60104.36
36.538 -92.652 3.759 62869.24
36.538 -91.533 3.793 46682.55
36.538 -90.413 3.785 46209.29
36.538 -89.294 3.729 40849.48
36.538 -88.175 3.715 32869.56
36.538 -87.055 3.723 21788.42
36.538 -85.936 3.718 16845.82
36.538 -84.817 3.716 15814.52
36.538 -83.697 3.765 15583.06
36.538 -82.578 3.821 11943.38
36.538 -81.459 3.757 7730.22
36.538 -80.339 3.766 7175.03
36.538 -79.220 3.838 1589.02
36.538 -78.101 3.832 901.47
36.538 -76.981 3.771 73.23
36.538 -75.862 3.772 99.88
36.538 -74.743 3.768 99.88
36.538 -73.623 3.723 0.00
36.538 -72.504 3.697 0.00
36.538 -71.384 3.696 0.00
36.538 -70.265 3.699 0.00
36.538 -69.146 3.700 0.00
36.538 -68.026 3.699 0.00
37.437 -131.083 3.700 0.00
37.437 -129.950 3.700 0.00
37.437 -128.817 3.700 0.00
37.437 -127.685 3.701 1.41
37.437 -126.552 3.700 12.53
37.437 -125.419 3.695 12.53
37.437 -124.287 3.694 2.43
37.437 -123.154 3.700 0.00
37.437 -122.021 3.629 21721.00
37.437 -120.889 3.595 32073.79
37.437 -119.756 3.647 23613.11
37.437 -118.623 3.555 32968.56
37.437 -117.491 3.555 38726.60
37.437 -116.358 3.521 55801.75
37.437 -115.225 3.577 65935.42
37.437 -114.093 3.506 63178.55
37.437 -112.960 3.496 65589.12
37.437 -111.827 3.586 52862.80
37.437 -110.695 3.625 53701.88
37.437 -109.562 3.710 48768.65
37.437 -108.429 3.632 50553.83
37.437 -107.297 3.467 53526.07
37.437 -106.164 3.446 58145.31
37.437 -105.032 3.461 72091.61
37.437 -103.899 3.526 67592.24
37.437 -102.766 3.693 68534.88
37.437 -101.634 3.834 59059.41
37.437 -100.501 3.837 58050.32
37.437 -99.368 3.835 56855.40
37.437 -98.236 3.837 54905.75
37.437 -97.103 3.768 58420.80
37.437 -95.970 3.833 56662.20
37.437 -94.838 3.902 57789.50
37.437 -93.705 3.842 65128.11
37.437 -92.572 3.752 65621.34
37.437 -91.440 3.730 55192.80
37.437 -90.307 3.708 48458.46
37.437 -89.174 3.669 40985.07
37.437 -88.042 3.748 30353.88
37.437 -86.909 3.764 23460.48
37.437 -85.776 3.751 19723.46
37.437 -84.644 3.690 15953.21
37.437 -83.511 3.703 15632.72
37.437 -82.378 3.714 14885.43
37.437 -81.246 3.668 19934.54
37.437 -80.113 3.693 17462.69
37.437 -78.980 3.807 12106.33
37.437 -77.848 3.822 1628.97
37.437 -76.715 3.766 223.91
37.437 -75.582 3.766 99.88
37.437 -74.450 3.754 99.88
37.437 -73.317 3.715 0.00
37.437 -72.184 3.698 0.00
37.437 -71.052 3.698 0.00
37.437 -69.919 3.699 0.00
37.437 -68.786 3.699 0.00
37.437 -67.654 3.699 0.00
38.336 -131.472 3.699 0.00
38.336 -130.326 3.699 0.00
38.336 -129.179 3.699 0.00
38.336 -128.033 3.698 0.00
38.336 -126.886 3.698 0.00
38.336 -125.740 3.705 0.00
38.336 -124.593 3.733 10.23
38.336 -123.446 3.762 195.55
38.336 -122.300 3.701 12627.27
38.336 -121.153 3.521 29086.62
38.336 -120.007 3.520 24821.45
38.336 -118.860 3.440 38596.58
38.336 -117.713 3.481 46733.66
38.336 -116.567 3.529 48914.30
38.336 -115.420 3.648 47453.46
38.336 -114.274 3.642 55523.14
38.336 -113.127 3.500 65973.91
38.336 -111.981 3.488 58385.03
38.336 -110.834 3.521 54543.03
38.336 -109.687 3.583 53233.35
38.336 -108.541 3.530 52674.63
38.336 -107.394 3.389 55998.95
38.336 -106.248 3.385 54022.77
38.336 -105.101 3.503 41015.80
38.336 -103.955 3.621 39052.92
38.336 -102.808 3.756 46966.56
38.336 -101.661 3.768 48140.20
38.336 -100.515 3.881 47335.43
38.336 -99.368 3.902 46445.71
38.336 -98.222 3.826 50468.89
38.336 -97.075 3.760 52324.21
38.336 -95.928 3.791 54228.05
38.336 -94.782 3.826 53596.71
38.336 -93.635 3.735 54469.60
38.336 -92.489 3.710 60637.16
38.336 -91.342 3.771 71687.81
38.336 -90.196 3.835 70152.96
38.336 -89.049 3.844 71443.51
38.336 -87.902 3.802 59182.29
38.336 -86.756 3.706 27086.64
38.336 -85.609 3.773 23650.32
38.336 -84.463 3.694 21870.09
38.336 -83.316 3.667 18521.63
38.336 -82.170 3.674 20221.43
38.336 -81.023 3.589 22397.74
38.336 -79.876 3.593 27542.38
38.336 -78.730 3.745 35585.70
38.336 -77.583 3.867 15221.99
38.336 -76.437 3.850 58.94
38.336 -75.290 3.793 138.84
38.336 -74.143 3.730 19.98
38.336 -72.997 3.698 0.00
38.336 -71.850 3.696 0.00
38.336 -70.704 3.699 0.00
38.336 -69.557 3.700 0.00
38.336 -68.411 3.699 0.00
38.336 -67.264 3.699 0.00
39.236 -131.880 3.699 0.00
39.236 -130.719 3.699 0.00
39.236 -129.558 3.699 0.00
39.236 -128.397 3.698 0.00
39.236 -127.235 3.699 0.00
39.236 -126.074 3.717 0.00
39.236 -124.913 3.765 0.00
39.236 -123.752 3.808 1254.67
39.236 -122.591 3.793 13275.76
39.236 -121.430 3.620 23272.62
39.236 -120.269 3.530 39334.05
39.236 -119.107 3.560 61951.99
39.236 -117.946 3.520 42864.71
39.236 -116.785 3.605 43217.07
39.236 -115.624 3.659 46047.81
39.236 -114.463 3.676 52164.46
39.236 -113.302 3.559 61495.45
39.236 -112.141 3.540 60684.15
39.236 -110.980 3.565 53899.50
39.236 -109.818 3.674 50811.20
39.236 -108.657 3.610 56296.09
39.236 -107.496 3.411 57766.12
39.236 -106.335 3.375 54116.23
39.236 -105.174 3.559 39995.86
39.236 -104.013 3.791 35909.77
39.236 -102.852 3.801 41368.06
39.236 -101.690 3.759 38906.09
39.236 -100.529 3.791 35578.07
39.236 -99.368 3.808 34585.36
39.236 -98.207 3.838 36882.36
39.236 -97.046 3.832 45850.45
39.236 -95.885 3.849 46038.02
39.236 -94.724 3.856 44792.22
39.236 -93.563 3.784 49218.35
39.236 -92.401 3.831 48478.36
39.236 -91.240 3.843 56946.71
39.236 -90.079 3.830 57244.05
39.236 -88.918 3.771 54231.96
39.236 -87.757 3.680 41310.45
39.236 -86.596 3.694 27600.34
39.236 -85.435 3.816 20231.71
39.236 -84.273 3.789 21927.78
39.236 -83.112 3.758 20488.30
39.236 -81.951 3.735 21974.75
39.236 -80.790 3.635 20539.33
39.236 -79.629 3.608 15527.46
39.236 -78.468 3.806 6457.09
39.236 -77.307 3.975 3315.92
39.236 -76.145 3.961 809.02
39.236 -74.984 3.855 175.80
39.236 -73.823 3.736 0.00
39.236 -72.662 3.684 0.00
39.236 -71.501 3.688 0.00
39.236 -70.340 3.699 0.00
39.236 -69.179 3.700 0.00
39.236 -68.018 3.700 0.00
39.236 -66.856 3.699 0.00
40.135 -132.306 3.700 0.00
40.135 -131.130 3.700 0.00
40.135 -129.954 3.699 0.00
40.135 -128.777 3.693 0.00
40.135 -127.601 3.697 0.00
40.135 -126.424 3.726 0.00
40.135 -125.248 3.712 0.00
40.135 -124.072 3.637 11114.76
40.135 -122.895 3.571 32576.54
40.135 -121.719 3.439 36093.59
40.135 -120.543 3.526 69377.66
40.135 -119.366 3.483 67772.78
40.135 -118.190 3.560 49715.82
40.135 -117.014 3.667 49086.94
40.135 -115.837 3.580 47422.09
40.135 -114.661 3.570 58615.27
40.135 -113.484 3.552 63497.96
40.135 -112.308 3.485 64461.87
40.135 -111.132 3.488 54909.75
40.135 -109.955 3.546 47577.12
40.135 -108.779 3.499 55219.32
40.135 -107.603 3.413 55085.06
40.135 -106.426 3.356 43604.86
40.135 -105.250 3.532 37800.60
40.135 -104.074 3.731 32406.39
40.135 -102.897 3.785 31296.25
40.135 -101.721 3.792 32427.29
40.135 -100.545 3.804 29290.77
40.135 -99.368 3.831 28389.40
40.135 -98.192 3.814 31165.86
40.135 -97.015 3.797 38750.28
40.135 -95.839 3.754 40542.88
40.135 -94.663 3.751 40657.37
40.135 -93.486 3.819 43598.05
40.135 -92.310 3.870 41820.28
40.135 -91.134 3.894 39774.65
40.135 -89.957 3.842 26134.66
40.135 -88.781 3.720 22387.75
40.135 -87.605 3.692 29368.63
40.135 -86.428 3.757 23658.90
40.135 -85.252 3.850 24969.80
40.135 -84.076 3.835 24417.93
40.135 -82.899 3.753 21033.40
40.135 -81.723 3.711 18391.86
40.135 -80.546 3.682 15621.98
40.135 -79.370 3.667 11848.69
40.135 -78.194 3.775 7388.76
40.135 -77.017 3.899 5087.39
40.135 -75.841 4.002 2220.01
40.135 -74.665 3.929 810.80
40.135 -73.488 3.782 0.00
40.135 -72.312 3.700 0.00
40.135 -71.136 3.686 0.00
40.135 -69.959 3.694 0.00
40.135 -68.783 3.700 0.00
40.135 -67.607 3.700 0.00
40.135 -66.430 3.700 0.00
41.034 -132.752 3.701 0.00
41.034 -131.560 3.700 0.00
41.034 -130.368 3.691 0.00
41.034 -129.175 3.691 0.00
41.034 -127.983 3.732 0.00
41.034 -126.791 3.756 0.00
41.034 -125.598 3.681 257.91
41.034 -124.406 3.398 56935.30
41.034 -123.214 3.248 44796.07
41.034 -122.022 3.253 42014.93
41.034 -120.829 3.409 36090.59
41.034 -119.637 3.404 50685.50
41.034 -118.445 3.526 51423.78
41.034 -117.252 3.650 44425.73
41.034 -116.060 3.645 41811.39
41.034 -114.868 3.734 64739.40
41.034 -113.676 3.684 57343.14
41.034 -112.483 3.524 56783.91
41.034 -111.291 3.450 52493.30
41.034 -110.099 3.451 62056.63
41.034 -108.906 3.507 47274.29
41.034 -107.714 3.476 41807.93
41.034 -106.522 3.428 36562.05
41.034 -105.330 3.528 31817.29
41.034 -104.137 3.652 29146.49
41.034 -102.945 3.744 25882.87
41.034 -101.753 3.766 25133.84
41.034 -100.560 3.732 25852.71
41.034 -99.368 3.716 26056.73
41.034 -98.176 3.748 30006.59
41.034 -96.984 3.779 34452.57
41.034 -95.791 3.824 37282.38
41.034 -94.599 3.858 39095.66
41.034 -93.407 3.894 38207.03
41.034 -92.215 3.858 32492.72
41.034 -91.022 3.826 24740.84
41.034 -89.830 3.806 21026.58
41.034 -88.638 3.806 20053.10
41.034 -87.445 3.796 19442.66
41.034 -86.253 3.916 17118.84
41.034 -85.061 3.951 19227.28
41.034 -83.869 3.842 20904.98
41.034 -82.676 3.735 19744.42
41.034 -81.484 3.699 15714.54
41.034 -80.292 3.705 13112.52
41.034 -79.099 3.632 10606.01
41.034 -77.907 3.629 9014.17
41.034 -76.715 3.705 7485.89
41.034 -75.523 3.895 6963.02
41.034 -74.330 3.944 5934.74
41.034 -73.138 3.833 960.54
41.034 -71.946 3.740 248.86
41.034 -70.753 3.701 9.99
41.034 -69.561 3.692 0.00
41.034 -68.369 3.695 0.00
41.034 -67.177 3.699 0.00
41.034 -65.984 3.700 0.00
41.934 -133.219 3.700 0.00
41.934 -132.010 3.696 0.00
41.934 -130.801 3.690 0.00
41.934 -129.592 3.722 0.00
41.934 -128.383 3.780 0.00
41.934 -127.174 3.817 76.92
41.934 -125.965 3.784 1863.36
41.934 -124.756 3.575 13627.01
41.934 -123.547 3.410 25725.83
41.934 -122.338 3.498 29950.98
41.934 -121.129 3.524 29604.41
41.934 -119.920 3.475 36192.84
41.934 -118.711 3.516 37900.81
41.934 -117.502 3.517 37775.13
41.934 -116.293 3.453 45434.75
41.934 -115.085 3.529 55606.45
41.934 -113.876 3.587 49377.17
41.934 -112.667 3.583 54088.19
41.934 -111.458 3.552 66744.45
41.934 -110.249 3.557 57984.99
41.934 -109.040 3.594 48444.48
41.934 -107.831 3.582 41677.88
41.934 -106.622 3.551 35043.46
41.934 -105.413 3.581 32568.81
41.934 -104.204 3.605 27700.04
41.934 -102.995 3.653 26715.19
41.934 -101.786 3.691 25186.58
41.934 -100.577 3.698 27087.52
41.934 -99.368 3.744 28338.16
41.934 -98.159 3.780 31045.48
41.934 -96.950 3.805 34381.39
41.934 -95.741 3.813 37156.96
41.934 -94.532 3.811 36862.14
41.934 -93.323 3.807 31817.36
41.934 -92.115 3.807 24928.40
41.934 -90.906 3.858 24132.32
41.934 -89.697 3.883 19263.14
41.934 -88.488 3.897 18529.90
41.934 -87.279 3.893 15412.05
41.934 -86.070 3.925 13709.26
41.934 -84.861 3.863 15535.17
41.934 -83.652 3.800 15358.63
41.934 -82.443 3.785 14207.93
41.934 -81.234 3.732 16852.67
41.934 -80.025 3.742 15610.63
41.934 -78.816 3.675 13409.23
41.934 -77.607 3.609 10526.74
41.934 -76.398 3.694 8885.53
41.934 -75.189 3.832 5109.94
41.934 -73.980 3.907 4072.06
41.934 -72.771 3.850 2704.33
41.934 -71.562 3.772 774.03
41.934 -70.353 3.726 70.77
41.934 -69.145 3.702 0.00
41.934 -67.936 3.693 0.00
41.934 -66.727 3.695 0.00
41.934 -65.518 3.698 0.00
42.833 -133.707 3.695 0.00
42.833 -132.481 3.693 0.00
42.833 -131.254 3.700 0.00
42.833 -130.028 3.737 0.00
42.833 -128.802 3.772 7.99
42.833 -127.575 3.739 305.70
42.833 -126.349 3.617 10991.89
42.833 -125.122 3.504 16082.64
42.833 -123.896 3.530 11600.40
42.833 -122.670 3.559 22519.20
42.833 -121.443 3.495 24214.15
42.833 -120.217 3.461 26791.16
42.833 -118.990 3.525 29877.40
42.833 -117.764 3.514 34052.47
42.833 -116.538 3.519 42081.98
42.833 -115.311 3.487 40302.22
42.833 -114.085 3.504 43599.32
42.833 -112.858 3.450 45022.39
42.833 -111.632 3.424 50466.36
42.833 -110.406 3.480 48265.26
42.833 -109.179 3.548 46027.80
42.833 -107.953 3.586 38791.61
42.833 -106.727 3.655 36967.71
42.833 -105.500 3.650 33313.85
42.833 -104.274 3.556 33350.09
42.833 -103.047 3.571 28689.07
42.833 -101.821 3.688 27055.67
42.833 -100.595 3.783 27105.99
42.833 -99.368 3.781 28143.49
42.833 -98.142 3.706 31484.68
42.833 -96.915 3.694 32867.01
42.833 -95.689 3.747 30518.46
42.833 -94.463 3.731 28481.06
42.833 -93.236 3.692 25020.03
42.833 -92.010 3.734 21008.96
42.833 -90.783 3.791 25636.85
42.833 -89.557 3.855 16956.45
42.833 -88.331 3.897 16635.64
42.833 -87.104 3.882 14375.20
42.833 -85.878 3.811 12906.63
42.833 -84.652 3.768 12446.48
42.833 -83.425 3.786 10513.29
42.833 -82.199 3.812 11486.25
42.833 -80.972 3.820 11325.36
42.833 -79.746 3.781 11919.11
42.833 -78.520 3.724 12619.33
42.833 -77.293 3.635 10845.54
42.833 -76.067 3.709 7770.51
42.833 -74.840 3.781 6643.75
42.833 -73.614 3.824 5219.13
42.833 -72.388 3.798 4871.07
42.833 -71.161 3.786 1716.39
42.833 -69.935 3.764 83.93
42.833 -68.708 3.731 0.00
42.833 -67.482 3.707 0.00
42.833 -66.256 3.696 0.00
42.833 -65.029 3.696 0.00
43.732 -134.219 3.690 0.00
43.732 -132.974 3.690 0.00
43.732 -131.729 3.715 0.00
43.732 -130.485 3.776 0.00
43.732 -129.240 3.782 283.72
43.732 -127.995 3.543 199.81
43.732 -126.751 3.197 45161.47
43.732 -125.506 3.149 24710.48
43.732 -124.261 3.242 16257.38
43.732 -123.017 3.342 17392.70
43.732 -121.772 3.311 20954.35
43.732 -120.527 3.311 24802.95
43.732 -119.283 3.388 25917.71
43.732 -118.038 3.507 30912.55
43.732 -116.793 3.548 35467.86
43.732 -115.549 3.500 31953.93
43.732 -114.304 3.469 35109.66
43.732 -113.059 3.410 30297.02
43.732 -111.815 3.393 34074.58
43.732 -110.570 3.418 39477.61
43.732 -109.325 3.497 33613.17
43.732 -108.081 3.644 34018.17
43.732 -106.836 3.814 33762.50
43.732 -105.591 3.802 29595.39
43.732 -104.347 3.673 31558.29
43.732 -103.102 3.628 29775.21
43.732 -101.858 3.754 27610.86
43.732 -100.613 3.874 28482.60
43.732 -99.368 3.860 30742.91
43.732 -98.124 3.749 30124.54
43.732 -96.879 3.716 33461.11
43.732 -95.634 3.725 28782.33
43.732 -94.390 3.667 25975.74
43.732 -93.145 3.717 24613.35
43.732 -91.900 3.781 21502.48
43.732 -90.656 3.800 22336.85
43.732 -89.411 3.874 18566.01
43.732 -88.166 3.929 16233.48
43.732 -86.922 3.878 14308.25
43.732 -85.677 3.830 12602.24
43.732 -84.432 3.871 9138.36
43.732 -83.188 3.894 10495.76
43.732 -81.943 3.918 9077.16
43.732 -80.698 3.893 10283.86
43.732 -79.454 3.817 10711.98
43.732 -78.209 3.751 12136.58
43.732 -76.964 3.682 10912.09
43.732 -75.720 3.818 8159.23
43.732 -74.475 3.893 9645.64
43.732 -73.230 3.845 5641.37
43.732 -71.986 3.814 2939.38
43.732 -70.741 3.822 1179.04
43.732 -69.496 3.835 394.67
43.732 -68.252 3.799 161.85
43.732 -67.007 3.752 115.89
43.732 -65.763 3.719 0.00
43.732 -64.518 3.704 0.00
44.632 -134.754 3.694 0.00
44.632 -133.490 3.697 0.00
44.632 -132.227 3.755 0.00
44.632 -130.963 3.848 215.79
44.632 -129.699 3.841 194.81
44.632 -128.435 3.577 310.72
44.632 -127.172 3.168 3120.90
44.632 -125.908 3.074 10228.67
44.632 -124.644 3.104 11620.13
44.632 -123.380 3.236 16077.27
44.632 -122.116 3.344 17408.35
44.632 -120.853 3.396 19646.25
44.632 -119.589 3.475 21956.76
44.632 -118.325 3.609 30816.52
44.632 -117.061 3.636 31288.03
44.632 -115.797 3.624 28266.03
44.632 -114.534 3.611 27958.80
44.632 -113.270 3.488 27386.14
44.632 -112.006 3.413 25941.19
44.632 -110.742 3.331 30412.84
44.632 -109.479 3.457 26795.34
44.632 -108.215 3.687 25127.62
44.632 -106.951 3.853 26559.43
44.632 -105.687 3.847 25544.60
44.632 -104.423 3.694 23662.50
44.632 -103.160 3.636 23651.17
44.632 -101.896 3.719 24181.90
44.632 -100.632 3.820 24000.43
44.632 -99.368 3.893 24020.07
44.632 -98.104 3.847 24229.38
44.632 -96.841 3.773 27181.49
44.632 -95.577 3.681 24722.57
44.632 -94.313 3.691 22875.34
44.632 -93.049 3.745 20044.01
44.632 -91.785 3.817 20595.75
44.632 -90.522 3.874 17117.23
44.632 -89.258 3.883 20106.43
44.632 -87.994 3.972 14294.04
44.632 -86.730 3.943 13656.12
44.632 -85.467 3.884 12572.93
44.632 -84.203 3.913 11179.80
44.632 -82.939 3.949 8869.81
44.632 -81.675 3.914 9528.43
44.632 -80.411 3.866 9569.51
44.632 -79.148 3.799 11416.59
44.632 -77.884 3.692 14667.99
44.632 -76.620 3.645 11567.45
44.632 -75.356 3.850 10360.01
44.632 -74.092 3.937 8344.31
44.632 -72.829 3.860 3981.57
44.632 -71.565 3.818 2814.00
44.632 -70.301 3.839 2116.48
44.632 -69.037 3.854 1276.83
44.632 -67.773 3.839 1033.68
44.632 -66.510 3.792 12.98
44.632 -65.246 3.760 115.89
44.632 -63.982 3.737 141.04
45.531 -135.316 3.722 0.00
45.531 -134.032 3.725 0.00
45.531 -132.748 3.788 148.86
45.531 -131.464 3.902 211.79
45.531 -130.180 3.961 166.85
45.531 -128.897 3.776 338.68
45.531 -127.613 3.480 1362.47
45.531 -126.329 3.426 2405.44
45.531 -125.045 3.331 3756.88
45.531 -123.761 3.334 9445.83
45.531 -122.477 3.438 14020.30
45.531 -121.193 3.539 17057.87
45.531 -119.910 3.613 21907.31
45.531 -118.626 3.727 29384.66
45.531 -117.342 3.713 27833.11
45.531 -116.058 3.681 22215.19
45.531 -114.774 3.705 24471.15
45.531 -113.490 3.627 23895.84
45.531 -112.207 3.512 26876.36
45.531 -110.923 3.495 23903.43
45.531 -109.639 3.629 20711.26
45.531 -108.355 3.832 20149.05
45.531 -107.071 3.916 22039.39
45.531 -105.787 3.879 22845.62
45.531 -104.504 3.713 19206.51
45.531 -103.220 3.671 18718.42
45.531 -101.936 3.702 20067.36
45.531 -100.652 3.815 20917.11
45.531 -99.368 3.972 19650.62
45.531 -98.084 4.010 20892.25
45.531 -96.801 3.948 23791.80
45.531 -95.517 3.837 21419.01
45.531 -94.233 3.776 19621.68
45.531 -92.949 3.706 16982.71
45.531 -91.665 3.741 14883.51
45.531 -90.381 3.813 14020.27
45.531 -89.097 3.869 14370.77
45.531 -87.814 3.906 10881.75
45.531 -86.530 3.851 10147.14
45.531 -85.246 3.829 9434.39
45.531 -83.962 3.921 7919.11
45.531 -82.678 3.961 8734.69
45.531 -81.394 3.916 8466.57
45.531 -80.111 3.873 8994.10
45.531 -78.827 3.778 9382.41
45.531 -77.543 3.622 13448.25
45.531 -76.259 3.580 15172.45
45.531 -74.975 3.767 3583.55
45.531 -73.691 3.825 3247.49
45.531 -72.408 3.787 2236.48
45.531 -71.124 3.763 2054.37
45.531 -69.840 3.787 2333.59
45.531 -68.556 3.807 534.15
45.531 -67.272 3.805 957.42
45.531 -65.988 3.805 882.73
45.531 -64.705 3.786 335.42
45.531 -63.421 3.773 192.80
46.431 -135.904 3.775 235.00
46.431 -134.600 3.783 98.96
46.431 -133.295 3.825 234.78
46.431 -131.990 3.882 152.86
46.431 -130.685 3.952 196.81
46.431 -129.380 3.920 328.67
46.431 -128.075 3.844 1173.60
46.431 -126.770 3.883 1878.51
46.431 -125.466 3.664 2943.21
46.431 -124.161 3.484 5733.13
46.431 -122.856 3.527 10783.60
46.431 -121.551 3.588 17121.42
46.431 -120.246 3.642 21385.99
46.431 -118.941 3.761 25438.00
46.431 -117.636 3.715 20728.66
46.431 -116.331 3.661 18165.02
46.431 -115.027 3.685 20034.17
46.431 -113.722 3.649 23513.83
46.431 -112.417 3.663 20800.76
46.431 -111.112 3.724 14670.32
46.431 -109.807 3.838 15837.30
46.431 -108.502 3.913 17225.89
46.431 -107.197 3.873 17844.35
46.431 -105.893 3.863 22934.83
46.431 -104.588 3.705 16767.86
46.431 -103.283 3.605 15380.56
46.431 -101.978 3.605 14776.22
46.431 -100.673 3.709 13751.73
46.431 -99.368 3.872 14745.51
46.431 -98.063 3.966 16244.32
46.431 -96.758 3.982 17741.81
46.431 -95.454 3.894 18660.53
46.431 -94.149 3.811 14562.41
46.431 -92.844 3.761 13705.30
46.431 -91.539 3.788 10223.17
46.431 -90.234 3.818 10128.95
46.431 -88.929 3.869 10321.50
46.431 -87.624 3.882 5930.90
46.431 -86.320 3.812 6915.57
46.431 -85.015 3.815 5989.33
46.431 -83.710 3.916 4792.89
46.431 -82.405 3.911 4332.59
46.431 -81.100 3.860 4781.31
46.431 -79.795 3.865 4409.14
46.431 -78.490 3.829 3897.85
46.431 -77.185 3.767 3407.94
46.431 -75.881 3.768 3243.38
46.431 -74.576 3.876 2339.69
46.431 -73.271 3.885 2072.34
46.431 -71.966 3.836 1141.32
46.431 -70.661 3.801 1340.79
46.431 -69.356 3.815 877.09
46.431 -68.051 3.818 429.47
46.431 -66.747 3.816 403.55
46.431 -65.442 3.807 321.65
46.431 -64.137 3.795 405.56
46.431 -62.832 3.799 223.74
47.330 -136.522 3.830 283.68
47.330 -135.195 3.840 404.60
47.330 -133.868 3.879 144.86
47.330 -132.541 3.909 140.87
47.330 -131.214 3.919 159.85
47.330 -129.887 3.925 419.58
47.330 -128.561 3.960 1324.68
47.330 -127.234 4.043 2494.31
47.330 -125.907 3.833 2249.11
47.330 -124.580 3.628 5039.69
47.330 -123.253 3.580 12203.97
47.330 -121.926 3.562 17398.17
47.330 -120.599 3.590 19255.34
47.330 -119.272 3.657 17432.61
47.330 -117.945 3.749 14455.23
47.330 -116.618 3.717 15548.74
47.330 -115.291 3.686 17696.62
47.330 -113.964 3.626 16342.36
47.330 -112.637 3.661 16311.42
47.330 -111.311 3.722 13325.86
47.330 -109.984 3.799 13464.79
47.330 -108.657 3.848 13865.58
47.330 -107.330 3.788 15084.06
47.330 -106.003 3.771 15622.73
47.330 -104.676 3.631 15608.33
47.330 -103.349 3.555 12519.83
47.330 -102.022 3.580 13546.56
47.330 -100.695 3.646 13033.49
47.330 -99.368 3.787 13343.13
47.330 -98.041 3.942 14257.02
47.330 -96.714 4.036 13162.13
47.330 -95.387 3.968 11029.37
47.330 -94.061 3.887 8877.78
47.330 -92.734 3.826 7707.00
47.330 -91.407 3.801 5955.13
47.330 -90.080 3.830 6136.99
47.330 -88.753 3.876 7451.20
47.330 -87.426 3.854 5562.18
47.330 -86.099 3.781 4923.90
47.330 -84.772 3.799 3792.96
47.330 -83.445 3.903 3355.98
47.330 -82.118 3.922 3067.74
47.330 -80.791 3.884 3424.35
47.330 -79.464 3.922 3628.54
47.330 -78.137 3.965 2959.90
47.330 -76.811 3.957 2295.72
47.330 -75.484 3.954 1677.96
47.330 -74.157 3.979 2000.45
47.330 -72.830 3.944 1633.26
47.330 -71.503 3.882 1793.34
47.330 -70.176 3.828 1201.29
47.330 -68.849 3.800 286.69
47.330 -67.522 3.785 437.54
47.330 -66.195 3.776 407.74
47.330 -64.868 3.773 321.71
47.330 -63.541 3.775 291.71
47.330 -62.214 3.810 358.62
48.229 -137.170 3.909 477.56
48.229 -135.820 3.911 203.82
48.229 -134.470 3.939 333.67
48.229 -133.120 3.952 450.56
48.229 -131.770 3.930 398.60
48.229 -130.420 3.918 970.01
48.229 -129.070 3.930 1703.96
48.229 -127.720 3.999 2146.97
48.229 -126.370 3.852 2513.75
48.229 -125.020 3.700 6630.56
48.229 -123.670 3.622 16197.14
48.229 -122.320 3.600 16624.46
48.229 -120.969 3.550 15759.00
48.229 -119.619 3.626 11931.07
48.229 -118.269 3.735 12110.18
48.229 -116.919 3.714 14633.36
48.229 -115.569 3.670 13081.21
48.229 -114.219 3.615 12885.91
48.229 -112.869 3.623 12116.93
48.229 -111.519 3.664 8746.70
48.229 -110.169 3.690 10177.03
48.229 -108.819 3.715 10817.08
48.229 -107.469 3.715 13803.60
48.229 -106.119 3.710 10447.73
48.229 -104.769 3.634 16079.20
48.229 -103.418 3.621 11968.51
48.229 -102.068 3.598 11533.82
48.229 -100.718 3.612 12184.06
48.229 -99.368 3.740 10958.24
48.229 -98.018 3.833 8808.99
48.229 -96.668 3.904 8747.94
48.229 -95.318 3.930 7431.43
48.229 -93.968 3.942 5176.12
48.229 -92.618 3.943 4523.76
48.229 -91.268 3.923 3653.18
48.229 -89.918 3.947 3218.11
48.229 -88.568 3.975 3930.06
48.229 -87.217 3.948 2580.34
48.229 -85.867 3.853 2452.66
48.229 -84.517 3.835 2485.44
48.229 -83.167 3.919 1925.05
48.229 -81.817 3.953 2187.46
48.229 -80.467 3.939 2336.74
48.229 -79.117 3.962 2159.84
48.229 -77.767 3.989 2534.50
48.229 -76.417 3.972 1576.97
48.229 -75.067 3.942 1127.83
48.229 -73.717 3.938 1332.59
48.229 -72.367 3.884 979.00
48.229 -71.017 3.837 636.36
48.229 -69.666 3.795 185.81
48.229 -68.316 3.770 82.90
48.229 -66.966 3.750 229.73
48.229 -65.616 3.743 258.73
48.229 -64.266 3.747 368.63
48.229 -62.916 3.763 226.76
48.229 -61.566 3.847 228.76
49.129 -137.851 4.037 576.42
49.129 -136.477 4.038 167.83
49.129 -135.103 3.994 302.70
49.129 -133.728 3.936 405.59
49.129 -132.354 3.913 672.32
49.129 -130.979 3.943 889.05
49.129 -129.605 3.899 1149.92
49.129 -128.231 3.870 2358.80
49.129 -126.856 3.781 4170.01
49.129 -125.482 3.702 14811.71
49.129 -124.107 3.660 17912.18
49.129 -122.733 3.582 13853.07
49.129 -121.359 3.557 12198.61
49.129 -119.984 3.564 12253.34
49.129 -118.610 3.642 10281.35
49.129 -117.235 3.671 9455.13
49.129 -115.861 3.624 7844.09
49.129 -114.487 3.643 8438.68
49.129 -113.112 3.649 9180.79
49.129 -111.738 3.688 7545.94
49.129 -110.363 3.657 7530.79
49.129 -108.989 3.664 8137.94
49.129 -107.615 3.708 8932.38
49.129 -106.240 3.731 9709.68
49.129 -104.866 3.717 11463.14
49.129 -103.491 3.700 13418.88
49.129 -102.117 3.647 10587.21
49.129 -100.743 3.688 10261.16
49.129 -99.368 3.714 8614.51
49.129 -97.994 3.764 7161.43
49.129 -96.619 3.805 5600.16
49.129 -95.245 3.845 4456.58
49.129 -93.871 3.909 2469.16
49.129 -92.496 3.917 1968.61
49.129 -91.122 3.904 2297.11
49.129 -89.747 3.915 3381.20
49.129 -88.373 3.980 3491.19
49.129 -86.999 4.026 2745.78
49.129 -85.624 3.954 2958.72
49.129 -84.250 3.916 2605.86
49.129 -82.875 3.962 2346.67
49.129 -81.501 3.990 1656.28
49.129 -80.127 3.974 2389.54
49.129 -78.752 3.949 2000.95
49.129 -77.378 3.936 855.22
49.129 -76.003 3.913 941.35
49.129 -74.629 3.868 538.44
49.129 -73.255 3.833 771.16
49.129 -71.880 3.782 517.51
49.129 -70.506 3.764 326.64
49.129 -69.131 3.765 344.66
49.129 -67.757 3.755 342.88
49.129 -66.383 3.739 143.85
49.129 -65.008 3.737 144.87
49.129 -63.634 3.753 79.93
49.129 -62.259 3.801 140.84
49.129 -60.885 3.929 466.54
50.028 -138.567 4.143 625.39
50.028 -137.167 4.133 785.48
50.028 -135.767 3.965 574.42
50.028 -134.367 3.872 526.44
50.028 -132.967 3.894 277.74
50.028 -131.567 3.920 704.23
50.028 -130.167 3.803 1207.89
50.028 -128.767 3.709 3493.12
50.028 -127.368 3.701 15429.02
50.028 -125.968 3.672 19046.73
50.028 -124.568 3.580 16483.75
50.028 -123.168 3.522 13528.83
50.028 -121.768 3.498 12370.17
50.028 -120.368 3.510 10236.20
50.028 -118.968 3.560 8710.05
50.028 -117.568 3.606 9062.11
50.028 -116.168 3.627 7548.80
50.028 -114.768 3.741 8067.86
50.028 -113.368 3.786 7677.55
50.028 -111.968 3.810 7427.69
50.028 -110.568 3.752 6419.12
50.028 -109.168 3.646 8395.88
50.028 -107.768 3.660 7656.33
50.028 -106.368 3.764 8299.59
50.028 -104.968 3.742 9747.93
50.028 -103.568 3.707 13929.58
50.028 -102.168 3.728 10156.37
50.028 -100.768 3.779 8638.11
50.028 -99.368 3.832 6223.25
50.028 -97.968 3.840 4736.09
50.028 -96.568 3.851 6511.80
50.028 -95.168 3.880 3098.23
50.028 -93.768 3.898 2111.57
50.028 -92.368 3.895 1769.14
50.028 -90.968 3.867 2823.07
50.028 -89.568 3.895 2917.05
50.028 -88.168 3.958 2497.40
50.028 -86.769 3.982 1562.37
50.028 -85.369 3.919 1870.12
50.028 -83.969 3.885 1892.05
50.028 -82.569 3.888 1684.27
50.028 -81.169 3.903 2141.25
50.028 -79.769 3.924 1699.53
50.028 -78.369 3.914 1052.16
50.028 -76.969 3.911 713.11
50.028 -75.569 3.876 911.39
50.028 -74.169 3.841 1165.50
50.028 -72.769 3.792 299.68
50.028 -71.369 3.748 437.57
50.028 -69.969 3.746 384.55
50.028 -68.569 3.763 186.81
50.028 -67.169 3.771 345.65
50.028 -65.769 3.772 72.93
50.028 -64.369 3.790 127.88
50.028 -62.969 3.829 163.84
50.028 -61.569 3.887 525.50
50.028 -60.169 3.982 151.86
50.927 -139.320 4.115 993.06
50.927 -137.893 4.081 848.19
50.927 -136.466 3.904 350.64
50.927 -135.040 3.849 2.00
50.927 -133.613 3.891 461.53
50.927 -132.186 3.849 587.37
50.927 -130.759 3.672 1828.50
50.927 -129.332 3.603 19485.60
50.927 -127.905 3.697 26418.44
50.927 -126.478 3.670 18135.75
50.927 -125.052 3.548 16633.43
50.927 -123.625 3.507 13130.89
50.927 -122.198 3.554 11033.15
50.927 -120.771 3.588 9591.92
50.927 -119.344 3.607 9338.71
50.927 -117.917 3.623 9518.11
50.927 -116.490 3.670 7303.52
50.927 -115.064 3.808 6716.86
50.927 -113.637 3.872 6562.20
50.927 -112.210 3.893 6731.99
50.927 -110.783 3.829 5939.93
50.927 -109.356 3.692 6297.71
50.927 -107.929 3.654 7490.35
50.927 -106.502 3.744 8634.19
50.927 -105.076 3.747 11071.44
50.927 -103.649 3.757 12780.62
50.927 -102.222 3.837 11328.42
50.927 -100.795 3.874 7688.09
50.927 -99.368 3.939 5017.80
50.927 -97.941 3.938 3814.75
50.927 -96.514 3.938 2752.95
50.927 -95.088 3.919 2290.68
50.927 -93.661 3.926 2141.71
50.927 -92.234 3.887 2540.34
50.927 -90.807 3.861 3165.79
50.927 -89.380 3.928 2177.01
50.927 -87.953 3.972 1466.57
50.927 -86.526 3.942 1821.07
50.927 -85.100 3.837 2245.72
50.927 -83.673 3.813 1398.60
50.927 -82.246 3.817 1796.11
50.927 -80.819 3.835 1692.24
50.927 -79.392 3.867 785.96
50.927 -77.965 3.885 676.59
50.927 -76.538 3.890 604.55
50.927 -75.112 3.854 681.55
50.927 -73.685 3.848 983.92
50.927 -72.258 3.800 255.74
50.927 -70.831 3.750 385.59
50.927 -69.404 3.753 224.79
50.927 -67.977 3.788 297.71
50.927 -66.550 3.819 198.80
50.927 -65.124 3.851 259.76
50.927 -63.697 3.887 306.71
50.927 -62.270 3.909 479.53
50.927 -60.843 3.921 320.70
50.927 -59.416 3.970 749.30
51.827 -140.113 4.039 1076.00
51.827 -138.658 4.001 218.79
51.827 -137.203 3.861 21.97
51.827 -135.747 3.859 155.82
51.827 -134.292 3.906 682.31
51.827 -132.837 3.785 489.50
51.827 -131.382 3.589 29479.56
51.827 -129.927 3.618 42141.09
51.827 -128.472 3.770 21505.59
51.827 -127.016 3.748 16279.99
51.827 -125.561 3.683 13358.62
51.827 -124.106 3.672 11688.08
51.827 -122.651 3.758 9786.44
51.827 -121.196 3.789 7504.47
51.827 -119.741 3.756 6356.96
51.827 -118.285 3.748 6365.71
51.827 -116.830 3.750 5430.71
51.827 -115.375 3.811 4659.42
51.827 -113.920 3.850 4667.40
51.827 -112.465 3.872 5746.42
51.827 -111.010 3.861 6616.42
51.827 -109.554 3.798 6570.20
51.827 -108.099 3.756 7551.35
51.827 -106.644 3.833 10855.72
51.827 -105.189 3.870 11389.12
51.827 -103.734 3.888 11010.65
51.827 -102.279 3.913 12216.47
51.827 -100.823 3.909 7036.77
51.827 -99.368 3.941 4442.38
51.827 -97.913 3.909 3394.97
51.827 -96.458 3.900 1893.08
51.827 -95.003 3.888 2389.56
51.827 -93.548 3.899 2314.63
51.827 -92.092 3.892 2012.96
51.827 -90.637 3.886 2549.78
51.827 -89.182 3.946 2026.83
51.827 -87.727 3.971 1960.91
51.827 -86.272 3.923 2005.89
51.827 -84.817 3.833 1899.13
51.827 -83.361 3.813 1680.36
51.827 -81.906 3.801 1585.65
51.827 -80.451 3.813 1133.80
51.827 -78.996 3.878 992.17
51.827 -77.541 3.901 858.48
51.827 -76.085 3.883 694.43
51.827 -74.630 3.887 710.29
51.827 -73.175 3.899 911.00
51.827 -71.720 3.862 555.47
51.827 -70.265 3.815 488.50
51.827 -68.810 3.809 231.80
51.827 -67.354 3.841 200.79
51.827 -65.899 3.875 194.82
51.827 -64.444 3.907 637.41
51.827 -62.989 3.917 673.35
51.827 -61.534 3.916 546.49
51.827 -60.079 3.919 703.35
51.827 -58.623 3.942 361.66
52.726 -140.948 3.999 432.60
52.726 -139.463 3.953 91.89
52.726 -137.978 3.862 135.84
52.726 -136.493 3.897 418.60
52.726 -135.008 3.899 733.29
52.726 -133.523 3.767 466.53
52.726 -132.038 3.640 4316.49
52.726 -130.553 3.721 10060.23
52.726 -129.068 3.822 8510.72
52.726 -127.583 3.773 8051.39
52.726 -126.098 3.720 7501.02
52.726 -124.613 3.712 7781.08
52.726 -123.128 3.783 5938.99
52.726 -121.643 3.790 5979.27
52.726 -120.158 3.747 5045.46
52.726 -118.673 3.749 5516.57
52.726 -117.188 3.777 5477.53
52.726 -115.703 3.824 4947.04
52.726 -114.218 3.855 3572.46
52.726 -112.733 3.920 6536.64
52.726 -111.248 3.992 7139.82
52.726 -109.763 3.954 6802.97
52.726 -108.278 3.943 8578.10
52.726 -106.793 3.934 10891.65
52.726 -105.308 3.894 11206.27
52.726 -103.823 3.888 10981.64
52.726 -102.338 3.882 10707.95
52.726 -100.853 3.880 8447.36
52.726 -99.368 3.845 4008.98
52.726 -97.883 3.841 2165.47
52.726 -96.398 3.838 1735.21
52.726 -94.913 3.838 2493.45
52.726 -93.428 3.862 1738.20
52.726 -91.943 3.905 1678.88
52.726 -90.458 3.902 2249.95
52.726 -88.973 3.935 1921.92
52.726 -87.488 3.928 1711.28
52.726 -86.003 3.890 1939.98
52.726 -84.518 3.820 1821.31
52.726 -83.033 3.809 993.02
52.726 -81.548 3.795 928.97
52.726 -80.063 3.809 1295.27
52.726 -78.578 3.861 1426.13
52.726 -77.093 3.858 867.96
52.726 -75.608 3.855 758.72
52.726 -74.123 3.890 1108.82
52.726 -72.638 3.919 808.23
52.726 -71.153 3.921 985.02
52.726 -69.668 3.911 445.56
52.726 -68.183 3.902 563.48
52.726 -66.698 3.911 534.49
52.726 -65.213 3.924 826.23
52.726 -63.728 3.927 533.50
52.726 -62.243 3.923 530.48
52.726 -60.758 3.915 456.57
52.726 -59.273 3.914 36.97
52.726 -57.788 3.939 332.70
53.625 -141.829 3.955 586.42
53.625 -140.313 3.927 174.83
53.625 -138.796 3.879 382.65
53.625 -137.280 3.896 491.51
53.625 -135.763 3.841 184.80
53.625 -134.247 3.757 357.63
53.625 -132.730 3.760 969.92
53.625 -131.214 3.896 2777.54
53.625 -129.697 3.909 3296.34
53.625 -128.181 3.787 3539.34
53.625 -126.665 3.740 3669.57
53.625 -125.148 3.736 4375.69
53.625 -123.632 3.746 3167.92
53.625 -122.115 3.715 3698.43
53.625 -120.599 3.691 3415.29
53.625 -119.082 3.709 3832.30
53.625 -117.566 3.772 4980.03
53.625 -116.049 3.847 4115.80
53.625 -114.533 3.892 4492.64
53.625 -113.016 3.928 5860.70
53.625 -111.500 4.016 7531.39
53.625 -109.983 4.038 8041.80
53.625 -108.467 4.000 10092.42
53.625 -106.951 3.870 10778.70
53.625 -105.434 3.820 10791.93
53.625 -103.918 3.812 8928.78
53.625 -102.401 3.827 8161.66
53.625 -100.885 3.808 9104.26
53.625 -99.368 3.797 3632.82
53.625 -97.852 3.821 2246.62
53.625 -96.335 3.831 2170.69
53.625 -94.819 3.837 1814.15
53.625 -93.302 3.867 1581.97
53.625 -91.786 3.901 1680.04
53.625 -90.269 3.865 1765.89
53.625 -88.753 3.886 1799.52
53.625 -87.237 3.877 1689.35
53.625 -85.720 3.848 1937.98
53.625 -84.204 3.799 1009.97
53.625 -82.687 3.797 610.40
53.625 -81.171 3.806 1131.76
53.625 -79.654 3.822 1105.91
53.625 -78.138 3.823 1011.79
53.625 -76.621 3.801 1005.66
53.625 -75.105 3.793 1276.76
53.625 -73.588 3.844 1595.83
53.625 -72.072 3.894 780.25
53.625 -70.555 3.968 709.29
53.625 -69.039 4.028 720.28
53.625 -67.523 4.021 942.10
53.625 -66.006 3.975 681.37
53.625 -64.490 3.935 441.59
53.625 -62.973 3.914 423.57
53.625 -61.457 3.904 267.75
53.625 -59.940 3.898 110.90
53.625 -58.424 3.906 435.59
53.625 -56.907 3.904 265.72
54.525 -142.759 3.902 258.74
54.525 -141.209 3.891 317.70
54.525 -139.660 3.861 157.84
54.525 -138.110 3.828 315.70
54.525 -136.560 3.769 217.74
54.525 -135.011 3.755 382.66
54.525 -133.461 3.860 754.90
54.525 -131.911 3.985 2672.42
54.525 -130.362 3.956 3057.08
54.525 -128.812 3.783 3387.53
54.525 -127.262 3.713 3169.14
54.525 -125.713 3.734 3565.45
54.525 -124.163 3.742 2953.59
54.525 -122.613 3.712 3116.36
54.525 -121.064 3.734 2839.26
54.525 -119.514 3.790 2890.25
54.525 -117.964 3.821 3921.15
54.525 -116.415 3.893 3736.20
54.525 -114.865 3.905 5002.89
54.525 -113.315 3.894 5788.15
54.525 -111.766 3.951 7265.66
54.525 -110.216 3.985 9753.88
54.525 -108.666 3.935 10682.72
54.525 -107.117 3.833 11477.07
54.525 -105.567 3.792 8725.97
54.525 -104.017 3.834 6398.39
54.525 -102.468 3.824 7283.66
54.525 -100.918 3.780 6976.72
54.525 -99.368 3.809 4858.04
54.525 -97.819 3.858 3105.65
54.525 -96.269 3.879 1713.17
54.525 -94.719 3.857 1901.11
54.525 -93.170 3.827 1511.03
54.525 -91.620 3.850 1276.22
54.525 -90.070 3.822 2573.65
54.525 -88.520 3.861 1662.31
54.525 -86.971 3.848 1642.33
54.525 -85.421 3.802 967.31
54.525 -83.871 3.775 593.38
54.525 -82.322 3.784 625.35
54.525 -80.772 3.796 992.93
54.525 -79.222 3.818 1166.95
54.525 -77.673 3.805 716.97
54.525 -76.123 3.797 815.21
54.525 -74.573 3.786 1019.95
54.525 -73.024 3.791 1100.83
54.525 -71.474 3.816 810.16
54.525 -69.924 3.904 741.09
54.525 -68.375 3.998 1352.54
54.525 -66.825 3.990 840.60
54.525 -65.275 3.929 282.73
54.525 -63.726 3.876 327.67
54.525 -62.176 3.845 121.87
54.525 -60.626 3.858 124.86
54.525 -59.077 3.892 416.58
54.525 -57.527 3.892 186.80
54.525 -55.977 3.870 112.89
55.424 -143.742 3.846 495.54
55.424 -142.157 3.832 0.00
55.424 -140.572 3.827 299.68
55.424 -138.988 3.777 226.78
55.424 -137.403 3.751 147.83
55.424 -135.818 3.788 646.32
55.424 -134.233 3.900 627.10
55.424 -132.648 3.988 3020.08
55.424 -131.064 3.873 2684.10
55.424 -129.479 3.712 3008.78
55.424 -127.894 3.649 2520.87
55.424 -126.309 3.671 3328.81
55.424 -124.725 3.680 3394.04
55.424 -123.140 3.683 2837.93
55.424 -121.555 3.769 3342.74
55.424 -119.970 3.859 3796.43
55.424 -118.385 3.891 4037.94
55.424 -116.801 3.889 4810.12
55.424 -115.216 3.893 5238.60
55.424 -113.631 3.855 5797.13
55.424 -112.046 3.898 8133.78
55.424 -110.462 3.929 11336.17
55.424 -108.877 3.894 12132.29
55.424 -107.292 3.852 9260.39
55.424 -105.707 3.853 7564.17
55.424 -104.123 3.897 4985.96
55.424 -102.538 3.859 4866.09
55.424 -100.953 3.798 5423.42
55.424 -99.368 3.775 8493.23
55.424 -97.783 3.838 2482.26
55.424 -96.199 3.885 2009.22
55.424 -94.614 3.846 1199.99
55.424 -93.029 3.797 1555.89
55.424 -91.444 3.812 1346.19
55.424 -89.860 3.801 2981.93
55.424 -88.275 3.830 1080.86
55.424 -86.690 3.829 1200.80
55.424 -85.105 3.796 900.03
55.424 -83.520 3.782 699.25
55.424 -81.936 3.782 715.38
55.424 -80.351 3.777 1370.75
55.424 -78.766 3.789 887.57
55.424 -77.181 3.778 802.15
55.424 -75.597 3.769 529.48
55.424 -74.012 3.783 975.92
55.424 -72.427 3.778 411.56
55.424 -70.842 3.778 723.19
55.424 -69.257 3.821 842.14
55.424 -67.673 3.871 1016.96
55.424 -66.088 3.839 550.46
55.424 -64.503 3.794 470.32
55.424 -62.918 3.763 224.74
55.424 -61.334 3.771 142.44
55.424 -59.749 3.826 248.76
55.424 -58.164 3.872 117.89
55.424 -56.579 3.870 348.67
55.424 -54.995 3.828 293.73
56.324 -144.782 3.798 49.95
56.324 -143.160 3.796 138.85
56.324 -141.538 3.795 169.82
56.324 -139.916 3.772 255.75
56.324 -138.294 3.786 287.70
56.324 -136.672 3.827 807.33
56.324 -135.050 3.898 871.13
56.324 -133.428 3.939 2319.08
56.324 -131.806 3.779 2788.36
56.324 -130.184 3.663 2601.44
56.324 -128.563 3.648 2135.05
56.324 -126.941 3.644 2362.50
56.324 -125.319 3.658 4104.90
56.324 -123.697 3.673 3510.58
56.324 -122.075 3.763 3270.56
56.324 -120.453 3.843 3507.58
56.324 -118.831 3.828 4243.69
56.324 -117.209 3.811 4131.85
56.324 -115.587 3.825 5999.82
56.324 -113.965 3.812 7865.91
56.324 -112.343 3.904 11108.52
56.324 -110.722 3.925 13106.24
56.324 -109.100 3.921 10487.20
56.324 -107.478 3.943 8086.56
56.324 -105.856 3.956 4826.96
56.324 -104.234 3.940 5359.11
56.324 -102.612 3.925 4504.31
56.324 -100.990 3.823 5721.05
56.324 -99.368 3.758 6625.14
56.324 -97.746 3.764 4778.03
56.324 -96.124 3.807 1404.72
56.324 -94.502 3.822 1407.40
56.324 -92.881 3.817 2337.16
56.324 -91.259 3.849 1554.42
56.324 -89.637 3.809 1915.00
56.324 -88.015 3.820 850.15
56.324 -86.393 3.820 1102.88
56.324 -84.771 3.793 560.38
56.324 -83.149 3.794 541.45
56.324 -81.527 3.788 805.41
56.324 -79.905 3.752 1361.27
56.324 -78.283 3.760 880.52
56.324 -76.661 3.767 478.48
56.324 -75.040 3.773 716.38
56.324 -73.418 3.804 1030.83
56.324 -71.796 3.804 595.37
56.324 -70.174 3.802 667.28
56.324 -68.552 3.812 432.54
56.324 -66.930 3.794 762.24
56.324 -65.308 3.721 543.49
56.324 -63.686 3.668 369.64
56.324 -62.064 3.660 118.90
56.324 -60.442 3.680 93.92
56.324 -58.820 3.740 74.93
56.324 -57.199 3.802 426.22
56.324 -55.577 3.788 61.94
56.324 -53.955 3.767 0.00
57.223 -145.883 3.792 0.00
57.223 -144.222 3.799 319.66
57.223 -142.561 3.784 0.00
57.223 -140.899 3.792 363.65
57.223 -139.238 3.817 562.42
57.223 -137.577 3.833 768.84
57.223 -135.916 3.859 1141.43
57.223 -134.254 3.862 2052.06
57.223 -132.593 3.728 2090.25
57.223 -130.932 3.669 2284.13
57.223 -129.271 3.675 2270.43
57.223 -127.609 3.664 2459.93
57.223 -125.948 3.684 4401.62
57.223 -124.287 3.658 4226.78
57.223 -122.626 3.728 3152.93
57.223 -120.964 3.826 2780.28
57.223 -119.303 3.826 4111.81
57.223 -117.642 3.833 4179.82
57.223 -115.981 3.844 7264.61
57.223 -114.319 3.855 11059.61
57.223 -112.658 3.923 14518.83
57.223 -110.997 3.958 12654.93
57.223 -109.336 3.946 8912.77
57.223 -107.674 3.999 5870.55
57.223 -106.013 3.986 4605.75
57.223 -104.352 3.943 5310.42
57.223 -102.691 3.929 4767.03
57.223 -101.029 3.872 4080.74
57.223 -99.368 3.784 4608.81
57.223 -97.707 3.717 6628.59
57.223 -96.046 3.740 2807.79
57.223 -94.384 3.791 1883.21
57.223 -92.723 3.872 2362.62
57.223 -91.062 3.928 1040.93
57.223 -89.401 3.872 1790.12
57.223 -87.739 3.849 547.43
57.223 -86.078 3.824 956.04
57.223 -84.417 3.790 962.97
57.223 -82.756 3.801 872.95
57.223 -81.094 3.781 988.15
57.223 -79.433 3.716 1173.79
57.223 -77.772 3.738 893.05
57.223 -76.111 3.767 468.51
57.223 -74.449 3.784 716.26
57.223 -72.788 3.797 787.18
57.223 -71.127 3.789 480.50
57.223 -69.466 3.793 64.93
57.223 -67.805 3.803 475.53
57.223 -66.143 3.766 300.71
57.223 -64.482 3.700 218.78
57.223 -62.821 3.646 267.75
57.223 -61.160 3.615 305.72
57.223 -59.498 3.613 373.66
57.223 -57.837 3.653 100.92
57.223 -56.176 3.691 97.92
57.223 -54.515 3.697 170.20
57.223 -52.853 3.723 9.99
58.122 -147.051 3.820 248.74
58.122 -145.348 3.819 84.91
58.122 -143.645 3.807 107.90
58.122 -141.942 3.821 645.35
58.122 -140.239 3.824 526.74
58.122 -138.537 3.824 908.14
58.122 -136.834 3.830 964.01
58.122 -135.131 3.839 2141.62
58.122 -133.428 3.786 2602.37
58.122 -131.725 3.744 2404.65
58.122 -130.022 3.732 3545.23
58.122 -128.319 3.717 2634.41
58.122 -126.616 3.722 4157.04
58.122 -124.913 3.695 3745.19
58.122 -123.210 3.781 2816.39
58.122 -121.507 3.857 4016.09
58.122 -119.804 3.886 3832.12
58.122 -118.101 3.905 5470.43
58.122 -116.398 3.921 9044.78
58.122 -114.695 3.953 16186.25
58.122 -112.992 3.923 14796.59
58.122 -111.289 3.925 10537.17
58.122 -109.586 3.894 5486.26
58.122 -107.883 3.919 4763.27
58.122 -106.180 3.904 5153.59
58.122 -104.477 3.894 4083.69
58.122 -102.774 3.897 4502.35
58.122 -101.071 3.903 4369.19
58.122 -99.368 3.823 4573.09
58.122 -97.665 3.733 6518.94
58.122 -95.962 3.730 4430.88
58.122 -94.259 3.784 2732.28
58.122 -92.556 3.903 1876.11
58.122 -90.853 3.980 1367.51
58.122 -89.150 3.909 1725.14
58.122 -87.447 3.864 875.05
58.122 -85.744 3.850 1339.64
58.122 -84.041 3.811 880.09
58.122 -82.339 3.800 532.44
58.122 -80.636 3.745 592.66
58.122 -78.933 3.694 1203.11
58.122 -77.230 3.727 687.28
58.122 -75.527 3.767 749.25
58.122 -73.824 3.776 1110.82
58.122 -72.121 3.756 200.81
58.122 -70.418 3.752 287.68
58.122 -68.715 3.764 191.80
58.122 -67.012 3.768 329.69
58.122 -65.309 3.741 144.86
58.122 -63.606 3.708 176.82
58.122 -61.903 3.684 87.90
58.122 -60.200 3.656 260.77
58.122 -58.497 3.636 179.85
58.122 -56.794 3.625 284.73
58.122 -55.091 3.627 239.78
58.122 -53.388 3.638 136.89
58.122 -51.685 3.691 239.79
59.022 -148.292 3.829 404.58
59.022 -146.545 3.833 86.37
