32.940 -86.509 3.808 605.41
32.940 -85.437 3.818 517.07
32.940 -84.365 3.783 328.09
32.940 -83.294 3.744 113.89
32.940 -82.222 3.724 101.91
32.940 -81.150 3.713 276.75
32.940 -80.079 3.680 162.96
32.940 -79.007 3.646 0.00
32.940 -77.935 3.632 0.00
32.940 -76.864 3.631 0.00
32.940 -75.792 3.635 0.00
32.940 -74.721 3.641 0.00
32.940 -73.649 3.647 0.00
32.940 -72.577 3.655 50.94
32.940 -71.506 3.660 96.89
32.940 -70.434 3.659 45.95
32.940 -69.362 3.656 0.00
33.839 -129.686 3.658 0.00
33.839 -128.603 3.656 0.00
33.839 -127.521 3.655 0.00
33.839 -126.438 3.651 0.00
33.839 -125.355 3.640 0.00
33.839 -124.272 3.633 0.00
33.839 -123.189 3.631 0.00
33.839 -122.107 3.633 0.00
33.839 -121.024 3.638 0.00
33.839 -119.941 3.656 0.00
33.839 -118.858 3.683 331.52
33.839 -117.775 3.658 1036.02
33.839 -116.693 3.544 2051.03
33.839 -115.610 3.440 1457.68
33.839 -114.527 3.411 2054.56
33.839 -113.444 3.430 3168.56
33.839 -112.362 3.391 2668.25
33.839 -111.279 3.282 2772.01
33.839 -110.196 3.358 1481.90
33.839 -109.113 3.482 1489.75
33.839 -108.030 3.549 1610.55
33.839 -106.948 3.573 1776.18
33.839 -105.865 3.613 1797.92
33.839 -104.782 3.677 1925.33
33.839 -103.699 3.728 2345.18
33.839 -102.617 3.771 1822.43
33.839 -101.534 3.754 1057.15
33.839 -100.451 3.727 1092.72
33.839 -99.368 3.721 1112.69
33.839 -98.285 3.733 413.60
33.839 -97.203 3.739 410.62
33.839 -96.120 3.725 596.22
33.839 -95.037 3.735 494.66
33.839 -93.954 3.765 376.58
33.839 -92.872 3.818 624.62
33.839 -91.789 3.848 716.08
33.839 -90.706 3.835 292.02
33.839 -89.623 3.810 282.14
33.839 -88.540 3.800 435.06
33.839 -87.458 3.808 346.62
33.839 -86.375 3.837 939.61
33.839 -85.292 3.852 812.24
33.839 -84.209 3.821 794.44
33.839 -83.126 3.768 373.74
33.839 -82.044 3.726 204.78
33.839 -80.961 3.703 101.89
33.839 -79.878 3.677 0.00
33.839 -78.795 3.651 0.00
33.839 -77.713 3.636 0.00
33.839 -76.630 3.631 0.00
33.839 -75.547 3.632 0.00
33.839 -74.464 3.633 0.00
33.839 -73.381 3.636 0.00
33.839 -72.299 3.641 0.00
33.839 -71.216 3.648 0.00
33.839 -70.133 3.654 50.94
33.839 -69.050 3.659 97.88
34.739 -130.012 3.658 51.94
34.739 -128.918 3.651 0.00
34.739 -127.823 3.641 0.00
34.739 -126.729 3.635 0.00
34.739 -125.635 3.630 0.00
34.739 -124.540 3.629 0.00
34.739 -123.446 3.637 0.00
34.739 -122.351 3.648 0.00
34.739 -121.257 3.657 0.00
34.739 -120.162 3.675 171.26
34.739 -119.068 3.707 1230.97
34.739 -117.974 3.689 3238.39
34.739 -116.879 3.525 2297.29
34.739 -115.785 3.421 2529.42
34.739 -114.690 3.350 3021.19
34.739 -113.596 3.321 3295.37
34.739 -112.501 3.319 3049.87
34.739 -111.407 3.249 2692.14
34.739 -110.313 3.356 1643.57
34.739 -109.218 3.510 1266.92
34.739 -108.124 3.603 2482.24
34.739 -107.029 3.616 2252.84
34.739 -105.935 3.655 2237.72
34.739 -104.840 3.691 2508.14
34.739 -103.746 3.703 2535.45
34.739 -102.651 3.696 1442.38
34.739 -101.557 3.707 1123.18
34.739 -100.463 3.720 1019.32
34.739 -99.368 3.708 960.51
34.739 -98.274 3.710 805.44
34.739 -97.179 3.731 600.40
34.739 -96.085 3.764 463.55
34.739 -94.990 3.802 630.40
34.739 -93.896 3.824 1040.28
34.739 -92.802 3.849 446.50
34.739 -91.707 3.860 379.43
34.739 -90.613 3.866 773.48
34.739 -89.518 3.862 874.69
34.739 -88.424 3.854 504.27
34.739 -87.329 3.831 641.28
34.739 -86.235 3.813 520.43
34.739 -85.141 3.808 796.17
34.739 -84.046 3.798 422.06
34.739 -82.952 3.758 349.69
34.739 -81.857 3.713 244.37
34.739 -80.763 3.687 156.88
34.739 -79.668 3.669 157.36
34.739 -78.574 3.654 108.20
34.739 -77.480 3.643 0.00
34.739 -76.385 3.635 0.00
34.739 -75.291 3.633 0.00
34.739 -74.196 3.633 0.00
34.739 -73.102 3.632 0.00
34.739 -72.007 3.633 0.00
34.739 -70.913 3.636 0.00
34.739 -69.818 3.642 0.00
34.739 -68.724 3.651 0.00
35.638 -130.353 3.669 141.83
35.638 -129.247 3.667 64.92
35.638 -128.140 3.653 0.00
35.638 -127.034 3.643 0.00
35.638 -125.927 3.636 0.00
35.638 -124.820 3.638 0.00
35.638 -123.714 3.647 0.00
35.638 -122.607 3.637 0.00
35.638 -121.500 3.610 0.00
35.638 -120.394 3.578 1378.77
35.638 -119.287 3.611 3604.43
35.638 -118.181 3.615 4493.51
35.638 -117.074 3.523 3439.19
35.638 -115.967 3.431 3412.45
35.638 -114.861 3.341 3800.60
35.638 -113.754 3.317 3434.75
35.638 -112.648 3.362 2540.49
35.638 -111.541 3.339 2565.79
35.638 -110.434 3.414 2396.43
35.638 -109.328 3.579 2575.71
35.638 -108.221 3.670 3014.04
35.638 -107.115 3.663 3114.46
35.638 -106.008 3.667 3139.42
35.638 -104.901 3.675 3106.10
35.638 -103.795 3.676 2323.00
35.638 -102.688 3.671 1756.74
35.638 -101.581 3.687 1275.22
35.638 -100.475 3.716 1107.90
35.638 -99.368 3.724 364.33
35.638 -98.262 3.721 343.64
35.638 -97.155 3.725 772.22
35.638 -96.048 3.780 1325.54
35.638 -94.942 3.873 1118.83
35.638 -93.835 3.914 618.67
35.638 -92.729 3.916 804.19
35.638 -91.622 3.900 912.09
35.638 -90.515 3.886 644.83
35.638 -89.409 3.860 473.51
35.638 -88.302 3.824 645.30
35.638 -87.195 3.786 555.41
35.638 -86.089 3.767 525.43
35.638 -84.982 3.768 525.49
35.638 -83.876 3.775 485.57
35.638 -82.769 3.760 254.14
35.638 -81.662 3.716 226.00
35.638 -80.556 3.672 70.93
35.638 -79.449 3.642 100.89
35.638 -78.343 3.637 150.24
35.638 -77.236 3.637 0.00
35.638 -76.129 3.635 0.00
35.638 -75.023 3.634 0.00
35.638 -73.916 3.634 0.00
35.638 -72.809 3.634 0.00
35.638 -71.703 3.633 0.00
35.638 -70.596 3.632 0.00
35.638 -69.490 3.633 0.00
35.638 -68.383 3.640 0.00
36.538 -130.710 3.657 0.00
36.538 -129.591 3.659 32.96
36.538 -128.471 3.662 97.88
36.538 -127.352 3.660 85.90
36.538 -126.233 3.655 0.00
36.538 -125.113 3.654 0.00
36.538 -123.994 3.640 0.00
36.538 -122.875 3.593 0.00
36.538 -121.755 3.523 87.18
36.538 -120.636 3.443 3086.90
36.538 -119.516 3.436 7638.34
36.538 -118.397 3.435 5339.42
36.538 -117.278 3.456 4578.00
36.538 -116.158 3.431 5114.61
36.538 -115.039 3.414 4122.66
36.538 -113.920 3.442 2882.02
36.538 -112.800 3.492 3297.99
36.538 -111.681 3.491 3132.45
36.538 -110.562 3.505 3552.80
36.538 -109.442 3.629 3238.02
36.538 -108.323 3.687 3572.77
36.538 -107.204 3.674 3660.06
36.538 -106.084 3.630 3088.09
36.538 -104.965 3.630 2853.86
36.538 -103.846 3.652 1932.24
36.538 -102.726 3.674 1855.86
36.538 -101.607 3.697 1312.09
36.538 -100.488 3.717 917.54
36.538 -99.368 3.736 732.90
36.538 -98.249 3.760 756.22
36.538 -97.130 3.805 787.19
36.538 -96.010 3.833 1151.81
36.538 -94.891 3.824 1044.94
36.538 -93.771 3.833 1092.22
36.538 -92.652 3.870 751.24
36.538 -91.533 3.894 946.07
36.538 -90.413 3.873 1107.32
36.538 -89.294 3.823 864.72
36.538 -88.175 3.763 867.56
36.538 -87.055 3.724 279.70
36.538 -85.936 3.713 328.64
36.538 -84.817 3.745 348.65
36.538 -83.697 3.789 805.61
36.538 -82.578 3.807 648.38
36.538 -81.459 3.767 369.22
36.538 -80.339 3.704 215.23
36.538 -79.220 3.658 64.94
36.538 -78.101 3.639 0.00
36.538 -76.981 3.633 0.00
36.538 -75.862 3.631 0.00
36.538 -74.743 3.633 0.00
36.538 -73.623 3.634 0.00
36.538 -72.504 3.634 0.00
36.538 -71.384 3.634 0.00
36.538 -70.265 3.633 0.00
36.538 -69.146 3.632 0.00
36.538 -68.026 3.634 0.00
37.437 -131.083 3.639 0.00
37.437 -129.950 3.639 0.00
37.437 -128.817 3.646 0.00
37.437 -127.685 3.655 10.99
37.437 -126.552 3.664 97.88
37.437 -125.419 3.667 97.89
37.437 -124.287 3.643 18.98
37.437 -123.154 3.581 0.00
37.437 -122.021 3.478 7257.44
37.437 -120.889 3.370 13506.55
37.437 -119.756 3.329 8620.03
37.437 -118.623 3.337 5752.11
37.437 -117.491 3.399 5282.08
37.437 -116.358 3.463 5335.01
37.437 -115.225 3.522 3846.83
37.437 -114.093 3.534 3046.47
37.437 -112.960 3.555 4393.24
37.437 -111.827 3.610 3862.88
37.437 -110.695 3.589 4680.77
37.437 -109.562 3.664 3570.84
37.437 -108.429 3.692 4615.85
37.437 -107.297 3.675 3969.43
37.437 -106.164 3.620 3823.93
37.437 -105.032 3.636 3023.71
37.437 -103.899 3.681 2345.53
37.437 -102.766 3.688 1755.69
37.437 -101.634 3.698 1682.70
37.437 -100.501 3.715 1207.62
37.437 -99.368 3.756 706.09
37.437 -98.236 3.805 585.41
37.437 -97.103 3.852 864.13
37.437 -95.970 3.855 657.35
37.437 -94.838 3.825 420.57
37.437 -93.705 3.786 1032.23
37.437 -92.572 3.807 1277.72
37.437 -91.440 3.858 1411.56
37.437 -90.307 3.904 748.19
37.437 -89.174 3.918 469.48
37.437 -88.042 3.871 183.81
37.437 -86.909 3.771 236.76
37.437 -85.776 3.695 254.73
37.437 -84.644 3.698 440.55
37.437 -83.511 3.759 430.54
37.437 -82.378 3.805 708.32
37.437 -81.246 3.797 826.15
37.437 -80.113 3.746 298.08
37.437 -78.980 3.694 134.49
37.437 -77.848 3.657 59.94
37.437 -76.715 3.637 0.00
37.437 -75.582 3.629 0.00
37.437 -74.450 3.632 0.00
37.437 -73.317 3.635 0.00
37.437 -72.184 3.634 0.00
37.437 -71.052 3.634 0.00
37.437 -69.919 3.634 0.00
37.437 -68.786 3.634 0.00
37.437 -67.654 3.633 0.00
38.336 -131.472 3.632 0.00
38.336 -130.326 3.631 0.00
38.336 -129.179 3.634 0.00
38.336 -128.033 3.640 0.00
38.336 -126.886 3.648 0.00
38.336 -125.740 3.654 0.00
38.336 -124.593 3.656 79.91
38.336 -123.446 3.659 105.51
38.336 -122.300 3.608 2778.65
38.336 -121.153 3.506 11560.03
38.336 -120.007 3.381 4732.83
38.336 -118.860 3.339 6130.16
38.336 -117.713 3.353 7067.18
38.336 -116.567 3.450 4641.85
38.336 -115.420 3.529 3385.90
38.336 -114.274 3.577 3845.26
38.336 -113.127 3.611 4487.52
38.336 -111.981 3.688 4787.32
38.336 -110.834 3.643 5319.13
38.336 -109.687 3.662 5220.54
38.336 -108.541 3.664 4737.67
38.336 -107.394 3.662 4634.75
38.336 -106.248 3.658 3943.35
38.336 -105.101 3.710 2854.11
38.336 -103.955 3.747 2485.33
38.336 -102.808 3.773 2093.10
38.336 -101.661 3.808 1419.13
38.336 -100.515 3.835 1048.24
38.336 -99.368 3.864 910.59
38.336 -98.222 3.873 994.02
38.336 -97.075 3.854 903.07
38.336 -95.928 3.827 1043.91
38.336 -94.782 3.823 1281.66
38.336 -93.635 3.817 1022.34
38.336 -92.489 3.821 1153.75
38.336 -91.342 3.853 1100.03
38.336 -90.196 3.955 1319.52
38.336 -89.049 4.048 924.84
38.336 -87.902 4.040 1152.28
38.336 -86.756 3.911 571.97
38.336 -85.609 3.797 407.60
38.336 -84.463 3.741 499.45
38.336 -83.316 3.729 336.64
38.336 -82.170 3.740 607.38
38.336 -81.023 3.750 596.45
38.336 -79.876 3.737 361.65
38.336 -78.730 3.708 273.20
38.336 -77.583 3.672 282.14
38.336 -76.437 3.648 0.00
38.336 -75.290 3.631 0.00
38.336 -74.143 3.629 0.00
38.336 -72.997 3.633 0.00
38.336 -71.850 3.635 0.00
38.336 -70.704 3.634 0.00
38.336 -69.557 3.634 0.00
38.336 -68.411 3.634 0.00
38.336 -67.264 3.634 0.00
39.236 -131.880 3.633 0.00
39.236 -130.719 3.633 0.00
39.236 -129.558 3.633 0.00
39.236 -128.397 3.631 0.00
39.236 -127.235 3.629 0.00
39.236 -126.074 3.639 0.00
39.236 -124.913 3.670 0.00
39.236 -123.752 3.693 188.60
39.236 -122.591 3.695 3787.76
39.236 -121.430 3.595 7211.60
39.236 -120.269 3.497 7629.04
39.236 -119.107 3.454 4795.40
39.236 -117.946 3.456 3234.26
39.236 -116.785 3.444 3406.93
39.236 -115.624 3.521 3425.41
39.236 -114.463 3.593 4402.02
39.236 -113.302 3.633 4724.28
39.236 -112.141 3.709 5912.96
39.236 -110.980 3.652 6987.83
39.236 -109.818 3.662 5624.96
39.236 -108.657 3.654 5182.04
39.236 -107.496 3.669 4236.73
39.236 -106.335 3.748 4226.92
39.236 -105.174 3.831 3012.23
39.236 -104.013 3.884 2594.40
39.236 -102.852 3.899 2017.97
39.236 -101.690 3.882 2164.90
39.236 -100.529 3.879 1895.10
39.236 -99.368 3.888 1498.18
39.236 -98.207 3.858 1141.80
39.236 -97.046 3.832 1155.44
39.236 -95.885 3.861 783.19
39.236 -94.724 3.876 791.18
39.236 -93.563 3.881 720.57
39.236 -92.401 3.899 721.26
39.236 -91.240 3.983 707.26
39.236 -90.079 4.102 844.13
39.236 -88.918 4.202 1360.75
39.236 -87.757 4.156 992.66
39.236 -86.596 4.044 768.84
39.236 -85.435 3.959 368.60
39.236 -84.273 3.895 291.70
39.236 -83.112 3.853 381.61
39.236 -81.951 3.842 222.77
39.236 -80.790 3.827 497.50
39.236 -79.629 3.792 622.09
39.236 -78.468 3.752 449.55
39.236 -77.307 3.710 344.60
39.236 -76.145 3.670 8.95
39.236 -74.984 3.640 0.00
39.236 -73.823 3.630 0.00
39.236 -72.662 3.630 0.00
39.236 -71.501 3.633 0.00
39.236 -70.340 3.634 0.00
39.236 -69.179 3.634 0.00
39.236 -68.018 3.634 0.00
39.236 -66.856 3.634 0.00
40.135 -132.306 3.634 0.00
40.135 -131.130 3.635 0.00
40.135 -129.954 3.633 0.00
40.135 -128.777 3.628 0.00
40.135 -127.601 3.630 0.00
40.135 -126.424 3.645 0.00
40.135 -125.248 3.690 0.00
40.135 -124.072 3.730 1019.31
40.135 -122.895 3.715 4655.27
40.135 -121.719 3.563 5686.53
40.135 -120.543 3.479 7736.55
40.135 -119.366 3.478 5637.88
40.135 -118.190 3.453 3854.18
40.135 -117.014 3.423 2774.60
40.135 -115.837 3.486 3176.62
40.135 -114.661 3.512 4036.92
40.135 -113.484 3.550 6027.05
40.135 -112.308 3.654 7023.37
40.135 -111.132 3.663 6682.62
40.135 -109.955 3.675 5578.55
40.135 -108.779 3.632 5055.14
40.135 -107.603 3.691 5024.10
40.135 -106.426 3.818 3968.46
40.135 -105.250 3.887 3199.17
40.135 -104.074 3.932 2232.65
40.135 -102.897 3.957 1860.53
40.135 -101.721 3.956 1846.73
40.135 -100.545 3.950 1545.77
40.135 -99.368 3.951 667.32
40.135 -98.192 3.945 697.28
40.135 -97.015 3.947 669.32
40.135 -95.839 3.981 755.21
40.135 -94.663 3.989 546.43
40.135 -93.486 4.000 826.45
40.135 -92.310 4.060 646.33
40.135 -91.134 4.182 803.15
40.135 -89.957 4.301 1140.31
40.135 -88.781 4.308 880.51
40.135 -87.605 4.153 828.20
40.135 -86.428 4.030 686.29
40.135 -85.252 4.041 958.03
40.135 -84.076 4.059 849.11
40.135 -82.899 4.022 751.16
40.135 -81.723 3.977 563.38
40.135 -80.546 3.931 580.36
40.135 -79.370 3.860 416.58
40.135 -78.194 3.803 429.57
40.135 -77.017 3.754 88.92
40.135 -75.841 3.697 11.00
40.135 -74.665 3.656 8.22
40.135 -73.488 3.641 0.00
40.135 -72.312 3.632 0.00
40.135 -71.136 3.632 0.00
40.135 -69.959 3.634 0.00
40.135 -68.783 3.634 0.00
40.135 -67.607 3.634 0.00
40.135 -66.430 3.634 0.00
41.034 -132.752 3.634 0.00
41.034 -131.560 3.634 0.00
41.034 -130.368 3.630 0.00
41.034 -129.175 3.636 0.00
41.034 -127.983 3.656 0.00
41.034 -126.791 3.657 0.00
41.034 -125.598 3.705 0.00
41.034 -124.406 3.761 4186.58
41.034 -123.214 3.672 4170.18
41.034 -122.022 3.533 6626.18
41.034 -120.829 3.442 5116.47
41.034 -119.637 3.427 6148.97
41.034 -118.445 3.400 4928.62
41.034 -117.252 3.405 4054.13
41.034 -116.060 3.415 3890.32
41.034 -114.868 3.370 8414.58
41.034 -113.676 3.389 8413.42
41.034 -112.483 3.551 7355.73
41.034 -111.291 3.606 6902.38
41.034 -110.099 3.610 5314.22
41.034 -108.906 3.625 4593.58
41.034 -107.714 3.723 3826.80
41.034 -106.522 3.821 2952.89
41.034 -105.330 3.836 2434.52
41.034 -104.137 3.857 2360.22
41.034 -102.945 3.894 2618.18
41.034 -101.753 3.912 1726.28
41.034 -100.560 3.917 1005.39
41.034 -99.368 3.933 1067.91
41.034 -98.176 3.967 1021.27
41.034 -96.984 3.994 1342.61
41.034 -95.791 4.014 1048.91
41.034 -94.599 4.031 1247.68
41.034 -93.407 4.071 1029.32
41.034 -92.215 4.165 1241.67
41.034 -91.022 4.262 1178.78
41.034 -89.830 4.311 1079.85
41.034 -88.638 4.209 607.34
41.034 -87.445 4.014 665.11
41.034 -86.253 3.893 578.39
41.034 -85.061 3.889 664.28
41.034 -83.869 3.928 731.26
41.034 -82.676 3.940 1036.01
41.034 -81.484 3.926 1069.91
41.034 -80.292 3.904 1053.95
41.034 -79.099 3.858 1115.89
41.034 -77.907 3.817 718.50
41.034 -76.715 3.783 491.48
41.034 -75.523 3.724 497.47
41.034 -74.330 3.678 437.28
41.034 -73.138 3.650 0.00
41.034 -71.946 3.636 0.00
41.034 -70.753 3.632 0.00
41.034 -69.561 3.633 0.00
41.034 -68.369 3.634 0.00
41.034 -67.177 3.634 0.00
41.034 -65.984 3.634 0.00
41.934 -133.219 3.634 0.00
41.934 -132.010 3.632 0.00
41.934 -130.801 3.635 0.00
41.934 -129.592 3.656 0.00
41.934 -128.383 3.653 0.00
41.934 -127.174 3.628 0.00
41.934 -125.965 3.651 714.46
41.934 -124.756 3.643 7170.02
41.934 -123.547 3.544 6389.90
41.934 -122.338 3.450 5016.27
41.934 -121.129 3.386 5156.87
41.934 -119.920 3.379 5805.48
41.934 -118.711 3.382 5846.13
41.934 -117.502 3.402 5361.00
41.934 -116.293 3.401 6876.61
41.934 -115.085 3.386 9277.10
41.934 -113.876 3.440 6848.28
41.934 -112.667 3.531 6680.14
41.934 -111.458 3.499 6976.51
41.934 -110.249 3.460 6976.38
41.934 -109.040 3.542 5960.44
41.934 -107.831 3.632 4703.40
41.934 -106.622 3.699 3543.67
41.934 -105.413 3.731 3442.39
41.934 -104.204 3.782 3055.52
41.934 -102.995 3.822 2353.38
41.934 -101.786 3.822 1934.90
41.934 -100.577 3.835 1811.14
41.934 -99.368 3.869 1736.38
41.934 -98.159 3.909 1681.26
41.934 -96.950 3.932 1691.27
41.934 -95.741 3.966 1475.49
41.934 -94.532 4.000 1555.41
41.934 -93.323 4.074 1393.74
41.934 -92.115 4.160 1068.90
41.934 -90.906 4.189 1122.80
41.934 -89.697 4.116 1031.94
41.934 -88.488 3.960 1027.97
41.934 -87.279 3.809 921.76
41.934 -86.070 3.738 1056.45
41.934 -84.861 3.723 1206.80
41.934 -83.652 3.733 1348.22
41.934 -82.443 3.752 875.13
41.934 -81.234 3.806 1025.01
41.934 -80.025 3.869 673.88
41.934 -78.816 3.907 570.44
41.934 -77.607 3.904 658.34
41.934 -76.398 3.869 505.44
41.934 -75.189 3.785 274.71
41.934 -73.980 3.718 28.97
41.934 -72.771 3.664 0.00
41.934 -71.562 3.637 0.00
41.934 -70.353 3.631 0.00
41.934 -69.145 3.633 0.00
41.934 -67.936 3.634 0.00
41.934 -66.727 3.634 0.00
41.934 -65.518 3.634 0.00
42.833 -133.707 3.633 0.00
42.833 -132.481 3.634 0.00
42.833 -131.254 3.642 0.00
42.833 -130.028 3.648 0.00
42.833 -128.802 3.611 0.00
42.833 -127.575 3.561 0.00
42.833 -126.349 3.472 7296.39
42.833 -125.122 3.377 10105.27
42.833 -123.896 3.309 6368.20
42.833 -122.670 3.326 6030.38
42.833 -121.443 3.347 6172.13
42.833 -120.217 3.368 5925.18
42.833 -118.990 3.412 6134.90
42.833 -117.764 3.439 7425.91
42.833 -116.538 3.371 10880.49
42.833 -115.311 3.352 8267.46
42.833 -114.085 3.434 7278.09
42.833 -112.858 3.529 5701.66
42.833 -111.632 3.559 5751.44
42.833 -110.406 3.562 4888.09
42.833 -109.179 3.683 3338.67
42.833 -107.953 3.742 2682.59
42.833 -106.727 3.761 3218.62
42.833 -105.500 3.769 3096.19
42.833 -104.274 3.779 2751.40
42.833 -103.047 3.806 2344.78
42.833 -101.821 3.837 1932.85
42.833 -100.595 3.874 1497.46
42.833 -99.368 3.905 1092.90
42.833 -98.142 3.934 1203.79
42.833 -96.915 3.949 1227.77
42.833 -95.689 3.975 1482.50
42.833 -94.463 4.005 1347.65
42.833 -93.236 4.061 1363.94
42.833 -92.010 4.073 1499.48
42.833 -90.783 3.999 1526.40
42.833 -89.557 3.881 883.15
42.833 -88.331 3.794 1106.92
42.833 -87.104 3.763 843.18
42.833 -85.878 3.770 671.53
42.833 -84.652 3.766 584.41
42.833 -83.425 3.756 267.72
42.833 -82.199 3.765 379.62
42.833 -80.972 3.783 392.61
42.833 -79.746 3.813 759.25
42.833 -78.520 3.847 897.12
42.833 -77.293 3.866 939.05
42.833 -76.067 3.828 768.83
42.833 -74.840 3.758 543.32
42.833 -73.614 3.697 351.65
42.833 -72.388 3.647 203.76
42.833 -71.161 3.633 56.35
42.833 -69.935 3.631 0.00
42.833 -68.708 3.632 0.00
42.833 -67.482 3.634 0.00
42.833 -66.256 3.635 0.00
42.833 -65.029 3.634 0.00
43.732 -134.219 3.634 0.00
43.732 -132.974 3.634 0.00
43.732 -131.729 3.638 0.00
43.732 -130.485 3.643 0.00
43.732 -129.240 3.603 0.00
43.732 -127.995 3.455 0.00
43.732 -126.751 3.259 29718.61
43.732 -125.506 3.104 15284.50
43.732 -124.261 3.089 9101.96
43.732 -123.017 3.190 6920.37
43.732 -121.772 3.290 6804.19
43.732 -120.527 3.340 6271.57
43.732 -119.283 3.403 7431.01
43.732 -118.038 3.466 8276.38
43.732 -116.793 3.443 11709.56
43.732 -115.549 3.442 8229.60
43.732 -114.304 3.453 7019.77
43.732 -113.059 3.505 6117.78
43.732 -111.815 3.536 5135.21
43.732 -110.570 3.530 3641.43
43.732 -109.325 3.619 2781.50
43.732 -108.081 3.687 2865.15
43.732 -106.836 3.720 2622.87
43.732 -105.591 3.754 1885.43
43.732 -104.347 3.802 2150.80
43.732 -103.102 3.892 1687.71
43.732 -101.858 3.962 1547.92
43.732 -100.613 3.986 1251.29
43.732 -99.368 3.990 1330.41
43.732 -98.124 3.985 1561.70
43.732 -96.879 3.997 1625.80
43.732 -95.634 4.036 1056.91
43.732 -94.390 4.086 1061.91
43.732 -93.145 4.107 1213.81
43.732 -91.900 4.062 905.44
43.732 -90.656 3.939 578.42
43.732 -89.411 3.838 595.40
43.732 -88.166 3.799 507.47
43.732 -86.922 3.793 559.45
43.732 -85.677 3.791 635.93
43.732 -84.432 3.775 612.41
43.732 -83.188 3.766 773.26
43.732 -81.943 3.780 807.22
43.732 -80.698 3.807 853.40
43.732 -79.454 3.845 661.36
43.732 -78.209 3.878 513.50
43.732 -76.964 3.862 692.29
43.732 -75.720 3.789 772.19
43.732 -74.475 3.710 831.68
43.732 -73.230 3.680 423.41
43.732 -71.986 3.666 231.77
43.732 -70.741 3.655 0.00
43.732 -69.496 3.639 0.00
43.732 -68.252 3.628 0.00
43.732 -67.007 3.631 0.00
43.732 -65.763 3.634 0.00
43.732 -64.518 3.634 0.00
44.632 -134.754 3.634 0.00
44.632 -133.490 3.634 0.00
44.632 -132.227 3.643 0.00
44.632 -130.963 3.650 0.00
44.632 -129.699 3.604 0.00
44.632 -128.435 3.501 0.00
44.632 -127.172 3.267 1185.11
44.632 -125.908 3.115 5363.39
44.632 -124.644 3.085 7448.65
44.632 -123.380 3.209 6925.01
44.632 -122.116 3.303 6414.57
44.632 -120.853 3.310 6402.65
44.632 -119.589 3.326 6633.00
44.632 -118.325 3.399 10759.59
44.632 -117.061 3.465 9965.32
44.632 -115.797 3.517 7612.36
44.632 -114.534 3.513 6327.88
44.632 -113.270 3.509 5712.46
44.632 -112.006 3.496 4150.69
44.632 -110.742 3.504 3911.20
44.632 -109.479 3.574 4014.69
44.632 -108.215 3.624 2713.28
44.632 -106.951 3.658 2585.74
44.632 -105.687 3.735 2359.69
44.632 -104.423 3.836 1859.09
44.632 -103.160 3.929 1555.64
44.632 -101.896 3.997 1300.36
44.632 -100.632 3.998 1057.65
44.632 -99.368 3.984 1263.69
44.632 -98.104 3.994 914.06
44.632 -96.841 4.043 688.25
44.632 -95.577 4.092 835.10
44.632 -94.313 4.112 924.01
44.632 -93.049 4.084 775.18
44.632 -91.785 3.989 765.52
44.632 -90.522 3.866 637.35
44.632 -89.258 3.806 690.33
44.632 -87.994 3.809 848.17
44.632 -86.730 3.818 644.37
44.632 -85.467 3.832 767.19
44.632 -84.203 3.858 624.97
44.632 -82.939 3.891 390.61
44.632 -81.675 3.922 333.66
44.632 -80.411 3.933 512.46
44.632 -79.148 3.919 461.80
44.632 -77.884 3.913 490.52
44.632 -76.620 3.888 600.60
44.632 -75.356 3.846 762.74
44.632 -74.092 3.787 484.23
44.632 -72.829 3.739 309.64
44.632 -71.565 3.701 230.48
44.632 -70.301 3.671 190.81
44.632 -69.037 3.648 0.00
44.632 -67.773 3.629 0.00
44.632 -66.510 3.628 0.00
44.632 -65.246 3.632 0.00
44.632 -63.982 3.634 0.00
45.531 -135.316 3.634 0.00
45.531 -134.032 3.632 0.00
45.531 -132.748 3.633 0.00
45.531 -131.464 3.657 0.00
45.531 -130.180 3.663 0.00
45.531 -128.897 3.603 4.00
45.531 -127.613 3.506 489.40
45.531 -126.329 3.398 548.56
45.531 -125.045 3.440 1231.57
45.531 -123.761 3.520 3174.43
45.531 -122.477 3.519 5160.56
45.531 -121.193 3.425 6392.87
45.531 -119.910 3.361 8968.84
45.531 -118.626 3.431 12942.55
45.531 -117.342 3.551 8460.25
45.531 -116.058 3.660 8067.69
45.531 -114.774 3.658 7103.63
45.531 -113.490 3.622 5459.76
45.531 -112.207 3.611 5596.31
45.531 -110.923 3.634 4695.39
45.531 -109.639 3.655 3301.68
45.531 -108.355 3.652 2979.77
45.531 -107.071 3.731 2587.65
45.531 -105.787 3.843 1968.25
45.531 -104.504 3.928 1701.66
45.531 -103.220 3.978 1501.77
45.531 -101.936 3.977 1190.09
45.531 -100.652 3.935 1032.46
45.531 -99.368 3.921 743.07
45.531 -98.084 3.952 690.27
45.531 -96.801 3.988 888.09
45.531 -95.517 4.002 802.20
45.531 -94.233 3.999 586.40
45.531 -92.949 3.941 564.42
45.531 -91.665 3.846 576.82
45.531 -90.381 3.796 568.41
45.531 -89.097 3.808 445.53
45.531 -87.814 3.833 409.56
45.531 -86.530 3.848 468.48
45.531 -85.246 3.879 446.50
45.531 -83.962 3.920 595.37
45.531 -82.678 3.937 608.36
45.531 -81.394 3.917 634.32
45.531 -80.111 3.888 577.40
45.531 -78.827 3.851 504.46
45.531 -77.543 3.827 472.47
45.531 -76.259 3.822 404.55
45.531 -74.975 3.818 327.64
45.531 -73.691 3.819 167.63
45.531 -72.408 3.818 194.80
45.531 -71.124 3.787 213.77
45.531 -69.840 3.727 300.42
45.531 -68.556 3.681 6.26
45.531 -67.272 3.646 0.00
45.531 -65.988 3.631 0.00
45.531 -64.705 3.629 0.00
45.531 -63.421 3.630 0.00
46.431 -135.904 3.631 0.00
46.431 -134.600 3.631 0.00
46.431 -133.295 3.628 0.00
46.431 -131.990 3.634 0.00
46.431 -130.685 3.664 0.00
46.431 -129.380 3.668 108.88
46.431 -128.075 3.644 313.39
46.431 -126.770 3.621 404.08
46.431 -125.466 3.675 1467.88
46.431 -124.161 3.704 1626.30
46.431 -122.856 3.663 2655.83
46.431 -121.551 3.519 6149.31
46.431 -120.246 3.431 11069.73
46.431 -118.941 3.477 10320.94
46.431 -117.636 3.616 8218.93
46.431 -116.331 3.720 6468.91
46.431 -115.027 3.731 5777.08
46.431 -113.722 3.728 6053.24
46.431 -112.417 3.765 4518.99
46.431 -111.112 3.763 3725.93
46.431 -109.807 3.740 3330.02
46.431 -108.502 3.733 2840.74
46.431 -107.197 3.792 2403.32
46.431 -105.893 3.885 2474.57
46.431 -104.588 3.939 2086.23
46.431 -103.283 3.923 1954.49
46.431 -101.978 3.899 1315.91
46.431 -100.673 3.888 936.75
46.431 -99.368 3.906 756.94
46.431 -98.063 3.931 749.21
46.431 -96.758 3.928 680.29
46.431 -95.454 3.913 627.31
46.431 -94.149 3.866 532.43
46.431 -92.844 3.806 542.42
46.431 -91.539 3.757 409.88
46.431 -90.234 3.768 396.58
46.431 -88.929 3.820 530.44
46.431 -87.624 3.845 494.49
46.431 -86.320 3.854 501.50
46.431 -85.015 3.864 410.59
46.431 -83.710 3.864 305.67
46.431 -82.405 3.861 383.60
46.431 -81.100 3.836 392.59
46.431 -79.795 3.808 315.65
46.431 -78.490 3.786 312.67
46.431 -77.185 3.771 366.62
46.431 -75.881 3.778 250.74
46.431 -74.576 3.785 95.89
46.431 -73.271 3.791 145.83
46.431 -71.966 3.792 128.85
46.431 -70.661 3.781 108.89
46.431 -69.356 3.748 131.88
46.431 -68.051 3.707 54.95
46.431 -66.747 3.671 0.00
46.431 -65.442 3.653 0.00
46.431 -64.137 3.642 0.00
46.431 -62.832 3.636 0.00
47.330 -136.522 3.630 0.00
47.330 -135.195 3.627 0.00
47.330 -133.868 3.633 0.00
47.330 -132.541 3.639 0.00
47.330 -131.214 3.657 0.00
47.330 -129.887 3.681 186.80
47.330 -128.561 3.658 606.40
47.330 -127.234 3.640 1057.91
47.330 -125.907 3.705 912.76
47.330 -124.580 3.704 1883.13
47.330 -123.253 3.681 4596.67
47.330 -121.926 3.591 9073.39
47.330 -120.599 3.514 9671.59
47.330 -119.272 3.499 7865.35
47.330 -117.945 3.585 5981.85
47.330 -116.618 3.660 5599.15
47.330 -115.291 3.699 5591.40
47.330 -113.964 3.774 4473.94
47.330 -112.637 3.832 4302.97
47.330 -111.311 3.847 3260.57
47.330 -109.984 3.810 2566.98
47.330 -108.657 3.774 2576.49
47.330 -107.330 3.800 2444.97
47.330 -106.003 3.827 2360.67
47.330 -104.676 3.833 1719.16
47.330 -103.349 3.830 1467.46
47.330 -102.022 3.842 1268.37
47.330 -100.695 3.876 928.69
47.330 -99.368 3.912 691.02
47.330 -98.041 3.902 606.39
47.330 -96.714 3.884 434.54
47.330 -95.387 3.851 306.69
47.330 -94.061 3.815 406.58
47.330 -92.734 3.776 198.79
47.330 -91.407 3.775 210.20
47.330 -90.080 3.821 294.70
47.330 -88.753 3.878 467.52
47.330 -87.426 3.876 336.65
47.330 -86.099 3.837 236.75
47.330 -84.772 3.821 291.71
47.330 -83.445 3.809 368.61
47.330 -82.118 3.805 397.56
47.330 -80.791 3.807 360.59
47.330 -79.464 3.802 310.66
47.330 -78.137 3.795 187.79
47.330 -76.811 3.780 42.95
47.330 -75.484 3.769 61.94
47.330 -74.157 3.763 96.91
47.330 -72.830 3.758 57.93
47.330 -71.503 3.747 116.86
47.330 -70.176 3.721 53.36
47.330 -68.849 3.694 0.00
47.330 -67.522 3.689 74.93
47.330 -66.195 3.692 128.88
47.330 -64.868 3.689 68.94
47.330 -63.541 3.677 0.00
47.330 -62.214 3.665 0.00
48.229 -137.170 3.652 0.00
48.229 -135.820 3.646 0.00
48.229 -134.470 3.649 0.00
48.229 -133.120 3.664 43.95
48.229 -131.770 3.685 140.85
48.229 -130.420 3.673 531.43
48.229 -129.070 3.631 889.09
48.229 -127.720 3.647 643.48
48.229 -126.370 3.680 1133.46
48.229 -125.020 3.676 3623.46
48.229 -123.670 3.650 9562.86
48.229 -122.320 3.628 10403.51
48.229 -120.969 3.590 9215.43
48.229 -119.619 3.577 5010.44
48.229 -118.269 3.588 5006.41
48.229 -116.919 3.592 4628.47
48.229 -115.569 3.574 3961.18
48.229 -114.219 3.646 3729.02
48.229 -112.869 3.748 3280.98
48.229 -111.519 3.780 3189.38
48.229 -110.169 3.771 2888.88
48.229 -108.819 3.763 2287.63
48.229 -107.469 3.770 1764.15
48.229 -106.119 3.758 1493.45
48.229 -104.769 3.737 1589.93
48.229 -103.418 3.750 1188.86
48.229 -102.068 3.805 842.15
48.229 -100.718 3.873 744.43
48.229 -99.368 3.901 558.14
48.229 -98.018 3.905 494.49
48.229 -96.668 3.896 433.56
48.229 -95.318 3.896 392.44
48.229 -93.968 3.883 330.64
48.229 -92.618 3.872 364.61
48.229 -91.268 3.885 341.01
48.229 -89.918 3.918 283.69
48.229 -88.568 3.932 364.58
48.229 -87.217 3.899 307.66
48.229 -85.867 3.856 307.66
48.229 -84.517 3.836 302.64
48.229 -83.167 3.820 306.66
48.229 -81.817 3.816 267.73
48.229 -80.467 3.829 159.85
48.229 -79.117 3.824 166.85
48.229 -77.767 3.808 258.52
48.229 -76.417 3.787 193.80
48.229 -75.067 3.770 131.85
48.229 -73.717 3.763 133.84
48.229 -72.367 3.751 178.79
48.229 -71.017 3.713 71.92
48.229 -69.666 3.665 0.00
48.229 -68.316 3.642 0.00
48.229 -66.966 3.648 0.00
48.229 -65.616 3.668 0.00
48.229 -64.266 3.690 58.95
48.229 -62.916 3.702 126.88
48.229 -61.566 3.703 124.88
49.129 -137.851 3.707 1.00
49.129 -136.477 3.704 41.96
49.129 -135.103 3.688 133.86
49.129 -133.728 3.681 272.71
49.129 -132.354 3.676 555.41
49.129 -130.979 3.653 470.50
49.129 -129.605 3.620 488.52
49.129 -128.231 3.677 973.14
49.129 -126.856 3.664 2602.55
49.129 -125.482 3.617 10815.74
49.129 -124.107 3.583 11841.04
49.129 -122.733 3.599 9555.42
49.129 -121.359 3.601 6983.75
49.129 -119.984 3.619 5411.10
49.129 -118.610 3.606 4062.20
49.129 -117.235 3.574 3399.55
49.129 -115.861 3.543 2925.38
49.129 -114.487 3.548 2955.79
49.129 -113.112 3.610 2858.05
49.129 -111.738 3.643 2331.95
49.129 -110.363 3.639 1763.52
49.129 -108.989 3.632 1276.69
49.129 -107.615 3.632 1144.88
49.129 -106.240 3.648 1004.03
49.129 -104.866 3.689 809.20
49.129 -103.491 3.760 762.24
49.129 -102.117 3.845 607.37
49.129 -100.743 3.906 436.55
49.129 -99.368 3.952 372.59
49.129 -97.994 3.963 258.72
49.129 -96.619 3.975 243.75
49.129 -95.245 3.993 403.59
49.129 -93.871 3.964 338.65
49.129 -92.496 3.925 358.62
49.129 -91.122 3.910 406.57
49.129 -89.747 3.922 427.55
49.129 -88.373 3.927 525.41
49.129 -86.999 3.895 444.51
49.129 -85.624 3.868 469.50
49.129 -84.250 3.869 450.52
49.129 -82.875 3.865 325.69
49.129 -81.501 3.837 248.74
49.129 -80.127 3.819 294.70
49.129 -78.752 3.806 223.77
49.129 -77.378 3.782 35.96
49.129 -76.003 3.759 67.92
49.129 -74.629 3.738 95.89
49.129 -73.255 3.718 56.93
49.129 -71.880 3.692 0.00
49.129 -70.506 3.662 0.00
49.129 -69.131 3.636 0.00
49.129 -67.757 3.625 0.00
49.129 -66.383 3.630 0.00
49.129 -65.008 3.646 0.00
49.129 -63.634 3.667 0.00
49.129 -62.259 3.685 0.00
49.129 -60.885 3.703 0.00
50.028 -138.567 3.753 333.69
50.028 -137.167 3.745 283.96
50.028 -135.767 3.684 415.56
50.028 -134.367 3.677 526.44
50.028 -132.967 3.666 159.83
50.028 -131.567 3.649 203.77
50.028 -130.167 3.653 569.43
50.028 -128.767 3.707 2005.26
50.028 -127.368 3.644 12527.69
50.028 -125.968 3.521 15266.64
50.028 -124.568 3.454 10812.22
50.028 -123.168 3.468 8310.87
50.028 -121.768 3.505 5953.16
50.028 -120.368 3.544 4292.81
50.028 -118.968 3.558 3781.43
50.028 -117.568 3.535 3492.65
50.028 -116.168 3.518 2969.08
50.028 -114.768 3.544 2251.66
50.028 -113.368 3.587 1797.15
50.028 -111.968 3.591 1217.80
50.028 -110.568 3.563 959.10
50.028 -109.168 3.554 647.40
50.028 -107.768 3.584 421.61
50.028 -106.368 3.653 231.78
50.028 -104.968 3.746 104.90
50.028 -103.568 3.835 191.80
50.028 -102.168 3.890 220.78
50.028 -100.768 3.938 177.82
50.028 -99.368 3.972 288.71
50.028 -97.968 3.983 333.66
50.028 -96.568 3.977 503.38
50.028 -95.168 3.928 307.66
50.028 -93.768 3.879 354.61
50.028 -92.368 3.852 354.61
50.028 -90.968 3.847 340.60
50.028 -89.568 3.865 439.51
50.028 -88.168 3.874 389.57
50.028 -86.769 3.862 243.74
50.028 -85.369 3.838 269.72
50.028 -83.969 3.822 311.70
50.028 -82.569 3.816 221.79
50.028 -81.169 3.800 77.93
50.028 -79.769 3.776 15.98
50.028 -78.369 3.759 96.89
50.028 -76.969 3.732 96.89
50.028 -75.569 3.698 28.97
50.028 -74.169 3.673 0.00
50.028 -72.769 3.656 0.00
50.028 -71.369 3.644 0.00
50.028 -69.969 3.640 0.00
50.028 -68.569 3.646 0.00
50.028 -67.169 3.653 0.00
50.028 -65.769 3.655 0.00
50.028 -64.369 3.656 0.00
50.028 -62.969 3.668 66.94
50.028 -61.569 3.679 124.88
50.028 -60.169 3.689 125.88
50.927 -139.320 3.704 549.49
50.927 -137.893 3.699 526.50
50.927 -136.466 3.683 285.70
50.927 -135.040 3.666 2.00
50.927 -133.613 3.676 129.85
50.927 -132.186 3.692 291.69
50.927 -130.759 3.721 1075.04
50.927 -129.332 3.736 16539.81
50.927 -127.905 3.591 21442.85
50.927 -126.478 3.407 12557.98
50.927 -125.052 3.371 9612.03
50.927 -123.625 3.413 7150.07
50.927 -122.198 3.453 4857.31
50.927 -120.771 3.489 3928.16
50.927 -119.344 3.531 2959.99
50.927 -117.917 3.566 2143.82
50.927 -116.490 3.573 1508.52
50.927 -115.064 3.584 1110.96
50.927 -113.637 3.619 609.43
50.927 -112.210 3.655 448.57
50.927 -110.783 3.692 294.71
50.927 -109.356 3.740 108.89
50.927 -107.929 3.798 0.00
50.927 -106.502 3.862 82.91
50.927 -105.076 3.917 222.77
50.927 -103.649 3.943 218.78
50.927 -102.222 3.947 224.76
50.927 -100.795 3.935 335.64
50.927 -99.368 3.915 224.76
50.927 -97.941 3.912 354.62
50.927 -96.514 3.880 342.63
50.927 -95.088 3.817 273.68
50.927 -93.661 3.787 327.64
50.927 -92.234 3.796 244.74
50.927 -90.807 3.823 196.80
50.927 -89.380 3.847 306.94
50.927 -87.953 3.836 281.73
50.927 -86.526 3.823 271.75
50.927 -85.100 3.821 129.88
50.927 -83.673 3.805 19.98
50.927 -82.246 3.786 83.90
50.927 -80.819 3.762 97.89
50.927 -79.392 3.737 81.90
50.927 -77.965 3.709 0.00
50.927 -76.538 3.686 0.00
50.927 -75.112 3.666 0.00
50.927 -73.685 3.654 0.00
50.927 -72.258 3.648 0.00
50.927 -70.831 3.649 0.00
50.927 -69.404 3.658 0.00
50.927 -67.977 3.677 112.89
50.927 -66.550 3.686 115.89
50.927 -65.124 3.681 118.89
50.927 -63.697 3.668 119.89
50.927 -62.270 3.657 84.92
50.927 -60.843 3.649 245.77
50.927 -59.416 3.652 391.63
51.827 -140.113 3.685 767.28
51.827 -138.658 3.676 79.92
51.827 -137.203 3.669 21.97
51.827 -135.747 3.675 155.82
51.827 -134.292 3.686 167.84
51.827 -132.837 3.733 342.66
51.827 -131.382 3.793 23737.50
51.827 -129.927 3.776 31024.53
51.827 -128.472 3.674 12196.24
51.827 -127.016 3.571 7536.65
51.827 -125.561 3.584 5299.43
51.827 -124.106 3.651 3249.72
51.827 -122.651 3.687 1559.45
51.827 -121.196 3.705 989.05
51.827 -119.741 3.739 512.52
51.827 -118.285 3.784 369.65
51.827 -116.830 3.823 245.76
51.827 -115.375 3.829 128.86
51.827 -113.920 3.839 174.82
51.827 -112.465 3.870 102.89
51.827 -111.010 3.929 114.88
51.827 -109.554 4.002 232.76
51.827 -108.099 4.065 466.52
51.827 -106.644 4.065 519.47
51.827 -105.189 4.015 407.58
51.827 -103.734 3.981 344.63
51.827 -102.279 3.945 448.51
51.827 -100.823 3.903 330.63
51.827 -99.368 3.897 399.56
51.827 -97.913 3.903 420.54
51.827 -96.458 3.853 216.77
51.827 -95.003 3.794 240.76
51.827 -93.548 3.774 210.80
51.827 -92.092 3.788 302.72
51.827 -90.637 3.820 276.74
51.827 -89.182 3.854 236.75
51.827 -87.727 3.845 108.88
51.827 -86.272 3.820 180.79
51.827 -84.817 3.802 190.78
51.827 -83.361 3.778 191.77
51.827 -81.906 3.746 108.88
51.827 -80.451 3.724 96.91
51.827 -78.996 3.708 97.91
51.827 -77.541 3.694 99.91
51.827 -76.085 3.682 101.90
51.827 -74.630 3.674 103.90
51.827 -73.175 3.668 105.90
51.827 -71.720 3.664 107.90
51.827 -70.265 3.662 108.90
51.827 -68.810 3.658 111.90
51.827 -67.354 3.647 1.00
51.827 -65.899 3.648 109.90
51.827 -64.444 3.645 280.74
51.827 -62.989 3.639 370.65
51.827 -61.534 3.639 373.65
51.827 -60.079 3.656 401.63
51.827 -58.623 3.673 267.75
52.726 -140.948 3.682 83.92
52.726 -139.463 3.675 91.89
52.726 -137.978 3.677 135.84
52.726 -136.493 3.678 307.72
52.726 -135.008 3.683 320.71
52.726 -133.523 3.736 231.78
52.726 -132.038 3.879 521.00
52.726 -130.553 4.056 1805.70
52.726 -129.068 4.070 2072.85
52.726 -127.583 4.067 2277.66
52.726 -126.098 4.062 1907.57
52.726 -124.613 4.024 1549.54
52.726 -123.128 3.988 893.08
52.726 -121.643 3.972 696.26
52.726 -120.158 3.970 697.26
52.726 -118.673 3.980 687.27
52.726 -117.188 3.993 602.36
52.726 -115.703 3.994 628.33
52.726 -114.218 3.977 593.36
52.726 -112.733 3.988 618.34
52.726 -111.248 4.014 638.32
52.726 -109.763 4.045 644.32
52.726 -108.278 4.043 559.41
52.726 -106.793 4.036 498.47
52.726 -105.308 4.037 421.54
52.726 -103.823 4.015 537.41
52.726 -102.338 3.973 419.55
52.726 -100.853 3.957 334.67
52.726 -99.368 3.968 395.62
52.726 -97.883 3.929 302.72
52.726 -96.398 3.861 305.72
52.726 -94.913 3.812 200.81
52.726 -93.428 3.797 92.91
52.726 -91.943 3.795 64.92
52.726 -90.458 3.803 100.88
52.726 -88.973 3.800 200.76
52.726 -87.488 3.761 98.88
52.726 -86.003 3.715 8.99
52.726 -84.518 3.691 0.00
52.726 -83.033 3.674 0.00
52.726 -81.548 3.659 0.00
52.726 -80.063 3.652 0.00
52.726 -78.578 3.646 99.28
52.726 -77.093 3.636 189.82
52.726 -75.608 3.631 138.87
52.726 -74.123 3.632 168.84
52.726 -72.638 3.631 320.70
52.726 -71.153 3.631 326.70
52.726 -69.668 3.633 334.69
52.726 -68.183 3.629 341.68
52.726 -66.698 3.621 349.67
52.726 -65.213 3.631 341.68
52.726 -63.728 3.660 327.69
52.726 -62.243 3.676 251.77
52.726 -60.758 3.672 231.78
52.726 -59.273 3.659 0.00
52.726 -57.788 3.667 83.93
53.625 -141.829 3.688 414.58
53.625 -140.313 3.686 174.83
53.625 -138.796 3.684 382.65
53.625 -137.280 3.670 145.86
53.625 -135.763 3.633 0.00
53.625 -134.247 3.628 111.88
53.625 -132.730 3.719 168.86
53.625 -131.214 3.931 1165.45
53.625 -129.697 4.163 1835.66
53.625 -128.181 4.300 1463.50
53.625 -126.665 4.265 992.97
53.625 -125.148 4.157 271.39
53.625 -123.632 4.081 176.81
53.625 -122.115 4.033 379.62
53.625 -120.599 4.014 387.62
53.625 -119.082 4.014 401.60
53.625 -117.566 4.023 491.51
53.625 -116.049 4.036 483.51
53.625 -114.533 4.075 461.54
53.625 -113.016 4.111 565.44
53.625 -111.500 4.099 506.50
53.625 -109.983 4.051 474.54
53.625 -108.467 4.012 373.64
53.625 -106.951 3.991 303.70
53.625 -105.434 3.976 446.54
53.625 -103.918 3.949 295.71
53.625 -102.401 3.960 194.81
53.625 -100.885 3.995 313.66
53.625 -99.368 3.983 292.67
53.625 -97.852 3.922 204.76
53.625 -96.335 3.855 130.85
53.625 -94.819 3.811 99.88
53.625 -93.302 3.780 100.88
53.625 -91.786 3.750 34.96
53.625 -90.269 3.738 0.00
53.625 -88.753 3.717 99.88
53.625 -87.237 3.674 0.00
53.625 -85.720 3.640 0.00
53.625 -84.204 3.629 0.00
53.625 -82.687 3.628 0.00
53.625 -81.171 3.626 0.00
53.625 -79.654 3.624 0.00
53.625 -78.138 3.619 0.00
53.625 -76.621 3.599 150.92
53.625 -75.105 3.593 258.76
53.625 -73.588 3.621 340.37
53.625 -72.072 3.662 309.71
53.625 -70.555 3.687 314.71
53.625 -69.039 3.700 319.70
53.625 -67.523 3.693 327.70
53.625 -66.006 3.675 335.69
53.625 -64.490 3.660 247.77
53.625 -62.973 3.656 102.90
53.625 -61.457 3.660 104.90
53.625 -59.940 3.658 106.90
53.625 -58.424 3.653 141.86
53.625 -56.907 3.669 168.81
54.525 -142.759 3.703 175.81
54.525 -141.209 3.702 317.70
54.525 -139.660 3.674 57.95
54.525 -138.110 3.656 0.00
54.525 -136.560 3.626 0.00
54.525 -135.011 3.563 111.88
54.525 -133.461 3.535 521.51
54.525 -131.911 3.620 1247.59
54.525 -130.362 3.803 1005.56
54.525 -128.812 3.931 1397.27
54.525 -127.262 3.967 1125.88
54.525 -125.713 3.932 290.58
54.525 -124.163 3.879 248.54
54.525 -122.613 3.847 94.89
54.525 -121.064 3.828 13.98
54.525 -119.514 3.835 0.00
54.525 -117.964 3.869 0.00
54.525 -116.415 3.919 64.92
54.525 -114.865 3.974 231.76
54.525 -113.315 3.987 181.80
54.525 -111.766 3.974 336.65
54.525 -110.216 3.950 198.78
54.525 -108.666 3.935 209.77
54.525 -107.117 3.914 274.68
54.525 -105.567 3.872 109.87
54.525 -104.017 3.847 100.88
54.525 -102.468 3.850 102.88
54.525 -100.918 3.841 176.80
54.525 -99.368 3.785 0.00
54.525 -97.819 3.738 0.00
54.525 -96.269 3.734 74.91
54.525 -94.719 3.744 103.88
54.525 -93.170 3.738 103.88
54.525 -91.620 3.728 103.88
54.525 -90.070 3.726 156.82
54.525 -88.520 3.704 52.94
54.525 -86.971 3.673 0.00
54.525 -85.421 3.655 0.00
54.525 -83.871 3.653 0.00
54.525 -82.322 3.656 0.00
54.525 -80.772 3.656 0.00
54.525 -79.222 3.657 0.00
54.525 -77.673 3.657 0.00
54.525 -76.123 3.649 0.00
54.525 -74.573 3.650 0.00
54.525 -73.024 3.674 0.00
54.525 -71.474 3.711 0.00
54.525 -69.924 3.734 0.00
54.525 -68.375 3.739 77.91
54.525 -66.825 3.710 61.18
54.525 -65.275 3.676 0.00
54.525 -63.726 3.657 0.00
54.525 -62.176 3.650 0.00
54.525 -60.626 3.653 99.88
54.525 -59.077 3.661 134.84
54.525 -57.527 3.667 105.88
54.525 -55.977 3.677 0.00
55.424 -143.742 3.698 495.54
55.424 -142.157 3.685 0.00
55.424 -140.572 3.653 0.00
55.424 -138.988 3.638 0.00
55.424 -137.403 3.627 0.00
55.424 -135.818 3.579 394.61
55.424 -134.233 3.518 338.66
55.424 -132.648 3.543 1528.90
55.424 -131.064 3.634 860.34
55.424 -129.479 3.727 841.11
55.424 -127.894 3.810 715.94
55.424 -126.309 3.843 427.91
55.424 -124.725 3.823 369.54
55.424 -123.140 3.803 217.55
55.424 -121.555 3.794 132.85
55.424 -119.970 3.795 95.89
55.424 -118.385 3.815 171.82
55.424 -116.801 3.821 134.87
55.424 -115.216 3.801 25.98
55.424 -113.631 3.782 139.87
55.424 -112.046 3.787 15.99
55.424 -110.462 3.807 94.90
55.424 -108.877 3.811 197.78
55.424 -107.292 3.780 88.90
55.424 -105.707 3.750 110.88
55.424 -104.123 3.739 5.99
55.424 -102.538 3.740 122.86
55.424 -100.953 3.701 0.00
55.424 -99.368 3.648 0.00
55.424 -97.783 3.620 0.00
55.424 -96.199 3.632 0.00
55.424 -94.614 3.652 0.00
55.424 -93.029 3.661 0.00
55.424 -91.444 3.676 0.00
55.424 -89.860 3.700 100.88
55.424 -88.275 3.710 96.89
55.424 -86.690 3.703 102.88
55.424 -85.105 3.704 102.88
55.424 -83.520 3.709 101.88
55.424 -81.936 3.710 100.88
55.424 -80.351 3.710 100.88
55.424 -78.766 3.718 99.88
55.424 -77.181 3.732 99.88
55.424 -75.597 3.744 97.88
55.424 -74.012 3.754 97.89
55.424 -72.427 3.769 107.87
55.424 -70.842 3.787 189.78
55.424 -69.257 3.784 185.78
55.424 -67.673 3.749 108.87
55.424 -66.088 3.697 88.90
55.424 -64.503 3.664 120.86
55.424 -62.918 3.653 123.85
55.424 -61.334 3.649 127.85
55.424 -59.749 3.654 30.96
55.424 -58.164 3.669 0.00
55.424 -56.579 3.681 223.79
55.424 -54.995 3.680 293.73
56.324 -144.782 3.666 49.95
56.324 -143.160 3.656 0.00
56.324 -141.538 3.635 0.00
56.324 -139.916 3.626 0.00
56.324 -138.294 3.614 163.85
56.324 -136.672 3.586 450.53
56.324 -135.050 3.559 671.32
56.324 -133.428 3.590 924.07
56.324 -131.806 3.616 971.68
56.324 -130.184 3.657 759.90
56.324 -128.563 3.733 171.84
56.324 -126.941 3.807 216.17
56.324 -125.319 3.861 387.24
56.324 -123.697 3.879 341.35
56.324 -122.075 3.897 266.74
56.324 -120.453 3.890 325.68
56.324 -118.831 3.849 121.88
56.324 -117.209 3.807 170.82
56.324 -115.587 3.772 211.78
56.324 -113.965 3.761 97.89
56.324 -112.343 3.768 44.95
56.324 -110.722 3.778 134.84
56.324 -109.100 3.766 68.93
56.324 -107.478 3.753 114.88
56.324 -105.856 3.746 1.00
56.324 -104.234 3.752 173.80
56.324 -102.612 3.728 152.82
56.324 -100.990 3.672 0.00
56.324 -99.368 3.627 0.00
56.324 -97.746 3.616 0.00
56.324 -96.124 3.624 0.00
56.324 -94.502 3.627 0.00
56.324 -92.881 3.630 0.00
56.324 -91.259 3.651 0.00
56.324 -89.637 3.675 99.88
56.324 -88.015 3.678 0.00
56.324 -86.393 3.674 0.00
56.324 -84.771 3.687 0.00
56.324 -83.149 3.701 0.00
56.324 -81.527 3.706 0.00
56.324 -79.905 3.708 0.00
56.324 -78.283 3.715 0.00
56.324 -76.661 3.732 64.92
56.324 -75.040 3.748 115.97
56.324 -73.418 3.757 196.77
56.324 -71.796 3.751 186.78
56.324 -70.174 3.734 107.87
56.324 -68.552 3.717 110.87
56.324 -66.930 3.689 113.87
56.324 -65.308 3.657 28.97
56.324 -63.686 3.640 0.00
56.324 -62.064 3.639 0.00
56.324 -60.442 3.641 0.00
56.324 -58.820 3.649 0.00
56.324 -57.199 3.666 265.57
56.324 -55.577 3.667 61.94
56.324 -53.955 3.658 0.00
57.223 -145.883 3.642 0.00
57.223 -144.222 3.637 0.00
57.223 -142.561 3.627 0.00
57.223 -140.899 3.617 103.90
57.223 -139.238 3.599 395.60
57.223 -137.577 3.590 361.60
57.223 -135.916 3.601 874.47
57.223 -134.254 3.628 708.18
57.223 -132.593 3.621 585.37
57.223 -130.932 3.631 679.42
57.223 -129.271 3.689 20.00
57.223 -127.609 3.777 135.87
57.223 -125.948 3.859 202.86
57.223 -124.287 3.919 523.83
57.223 -122.626 3.941 373.96
57.223 -120.964 3.908 153.85
57.223 -119.303 3.843 324.68
57.223 -117.642 3.799 259.73
57.223 -115.981 3.786 108.88
57.223 -114.319 3.795 0.00
57.223 -112.658 3.809 195.77
57.223 -110.997 3.786 116.86
57.223 -109.336 3.765 98.88
57.223 -107.674 3.775 99.88
57.223 -106.013 3.813 227.73
57.223 -104.352 3.821 207.76
57.223 -102.691 3.771 14.98
57.223 -101.029 3.717 111.87
57.223 -99.368 3.686 92.89
57.223 -97.707 3.681 0.00
57.223 -96.046 3.679 0.00
57.223 -94.384 3.670 0.00
57.223 -92.723 3.670 0.00
57.223 -91.062 3.691 0.00
57.223 -89.401 3.706 99.88
57.223 -87.739 3.696 0.00
57.223 -86.078 3.686 0.00
57.223 -84.417 3.698 71.92
57.223 -82.756 3.711 97.88
57.223 -81.094 3.715 95.89
57.223 -79.433 3.714 96.89
57.223 -77.772 3.706 94.89
57.223 -76.111 3.691 29.96
57.223 -74.449 3.681 0.00
57.223 -72.788 3.677 0.00
57.223 -71.127 3.666 0.00
57.223 -69.466 3.653 0.00
57.223 -67.805 3.645 0.00
57.223 -66.143 3.638 0.00
57.223 -64.482 3.631 0.00
57.223 -62.821 3.630 0.00
57.223 -61.160 3.632 0.00
57.223 -59.498 3.634 0.00
57.223 -57.837 3.638 0.00
57.223 -56.176 3.645 0.00
57.223 -54.515 3.643 0.00
57.223 -52.853 3.638 0.00
58.122 -147.051 3.632 0.00
58.122 -145.348 3.630 0.00
58.122 -143.645 3.620 78.93
58.122 -141.942 3.602 409.59
58.122 -140.239 3.594 93.89
58.122 -138.537 3.608 752.21
58.122 -136.834 3.628 550.43
58.122 -135.131 3.639 775.97
58.122 -133.428 3.618 746.14
58.122 -131.725 3.634 309.71
58.122 -130.022 3.685 49.20
58.122 -128.319 3.761 161.85
58.122 -126.616 3.815 202.81
58.122 -124.913 3.835 118.60
58.122 -123.210 3.840 482.57
58.122 -121.507 3.847 388.63
58.122 -119.804 3.841 164.84
58.122 -118.101 3.830 106.89
58.122 -116.398 3.826 135.86
58.122 -114.695 3.822 349.61
58.122 -112.992 3.786 192.79
58.122 -111.289 3.745 18.98
58.122 -109.586 3.734 0.00
58.122 -107.883 3.761 0.00
58.122 -106.180 3.805 127.85
58.122 -104.477 3.812 120.86
58.122 -102.774 3.793 214.75
58.122 -101.071 3.763 110.87
58.122 -99.368 3.751 118.86
58.122 -97.665 3.748 211.75
58.122 -95.962 3.738 210.75
58.122 -94.259 3.723 104.88
58.122 -92.556 3.724 99.88
58.122 -90.853 3.743 99.88
58.122 -89.150 3.749 199.76
58.122 -87.447 3.727 98.88
58.122 -85.744 3.703 97.88
58.122 -84.041 3.685 25.97
58.122 -82.339 3.674 0.00
58.122 -80.636 3.671 0.00
58.122 -78.933 3.668 0.00
58.122 -77.230 3.660 0.00
58.122 -75.527 3.646 0.00
58.122 -73.824 3.636 0.00
58.122 -72.121 3.632 0.00
58.122 -70.418 3.630 0.00
58.122 -68.715 3.626 0.00
58.122 -67.012 3.627 0.00
58.122 -65.309 3.630 0.00
58.122 -63.606 3.631 0.00
58.122 -61.903 3.633 0.00
58.122 -60.200 3.633 0.00
58.122 -58.497 3.633 0.00
58.122 -56.794 3.633 0.00
58.122 -55.091 3.636 0.00
58.122 -53.388 3.634 0.00
58.122 -51.685 3.631 0.00
59.022 -148.292 3.628 0.00
59.022 -146.545 3.626 86.37
59.022 -144.798 3.609 406.60
59.022 -143.050 3.595 88.90
59.022 -141.303 3.605 519.43
59.022 -139.556 3.642 598.39
59.022 -137.808 3.649 611.33
59.022 -136.061 3.637 364.62
59.022 -134.314 3.620 904.78
59.022 -132.567 3.641 99.91
59.022 -130.819 3.679 0.00
59.022 -129.072 3.714 0.00
59.022 -127.325 3.724 133.87
59.022 -125.577 3.720 228.79
59.022 -123.830 3.737 154.09
59.022 -122.083 3.794 220.81
59.022 -120.336 3.850 249.76
59.022 -118.588 3.882 228.77
59.022 -116.841 3.872 276.70
59.022 -115.094 3.810 100.89
59.022 -113.346 3.749 54.94
59.022 -111.599 3.726 181.81
59.022 -109.852 3.742 201.79
59.022 -108.105 3.776 246.72
59.022 -106.357 3.773 52.94
59.022 -104.610 3.749 0.00
59.022 -102.863 3.735 0.00
59.022 -101.115 3.738 104.88
59.022 -99.368 3.735 90.89
59.022 -97.621 3.720 0.00
59.022 -95.874 3.705 0.00
59.022 -94.126 3.690 55.24
59.022 -92.379 3.688 0.00
59.022 -90.632 3.702 90.89
59.022 -88.884 3.698 8.99
59.022 -87.137 3.677 0.00
59.022 -85.390 3.661 0.00
59.022 -83.643 3.648 0.00
59.022 -81.895 3.639 0.00
59.022 -80.148 3.635 0.00
59.022 -78.401 3.633 0.00
59.022 -76.654 3.633 0.00
59.022 -74.906 3.630 0.00
59.022 -73.159 3.628 0.00
59.022 -71.412 3.629 0.00
59.022 -69.664 3.631 0.00
59.022 -67.917 3.631 0.00
59.022 -66.170 3.632 0.00
59.022 -64.423 3.633 0.00
59.022 -62.675 3.634 0.00
59.022 -60.928 3.634 0.00
59.022 -59.181 3.634 0.00
59.022 -57.433 3.634 0.00
59.022 -55.686 3.634 0.00
59.022 -53.939 3.635 0.00
59.022 -52.192 3.634 0.00
59.022 -50.444 3.630 0.00
59.921 -149.612 3.621 44.66
59.921 -147.818 3.617 222.77
59.921 -146.023 3.607 92.89
59.921 -144.229 3.608 403.55
59.921 -142.434 3.641 571.42
59.921 -140.640 3.666 371.59
59.921 -138.845 3.663 575.57
59.921 -137.051 3.647 129.87
59.921 -135.257 3.642 384.62
59.921 -133.462 3.650 7.99
59.921 -131.668 3.658 209.80
59.921 -129.873 3.665 127.88
59.921 -128.079 3.666 51.95
59.921 -126.284 3.675 73.93
59.921 -124.490 3.706 77.93
59.921 -122.696 3.766 78.94
59.921 -120.901 3.836 228.77
59.921 -119.107 3.874 343.65
59.921 -117.312 3.851 218.78
59.921 -115.518 3.792 117.89
59.921 -113.724 3.746 108.89
59.921 -111.929 3.749 101.89
59.921 -110.135 3.781 89.90
59.921 -108.340 3.786 135.85
59.921 -106.546 3.749 191.80
59.921 -104.751 3.715 203.78
59.921 -102.957 3.707 203.79
59.921 -101.163 3.716 94.89
59.921 -99.368 3.722 24.97
59.921 -97.574 3.728 114.87
59.921 -95.779 3.719 71.92
