40.135 -81.723 3.116 84800.13
40.135 -80.546 3.009 70479.53
40.135 -79.370 3.032 61644.86
40.135 -78.194 3.100 50081.61
40.135 -77.017 3.071 54641.93
40.135 -75.841 3.057 28476.45
40.135 -74.665 3.102 21845.17
40.135 -73.488 3.098 5507.50
40.135 -72.312 3.028 0.00
40.135 -71.136 2.977 0.00
40.135 -69.959 2.977 0.00
40.135 -68.783 2.984 0.00
40.135 -67.607 2.984 0.00
40.135 -66.430 2.983 0.00
41.034 -132.752 2.983 0.00
41.034 -131.560 2.983 0.00
41.034 -130.368 2.982 0.00
41.034 -129.175 2.988 0.00
41.034 -127.983 3.006 0.00
41.034 -126.791 2.949 0.00
41.034 -125.598 2.702 0.00
41.034 -124.406 2.373 22953.45
41.034 -123.214 2.272 17417.24
41.034 -122.022 2.467 15973.24
41.034 -120.829 2.762 23408.50
41.034 -119.637 2.727 35831.13
41.034 -118.445 2.739 38623.98
41.034 -117.252 2.833 34523.06
41.034 -116.060 2.801 44834.75
41.034 -114.868 2.845 112873.39
41.034 -113.676 2.858 75572.63
41.034 -112.483 2.756 66986.33
41.034 -111.291 2.779 63875.41
41.034 -110.099 2.817 66231.96
41.034 -108.906 2.766 48069.95
41.034 -107.714 2.847 46491.81
41.034 -106.522 3.018 35096.40
41.034 -105.330 3.002 29738.00
41.034 -104.137 2.924 29426.19
41.034 -102.945 2.961 23932.30
41.034 -101.753 2.992 27619.02
41.034 -100.560 3.014 37653.50
41.034 -99.368 2.996 49294.03
41.034 -98.176 3.043 58562.45
41.034 -96.984 3.071 71959.73
41.034 -95.791 3.061 74333.74
41.034 -94.599 3.075 73382.72
41.034 -93.407 3.076 72378.37
41.034 -92.215 3.052 68444.94
41.034 -91.022 3.026 52445.98
41.034 -89.830 3.030 58229.51
41.034 -88.638 3.092 52735.43
41.034 -87.445 3.134 50115.13
41.034 -86.253 3.055 53602.15
41.034 -85.061 3.031 77045.05
41.034 -83.869 3.143 66673.28
41.034 -82.676 3.201 63989.64
41.034 -81.484 3.152 57981.00
41.034 -80.292 3.118 60832.53
41.034 -79.099 3.049 59075.76
41.034 -77.907 3.058 53121.09
41.034 -76.715 3.047 52934.67
41.034 -75.523 3.050 51514.77
41.034 -74.330 3.129 33133.82
41.034 -73.138 3.097 24384.32
41.034 -71.946 3.004 3067.42
41.034 -70.753 2.948 1177.27
41.034 -69.561 2.964 0.00
41.034 -68.369 2.981 0.00
41.034 -67.177 2.984 0.00
41.034 -65.984 2.983 0.00
41.934 -133.219 2.983 0.00
41.934 -132.010 2.982 0.00
41.934 -130.801 2.981 0.00
41.934 -129.592 2.992 0.00
41.934 -128.383 3.017 0.00
41.934 -127.174 2.990 0.00
41.934 -125.965 2.877 9.91
41.934 -124.756 2.761 3129.91
41.934 -123.547 2.712 10921.84
41.934 -122.338 2.775 14327.61
41.934 -121.129 2.913 20012.25
41.934 -119.920 2.747 31752.74
41.934 -118.711 2.694 34209.89
41.934 -117.502 2.818 41221.32
41.934 -116.293 2.938 46746.23
41.934 -115.085 3.002 62446.29
41.934 -113.876 3.019 60494.46
41.934 -112.667 2.925 61118.35
41.934 -111.458 2.815 81857.38
41.934 -110.249 2.797 70543.43
41.934 -109.040 2.732 51286.81
41.934 -107.831 2.716 38795.48
41.934 -106.622 2.867 32301.89
41.934 -105.413 2.972 27203.12
41.934 -104.204 2.996 23275.78
41.934 -102.995 2.980 21957.92
41.934 -101.786 2.994 25473.52
41.934 -100.577 3.001 33705.09
41.934 -99.368 2.974 52418.38
41.934 -98.159 3.093 59398.10
41.934 -96.950 3.100 73115.46
41.934 -95.741 3.045 77210.70
41.934 -94.532 3.027 70239.17
41.934 -93.323 3.027 64138.24
41.934 -92.115 3.039 53682.98
41.934 -90.906 3.052 65857.52
41.934 -89.697 3.057 51337.57
41.934 -88.488 3.057 54855.04
41.934 -87.279 3.084 60420.80
41.934 -86.070 3.036 61008.32
41.934 -84.861 3.016 62037.05
41.934 -83.652 3.113 53955.54
41.934 -82.443 3.182 62184.32
41.934 -81.234 3.167 58548.71
41.934 -80.025 3.183 60014.60
41.934 -78.816 3.119 68427.91
41.934 -77.607 3.090 54564.34
41.934 -76.398 3.075 48001.03
41.934 -75.189 3.119 40955.25
41.934 -73.980 3.161 36055.92
41.934 -72.771 3.096 24311.43
41.934 -71.562 2.985 16706.79
41.934 -70.353 2.936 14639.24
41.934 -69.145 2.966 221.90
41.934 -67.936 2.981 0.00
41.934 -66.727 2.981 0.00
41.934 -65.518 2.982 0.00
42.833 -133.707 2.983 0.00
42.833 -132.481 2.983 0.00
42.833 -131.254 2.982 0.00
42.833 -130.028 2.986 0.00
42.833 -128.802 3.002 0.00
42.833 -127.575 3.006 1.23
42.833 -126.349 2.962 653.58
42.833 -125.122 2.946 1061.80
42.833 -123.896 2.960 2024.83
42.833 -122.670 2.960 10151.56
42.833 -121.443 2.972 13875.29
42.833 -120.217 2.747 19079.24
42.833 -118.990 2.649 28515.96
42.833 -117.764 2.810 35086.36
42.833 -116.538 2.933 43150.50
42.833 -115.311 2.964 43307.63
42.833 -114.085 2.992 53682.57
42.833 -112.858 3.038 52311.28
42.833 -111.632 2.909 62316.14
42.833 -110.406 2.830 54838.46
42.833 -109.179 2.860 41944.82
42.833 -107.953 2.888 34737.32
42.833 -106.727 2.895 29486.90
42.833 -105.500 2.994 27059.16
42.833 -104.274 3.061 25945.00
42.833 -103.047 3.054 24844.62
42.833 -101.821 2.983 26363.25
42.833 -100.595 2.965 30702.44
42.833 -99.368 3.003 39989.38
42.833 -98.142 3.110 66120.01
42.833 -96.915 3.125 71289.04
42.833 -95.689 3.077 73285.88
42.833 -94.463 3.035 69480.12
42.833 -93.236 2.967 58884.09
42.833 -92.010 3.000 46627.53
42.833 -90.783 3.060 65228.14
42.833 -89.557 3.087 50633.28
42.833 -88.331 3.077 51955.91
42.833 -87.104 3.017 66344.15
42.833 -85.878 2.998 55975.25
42.833 -84.652 2.990 61663.30
42.833 -83.425 3.093 67325.59
42.833 -82.199 3.149 58505.51
42.833 -80.972 3.137 65262.29
42.833 -79.746 3.159 58716.35
42.833 -78.520 3.133 59716.97
42.833 -77.293 3.153 67123.97
42.833 -76.067 3.135 59929.75
42.833 -74.840 3.174 50618.30
42.833 -73.614 3.220 49102.37
42.833 -72.388 3.167 46833.18
42.833 -71.161 3.013 20955.03
42.833 -69.935 2.971 3815.29
42.833 -68.708 2.996 609.69
42.833 -67.482 2.995 0.00
42.833 -66.256 2.985 0.00
42.833 -65.029 2.981 0.00
43.732 -134.219 2.983 0.00
43.732 -132.974 2.983 0.00
43.732 -131.729 2.984 0.00
43.732 -130.485 2.981 0.00
43.732 -129.240 2.963 0.00
43.732 -127.995 2.920 11.08
43.732 -126.751 2.840 4240.73
43.732 -125.506 2.852 2929.16
43.732 -124.261 2.894 3149.83
43.732 -123.017 2.822 7464.24
43.732 -121.772 2.848 11633.84
43.732 -120.527 2.817 19115.57
43.732 -119.283 2.768 25320.30
43.732 -118.038 2.841 26739.23
43.732 -116.793 2.875 34556.26
43.732 -115.549 2.853 37884.17
43.732 -114.304 2.951 46399.64
43.732 -113.059 2.964 42889.62
43.732 -111.815 2.897 39360.77
43.732 -110.570 2.792 48520.08
43.732 -109.325 3.004 36519.42
43.732 -108.081 3.050 30150.37
43.732 -106.836 2.931 27396.36
43.732 -105.591 2.831 24555.04
43.732 -104.347 2.935 22775.04
43.732 -103.102 3.114 18643.50
43.732 -101.858 3.048 19981.84
43.732 -100.613 2.985 26259.12
43.732 -99.368 3.127 42659.68
43.732 -98.124 3.181 57169.82
43.732 -96.879 3.169 78210.72
43.732 -95.634 3.203 72526.80
43.732 -94.390 3.109 69258.50
43.732 -93.145 2.954 58590.16
43.732 -91.900 3.059 42750.41
43.732 -90.656 3.159 57440.18
43.732 -89.411 3.084 52607.16
43.732 -88.166 3.054 51385.10
43.732 -86.922 3.013 51576.61
43.732 -85.677 2.970 91395.55
43.732 -84.432 2.998 61652.88
43.732 -83.188 3.073 55020.93
43.732 -81.943 3.166 51654.09
43.732 -80.698 3.175 73906.95
43.732 -79.454 3.130 72136.83
43.732 -78.209 3.143 64945.42
43.732 -76.964 3.156 66512.87
43.732 -75.720 3.174 66448.25
43.732 -74.475 3.227 71440.81
43.732 -73.230 3.247 58273.81
43.732 -71.986 3.189 45403.41
43.732 -70.741 3.082 43794.90
43.732 -69.496 3.004 14553.19
43.732 -68.252 3.022 2047.32
43.732 -67.007 3.002 115.89
43.732 -65.763 2.984 0.00
43.732 -64.518 2.981 0.00
44.632 -134.754 2.983 0.00
44.632 -133.490 2.983 0.00
44.632 -132.227 2.985 0.00
44.632 -130.963 2.989 0.00
44.632 -129.699 2.974 7.69
44.632 -128.435 2.930 3.62
44.632 -127.172 2.925 322.15
44.632 -125.908 2.983 1351.14
44.632 -124.644 2.930 3758.12
44.632 -123.380 2.761 10190.64
44.632 -122.116 2.755 10693.16
44.632 -120.853 2.826 13904.52
44.632 -119.589 2.861 20008.89
44.632 -118.325 2.927 25668.46
44.632 -117.061 2.948 29117.39
44.632 -115.797 2.945 32522.50
44.632 -114.534 2.925 36827.24
44.632 -113.270 2.927 44284.10
44.632 -112.006 2.938 42550.21
44.632 -110.742 2.751 35829.29
44.632 -109.479 2.972 29606.45
44.632 -108.215 3.044 21537.24
44.632 -106.951 2.911 19965.32
44.632 -105.687 2.811 17679.73
44.632 -104.423 2.910 16696.54
44.632 -103.160 3.074 19328.56
44.632 -101.896 3.023 22017.64
44.632 -100.632 3.047 20542.42
44.632 -99.368 3.086 28881.84
44.632 -98.104 3.088 46726.20
44.632 -96.841 3.135 66479.81
44.632 -95.577 3.230 63582.04
44.632 -94.313 3.159 61104.76
44.632 -93.049 3.017 52531.85
44.632 -91.785 3.099 44204.72
44.632 -90.522 3.211 46705.47
44.632 -89.258 3.123 49921.31
44.632 -87.994 3.084 45550.14
44.632 -86.730 3.042 46999.92
44.632 -85.467 2.979 61562.42
44.632 -84.203 2.986 66700.07
44.632 -82.939 3.053 40432.42
44.632 -81.675 3.127 36889.04
44.632 -80.411 3.166 41860.72
44.632 -79.148 3.158 57295.24
44.632 -77.884 3.144 72175.80
44.632 -76.620 3.181 66561.30
44.632 -75.356 3.202 60312.84
44.632 -74.092 3.201 64315.39
44.632 -72.829 3.209 49902.39
44.632 -71.565 3.123 32680.99
44.632 -70.301 3.023 31081.53
44.632 -69.037 2.983 19940.28
44.632 -67.773 3.003 18636.70
44.632 -66.510 2.997 185.91
44.632 -65.246 2.985 303.80
44.632 -63.982 2.981 291.31
45.531 -135.316 2.982 0.00
45.531 -134.032 2.983 0.00
45.531 -132.748 2.983 0.00
45.531 -131.464 2.985 3.31
45.531 -130.180 2.984 8.23
45.531 -128.897 2.991 0.00
45.531 -127.613 3.132 203.92
45.531 -126.329 3.374 416.91
45.531 -125.045 3.261 1578.36
45.531 -123.761 2.910 3603.91
45.531 -122.477 2.773 6739.15
45.531 -121.193 2.811 12415.93
45.531 -119.910 2.811 16383.07
45.531 -118.626 2.851 26822.55
45.531 -117.342 2.953 28052.88
45.531 -116.058 3.011 25783.96
45.531 -114.774 2.928 26656.92
45.531 -113.490 2.915 34713.74
45.531 -112.207 3.070 50051.39
45.531 -110.923 2.999 21931.85
45.531 -109.639 3.054 16244.16
45.531 -108.355 3.082 15910.91
45.531 -107.071 2.939 18194.56
45.531 -105.787 2.815 16918.41
45.531 -104.504 2.848 13090.77
45.531 -103.220 2.953 16287.79
45.531 -101.936 3.025 23043.89
45.531 -100.652 3.120 25578.21
45.531 -99.368 3.059 37578.31
45.531 -98.084 3.048 52524.57
45.531 -96.801 3.122 58203.05
45.531 -95.517 3.171 59287.03
45.531 -94.233 3.187 49595.24
45.531 -92.949 3.077 40491.60
45.531 -91.665 3.079 46190.83
45.531 -90.381 3.213 32771.23
45.531 -89.097 3.200 41292.89
45.531 -87.814 3.162 36905.16
45.531 -86.530 3.102 37744.45
45.531 -85.246 3.057 35491.48
45.531 -83.962 3.084 38627.62
45.531 -82.678 3.102 49614.00
45.531 -81.394 3.126 33259.01
45.531 -80.111 3.174 40186.70
45.531 -78.827 3.168 47546.52
45.531 -77.543 3.131 63802.68
45.531 -76.259 3.079 70662.63
45.531 -74.975 3.172 41911.74
45.531 -73.691 3.154 43065.38
45.531 -72.408 3.124 35589.12
45.531 -71.124 3.122 26159.18
45.531 -69.840 3.066 24439.02
45.531 -68.556 3.001 12317.80
45.531 -67.272 3.009 2881.11
45.531 -65.988 3.015 1298.93
45.531 -64.705 3.001 608.84
45.531 -63.421 2.987 291.74
46.431 -135.904 2.979 271.82
46.431 -134.600 2.982 8.70
46.431 -133.295 2.984 0.00
46.431 -131.990 2.978 11.77
46.431 -130.685 2.963 0.00
46.431 -129.380 3.009 0.00
46.431 -128.075 3.292 166.45
46.431 -126.770 3.656 523.92
46.431 -125.466 3.460 1486.98
46.431 -124.161 2.936 1958.23
46.431 -122.856 2.760 5733.30
46.431 -121.551 2.827 13440.06
46.431 -120.246 2.793 19034.33
46.431 -118.941 2.859 26771.86
46.431 -117.636 2.943 19658.25
46.431 -116.331 2.997 16394.91
46.431 -115.027 2.908 22264.12
46.431 -113.722 2.867 27245.82
46.431 -112.417 2.930 20751.49
46.431 -111.112 3.013 14575.59
46.431 -109.807 3.066 10828.48
46.431 -108.502 3.083 12866.88
46.431 -107.197 2.972 15553.77
46.431 -105.893 2.880 19176.01
46.431 -104.588 2.863 12145.15
46.431 -103.283 2.867 15752.31
46.431 -101.978 2.939 20547.70
46.431 -100.673 3.022 26884.65
46.431 -99.368 2.984 30210.00
46.431 -98.063 3.053 35879.66
46.431 -96.758 3.135 46552.17
46.431 -95.454 3.198 47955.23
46.431 -94.149 3.251 38248.20
46.431 -92.844 3.137 33509.98
46.431 -91.539 3.025 27508.10
46.431 -90.234 3.057 18540.05
46.431 -88.929 3.126 17986.05
46.431 -87.624 3.114 19557.73
46.431 -86.320 3.034 28060.37
46.431 -85.015 3.067 30690.90
46.431 -83.710 3.149 27103.64
46.431 -82.405 3.193 28104.61
46.431 -81.100 3.178 26031.56
46.431 -79.795 3.142 37422.75
46.431 -78.490 3.125 38141.26
46.431 -77.185 3.151 38829.92
46.431 -75.881 3.157 32637.64
46.431 -74.576 3.217 32482.03
46.431 -73.271 3.204 38295.55
46.431 -71.966 3.106 32104.29
46.431 -70.661 3.099 23375.03
46.431 -69.356 3.095 14338.00
46.431 -68.051 3.077 15121.27
46.431 -66.747 3.044 462.39
46.431 -65.442 3.029 627.58
46.431 -64.137 3.011 186.83
46.431 -62.832 2.991 105.88
47.330 -136.522 2.980 22.97
47.330 -135.195 2.981 0.00
47.330 -133.868 2.983 11.15
47.330 -132.541 2.973 0.85
47.330 -131.214 2.954 0.00
47.330 -129.887 3.032 0.00
47.330 -128.561 3.391 279.03
47.330 -127.234 3.712 659.83
47.330 -125.907 3.413 1212.20
47.330 -124.580 2.842 1512.49
47.330 -123.253 2.712 6767.39
47.330 -121.926 2.844 10450.67
47.330 -120.599 2.920 15474.06
47.330 -119.272 2.942 14018.30
47.330 -117.945 2.957 11306.67
47.330 -116.618 3.000 13336.95
47.330 -115.291 2.923 15309.66
47.330 -113.964 2.926 14057.24
47.330 -112.637 2.963 12803.82
47.330 -111.311 3.018 10193.70
47.330 -109.984 3.080 8424.85
47.330 -108.657 3.050 9208.78
47.330 -107.330 3.001 11267.00
47.330 -106.003 2.987 13091.66
47.330 -104.676 2.922 14463.48
47.330 -103.349 2.884 13235.05
47.330 -102.022 2.935 18467.52
47.330 -100.695 2.981 23187.03
47.330 -99.368 2.981 27497.27
47.330 -98.041 3.037 37565.68
47.330 -96.714 3.115 40373.96
47.330 -95.387 3.151 36180.09
47.330 -94.061 3.204 32584.13
47.330 -92.734 3.152 23301.93
47.330 -91.407 3.071 15890.67
47.330 -90.080 3.037 14895.73
47.330 -88.753 3.083 13789.65
47.330 -87.426 3.050 10060.79
47.330 -86.099 3.044 6399.21
47.330 -84.772 3.130 4604.68
47.330 -83.445 3.244 5584.13
47.330 -82.118 3.253 7872.69
47.330 -80.791 3.172 9790.96
47.330 -79.464 3.108 10903.77
47.330 -78.137 3.087 11507.86
47.330 -76.811 3.115 18500.96
47.330 -75.484 3.128 13668.57
47.330 -74.157 3.170 12329.66
47.330 -72.830 3.183 11916.69
47.330 -71.503 3.121 12660.82
47.330 -70.176 3.089 14399.98
47.330 -68.849 3.071 2936.11
47.330 -67.522 3.070 862.93
47.330 -66.195 3.052 413.45
47.330 -64.868 3.035 243.86
47.330 -63.541 3.010 212.00
47.330 -62.214 2.992 24.21
48.229 -137.170 2.985 23.98
48.229 -135.820 2.982 31.75
48.229 -134.470 2.978 28.13
48.229 -133.120 2.966 23.51
48.229 -131.770 2.961 23.05
48.229 -130.420 3.092 39.18
48.229 -129.070 3.485 291.68
48.229 -127.720 3.685 1424.47
48.229 -126.370 3.277 557.22
48.229 -125.020 2.779 2776.63
48.229 -123.670 2.741 7379.79
48.229 -122.320 2.956 10200.82
48.229 -120.969 3.019 9663.79
48.229 -119.619 3.056 7886.22
48.229 -118.269 3.049 7474.15
48.229 -116.919 3.036 10665.67
48.229 -115.569 2.990 10081.22
48.229 -114.219 2.994 8776.30
48.229 -112.869 2.985 10798.69
48.229 -111.519 2.994 6132.38
48.229 -110.169 3.039 7416.97
48.229 -108.819 2.997 7516.83
48.229 -107.469 3.024 9648.54
48.229 -106.119 3.063 9792.65
48.229 -104.769 2.975 16077.44
48.229 -103.418 2.937 10177.44
48.229 -102.068 2.962 14856.77
48.229 -100.718 3.026 19541.28
48.229 -99.368 3.061 22029.29
48.229 -98.018 3.094 21861.39
48.229 -96.668 3.145 26168.04
48.229 -95.318 3.120 29243.21
48.229 -93.968 3.149 20423.92
48.229 -92.618 3.131 8179.41
48.229 -91.268 3.094 7493.20
48.229 -89.918 3.068 5442.55
48.229 -88.568 3.062 6906.92
48.229 -87.217 3.078 4194.63
48.229 -85.867 3.107 3593.24
48.229 -84.517 3.171 2723.12
48.229 -83.167 3.238 2796.01
48.229 -81.817 3.215 3574.46
48.229 -80.467 3.167 3814.54
48.229 -79.117 3.148 4683.62
48.229 -77.767 3.162 4270.05
48.229 -76.417 3.178 3724.53
48.229 -75.067 3.163 2500.22
48.229 -73.717 3.153 2394.27
48.229 -72.367 3.167 1489.46
48.229 -71.017 3.134 1707.52
48.229 -69.666 3.098 718.61
48.229 -68.316 3.073 449.56
48.229 -66.966 3.064 811.29
48.229 -65.616 3.051 697.94
48.229 -64.266 3.033 647.80
48.229 -62.916 3.013 210.82
48.229 -61.566 3.007 20.67
49.129 -137.851 3.011 7.05
49.129 -136.477 3.007 7.85
49.129 -135.103 2.985 0.00
49.129 -133.728 2.964 0.00
49.129 -132.354 2.982 0.00
49.129 -130.979 3.195 164.62
49.129 -129.605 3.570 245.72
49.129 -128.231 3.619 1595.40
49.129 -126.856 3.179 1313.11
49.129 -125.482 2.841 6634.31
49.129 -124.107 2.891 10362.14
49.129 -122.733 3.003 6317.60
49.129 -121.359 3.072 4782.58
49.129 -119.984 3.125 5782.25
49.129 -118.610 3.075 5621.19
49.129 -117.235 3.039 5204.29
49.129 -115.861 2.974 6165.16
49.129 -114.487 2.972 5629.93
49.129 -113.112 2.958 8198.16
49.129 -111.738 2.969 6625.88
49.129 -110.363 2.960 6834.41
49.129 -108.989 2.914 7791.81
49.129 -107.615 2.953 8298.24
49.129 -106.240 2.979 9393.44
49.129 -104.866 2.968 9190.13
49.129 -103.491 2.962 11625.18
49.129 -102.117 2.962 10874.63
49.129 -100.743 3.039 11168.90
49.129 -99.368 3.116 10030.36
49.129 -97.994 3.199 11635.39
49.129 -96.619 3.182 10378.07
49.129 -95.245 3.116 9869.48
49.129 -93.871 3.118 2778.43
49.129 -92.496 3.120 2900.62
49.129 -91.122 3.101 3615.84
49.129 -89.747 3.105 3605.31
49.129 -88.373 3.109 3775.92
49.129 -86.999 3.139 4437.28
49.129 -85.624 3.141 3401.39
49.129 -84.250 3.145 2805.18
49.129 -82.875 3.149 3787.33
49.129 -81.501 3.138 3235.78
49.129 -80.127 3.129 4382.98
49.129 -78.752 3.140 3048.83
49.129 -77.378 3.175 2376.14
49.129 -76.003 3.223 2067.00
49.129 -74.629 3.182 1627.56
49.129 -73.255 3.131 1042.89
49.129 -71.880 3.130 940.71
49.129 -70.506 3.109 738.37
49.129 -69.131 3.069 564.47
49.129 -67.757 3.043 836.36
49.129 -66.383 3.030 239.79
49.129 -65.008 3.020 144.87
49.129 -63.634 3.014 105.90
49.129 -62.259 3.018 280.25
49.129 -60.885 3.029 466.67
50.028 -138.567 3.049 490.94
50.028 -137.167 3.046 613.37
50.028 -135.767 2.999 0.00
50.028 -134.367 2.972 0.00
50.028 -132.967 3.025 6.23
50.028 -131.567 3.282 175.73
50.028 -130.167 3.582 410.53
50.028 -128.767 3.522 1893.09
50.028 -127.368 3.145 7036.48
50.028 -125.968 2.956 10179.45
50.028 -124.568 3.010 5223.86
50.028 -123.168 3.051 4232.74
50.028 -121.768 3.044 5523.50
50.028 -120.368 3.083 4621.31
50.028 -118.968 2.998 3925.90
50.028 -117.568 2.944 5937.60
50.028 -116.168 2.891 6101.55
50.028 -114.768 2.921 6254.39
50.028 -113.368 2.946 6736.71
50.028 -111.968 2.970 7463.08
50.028 -110.568 2.909 5740.72
50.028 -109.168 2.870 6727.35
50.028 -107.768 2.906 8010.22
50.028 -106.368 2.938 8248.87
50.028 -104.968 3.039 7400.18
50.028 -103.568 3.051 12994.12
50.028 -102.168 3.081 8831.76
50.028 -100.768 3.107 7894.90
50.028 -99.368 3.094 6519.90
50.028 -97.968 3.119 5938.22
50.028 -96.568 3.142 7671.40
50.028 -95.168 3.096 3418.20
50.028 -93.768 3.102 2745.93
50.028 -92.368 3.108 2041.92
50.028 -90.968 3.093 4173.55
50.028 -89.568 3.111 3614.61
50.028 -88.168 3.111 3795.93
50.028 -86.769 3.113 3026.99
50.028 -85.369 3.112 2472.67
50.028 -83.969 3.101 2857.37
50.028 -82.569 3.115 2981.95
50.028 -81.169 3.120 3673.81
50.028 -79.769 3.107 2530.47
50.028 -78.369 3.083 1600.48
50.028 -76.969 3.131 1831.92
50.028 -75.569 3.182 2101.88
50.028 -74.169 3.139 1655.00
50.028 -72.769 3.092 755.27
50.028 -71.369 3.085 336.69
50.028 -69.969 3.073 598.51
50.028 -68.569 3.047 405.71
50.028 -67.169 3.027 458.57
50.028 -65.769 3.010 72.93
50.028 -64.369 3.001 127.88
50.028 -62.969 3.002 0.00
50.028 -61.569 3.017 0.00
50.028 -60.169 3.034 90.05
50.927 -139.320 3.049 352.12
50.927 -137.893 3.041 132.88
50.927 -136.466 2.996 0.00
50.927 -135.040 2.988 0.00
50.927 -133.613 3.088 133.12
50.927 -132.186 3.317 106.87
50.927 -130.759 3.481 986.85
50.927 -129.332 3.339 9868.95
50.927 -127.905 3.102 10699.90
50.927 -126.478 2.933 3463.79
50.927 -125.052 3.020 5042.78
50.927 -123.625 2.994 5012.83
50.927 -122.198 2.900 6855.41
50.927 -120.771 2.937 6221.56
50.927 -119.344 2.902 7091.86
50.927 -117.917 2.880 8270.21
50.927 -116.490 2.858 6483.91
50.927 -115.064 2.929 6611.64
50.927 -113.637 2.975 5414.19
50.927 -112.210 2.987 6611.88
50.927 -110.783 2.907 4359.02
50.927 -109.356 2.915 5220.38
50.927 -107.929 2.985 7340.57
50.927 -106.502 3.027 7152.62
50.927 -105.076 3.098 8909.98
50.927 -103.649 3.118 11726.83
50.927 -102.222 3.111 10120.26
50.927 -100.795 3.084 6493.72
50.927 -99.368 3.047 5457.54
50.927 -97.941 3.043 4841.11
50.927 -96.514 3.062 3314.36
50.927 -95.088 3.040 3079.89
50.927 -93.661 3.060 2642.82
50.927 -92.234 3.084 2821.18
50.927 -90.807 3.102 3929.64
50.927 -89.380 3.133 2510.01
50.927 -87.953 3.090 2869.02
50.927 -86.526 3.066 3241.75
50.927 -85.100 3.066 2744.35
50.927 -83.673 3.074 1642.22
50.927 -82.246 3.094 2821.17
50.927 -80.819 3.109 2626.80
50.927 -79.392 3.089 1214.81
50.927 -77.965 3.063 1837.13
50.927 -76.538 3.092 1466.52
50.927 -75.112 3.128 1665.32
50.927 -73.685 3.104 1348.58
50.927 -72.258 3.072 333.67
50.927 -70.831 3.070 417.57
50.927 -69.404 3.061 538.65
50.927 -67.977 3.037 413.70
50.927 -66.550 3.019 82.91
50.927 -65.124 3.009 140.87
50.927 -63.697 3.006 59.94
50.927 -62.270 3.016 88.90
50.927 -60.843 3.031 158.52
50.927 -59.416 3.034 302.45
51.827 -140.113 3.014 37.97
51.827 -138.658 3.003 0.00
51.827 -137.203 2.983 0.00
51.827 -135.747 3.007 0.00
51.827 -134.292 3.157 187.43
51.827 -132.837 3.356 141.83
51.827 -131.382 3.374 13365.29
51.827 -129.927 3.231 16526.11
51.827 -128.472 3.028 8150.21
51.827 -127.016 2.870 7845.60
51.827 -125.561 2.919 8514.02
51.827 -124.106 2.925 8113.04
51.827 -122.651 2.856 7298.13
51.827 -121.196 2.895 6263.39
51.827 -119.741 2.904 5474.43
51.827 -118.285 2.934 5373.82
51.827 -116.830 2.915 4394.71
51.827 -115.375 2.975 3425.44
51.827 -113.920 3.030 4328.66
51.827 -112.465 3.041 5415.96
51.827 -111.010 2.974 5068.49
51.827 -109.554 2.981 6065.67
51.827 -108.099 3.019 7032.59
51.827 -106.644 3.048 9274.63
51.827 -105.189 3.022 10153.49
51.827 -103.734 3.065 10017.44
51.827 -102.279 3.063 11258.47
51.827 -100.823 3.058 6775.37
51.827 -99.368 3.035 4863.92
51.827 -97.913 3.028 4542.45
51.827 -96.458 3.021 2456.75
51.827 -95.003 3.001 2994.01
51.827 -93.548 3.037 2758.20
51.827 -92.092 3.082 2505.35
51.827 -90.637 3.115 3305.05
51.827 -89.182 3.120 2683.58
51.827 -87.727 3.076 3314.67
51.827 -86.272 3.072 3009.04
51.827 -84.817 3.079 2244.81
51.827 -83.361 3.084 2249.78
51.827 -81.906 3.098 1858.13
51.827 -80.451 3.104 1426.49
51.827 -78.996 3.073 1829.22
51.827 -77.541 3.062 1911.00
51.827 -76.085 3.084 1477.53
51.827 -74.630 3.095 1018.94
51.827 -73.175 3.076 899.02
51.827 -71.720 3.071 574.45
51.827 -70.265 3.076 589.42
51.827 -68.810 3.067 474.73
51.827 -67.354 3.035 300.77
51.827 -65.899 3.019 103.90
51.827 -64.444 3.019 205.79
51.827 -62.989 3.024 102.88
51.827 -61.534 3.032 160.24
51.827 -60.079 3.030 232.51
51.827 -58.623 3.013 0.00
52.726 -140.948 2.984 0.00
52.726 -139.463 2.979 0.00
52.726 -137.978 2.989 0.00
52.726 -136.493 3.056 112.98
52.726 -135.008 3.242 78.91
52.726 -133.523 3.499 330.61
52.726 -132.038 3.620 1884.75
52.726 -130.553 3.476 1927.44
52.726 -129.068 3.240 1973.65
52.726 -127.583 3.027 2943.42
52.726 -126.098 3.022 4094.17
52.726 -124.613 3.024 5182.93
52.726 -123.128 2.972 3628.67
52.726 -121.643 2.941 4534.44
52.726 -120.158 2.933 4345.39
52.726 -118.673 2.976 5404.22
52.726 -117.188 2.956 4098.25
52.726 -115.703 2.946 3522.65
52.726 -114.218 2.962 3310.97
52.726 -112.733 2.951 6679.34
52.726 -111.248 2.946 6416.16
52.726 -109.763 2.987 6955.54
52.726 -108.278 3.022 6983.87
52.726 -106.793 3.030 11792.22
52.726 -105.308 2.969 10842.98
52.726 -103.823 3.005 10389.00
52.726 -102.338 3.048 9933.23
52.726 -100.853 3.081 8213.55
52.726 -99.368 3.113 4663.87
52.726 -97.883 3.091 3632.21
52.726 -96.398 3.045 2230.00
52.726 -94.913 3.017 2965.57
52.726 -93.428 3.051 2251.02
52.726 -91.943 3.097 2291.34
52.726 -90.458 3.088 3003.81
52.726 -88.973 3.073 2198.68
52.726 -87.488 3.062 2858.07
52.726 -86.003 3.090 3360.58
52.726 -84.518 3.095 2377.80
52.726 -83.033 3.098 1879.25
52.726 -81.548 3.106 1248.71
52.726 -80.063 3.108 1589.39
52.726 -78.578 3.075 2158.42
52.726 -77.093 3.072 1417.53
52.726 -75.608 3.094 1179.80
52.726 -74.123 3.083 1241.66
52.726 -72.638 3.063 541.48
52.726 -71.153 3.079 840.15
52.726 -69.668 3.094 415.62
52.726 -68.183 3.085 537.67
52.726 -66.698 3.045 236.78
52.726 -65.213 3.026 235.76
52.726 -63.728 3.028 100.91
52.726 -62.243 3.031 206.27
52.726 -60.758 3.021 141.58
52.726 -59.273 3.005 0.00
52.726 -57.788 2.990 0.00
53.625 -141.829 2.975 0.00
53.625 -140.313 2.978 0.00
53.625 -138.796 3.014 0.00
53.625 -137.280 3.112 195.98
53.625 -135.763 3.296 112.87
53.625 -134.247 3.497 771.16
53.625 -132.730 3.518 1316.41
53.625 -131.214 3.336 908.37
53.625 -129.697 3.107 1149.54
53.625 -128.181 2.931 1957.06
53.625 -126.665 2.950 2821.04
53.625 -125.148 3.042 3301.34
53.625 -123.632 3.027 2922.60
53.625 -122.115 2.932 3343.93
53.625 -120.599 2.911 4610.25
53.625 -119.082 2.945 4210.35
53.625 -117.566 2.920 4548.89
53.625 -116.049 2.916 3281.87
53.625 -114.533 2.934 4323.19
53.625 -113.016 2.907 5490.58
53.625 -111.500 2.946 6457.06
53.625 -109.983 3.010 8176.02
53.625 -108.467 3.056 9010.49
53.625 -106.951 3.050 12706.23
53.625 -105.434 3.007 11470.59
53.625 -103.918 3.015 7757.64
53.625 -102.401 3.112 8069.39
53.625 -100.885 3.166 9061.86
53.625 -99.368 3.209 4188.64
53.625 -97.852 3.152 3095.35
53.625 -96.335 3.080 2212.89
53.625 -94.819 3.040 2300.65
53.625 -93.302 3.069 2089.82
53.625 -91.786 3.079 2310.65
53.625 -90.269 3.062 2327.60
53.625 -88.753 3.051 2712.40
53.625 -87.237 3.048 3569.46
53.625 -85.720 3.055 2653.26
53.625 -84.204 3.057 1383.59
53.625 -82.687 3.080 1239.74
53.625 -81.171 3.107 1319.60
53.625 -79.654 3.098 2187.77
53.625 -78.138 3.071 1709.23
53.625 -76.621 3.094 1036.39
53.625 -75.105 3.108 853.45
53.625 -73.588 3.085 1261.16
53.625 -72.072 3.071 455.55
53.625 -70.555 3.090 837.13
53.625 -69.039 3.113 664.33
53.625 -67.523 3.103 704.54
53.625 -66.006 3.059 125.88
53.625 -64.490 3.034 193.82
53.625 -62.973 3.025 217.11
53.625 -61.457 3.013 83.09
53.625 -59.940 2.997 0.00
53.625 -58.424 2.985 0.00
53.625 -56.907 2.979 0.00
54.525 -142.759 2.983 0.00
54.525 -141.209 2.989 0.00
54.525 -139.660 3.048 109.82
54.525 -138.110 3.172 90.26
54.525 -136.560 3.362 181.79
54.525 -135.011 3.480 1003.95
54.525 -133.461 3.383 427.11
54.525 -131.911 3.185 799.14
54.525 -130.362 3.033 1505.09
54.525 -128.812 2.882 2232.82
54.525 -127.262 2.894 2715.54
54.525 -125.713 3.006 2888.45
54.525 -124.163 3.034 2685.57
54.525 -122.613 2.935 2559.07
54.525 -121.064 2.891 4265.75
54.525 -119.514 2.909 3984.27
54.525 -117.964 2.884 3725.76
54.525 -116.415 2.912 3078.20
54.525 -114.865 2.961 4201.50
54.525 -113.315 2.935 4585.64
54.525 -111.766 3.010 7641.77
54.525 -110.216 3.075 7906.19
54.525 -108.666 3.083 11296.51
54.525 -107.117 3.098 12280.03
54.525 -105.567 3.082 10007.64
54.525 -104.017 3.078 6817.09
54.525 -102.468 3.169 7124.47
54.525 -100.918 3.215 6698.02
54.525 -99.368 3.228 5544.37
54.525 -97.819 3.173 2935.85
54.525 -96.269 3.107 2268.57
54.525 -94.719 3.073 2647.29
54.525 -93.170 3.064 2516.41
54.525 -91.620 3.070 1811.10
54.525 -90.070 3.050 3142.81
54.525 -88.520 3.019 2877.14
54.525 -86.971 3.020 2799.16
54.525 -85.421 3.017 1693.56
54.525 -83.871 3.026 1408.55
54.525 -82.322 3.058 1245.73
54.525 -80.772 3.087 1452.51
54.525 -79.222 3.073 1968.01
54.525 -77.673 3.068 1328.61
54.525 -76.123 3.100 802.20
54.525 -74.573 3.104 1235.72
54.525 -73.024 3.082 878.92
54.525 -71.474 3.080 498.90
54.525 -69.924 3.097 534.91
54.525 -68.375 3.110 897.07
54.525 -66.825 3.103 1182.23
54.525 -65.275 3.058 287.73
54.525 -63.726 3.024 219.50
54.525 -62.176 3.005 19.76
54.525 -60.626 2.992 0.00
54.525 -59.077 2.983 0.00
54.525 -57.527 2.978 0.00
54.525 -55.977 2.981 0.00
55.424 -143.742 3.003 0.00
55.424 -142.157 3.011 7.33
55.424 -140.572 3.085 198.58
55.424 -138.988 3.232 54.94
55.424 -137.403 3.428 334.61
55.424 -135.818 3.476 1053.95
55.424 -134.233 3.276 128.88
55.424 -132.648 3.107 1066.16
55.424 -131.064 3.033 1886.56
55.424 -129.479 2.906 1948.77
55.424 -127.894 2.895 2471.33
55.424 -126.309 2.983 3080.02
55.424 -124.725 3.018 3212.53
55.424 -123.140 2.914 1918.10
55.424 -121.555 2.866 3679.44
55.424 -119.970 2.878 5353.99
55.424 -118.385 2.887 4809.95
55.424 -116.801 2.937 3511.80
55.424 -115.216 3.002 4238.38
55.424 -113.631 3.004 5522.38
55.424 -112.046 3.050 8301.67
55.424 -110.462 3.094 11805.73
55.424 -108.877 3.084 12612.82
55.424 -107.292 3.130 10336.29
55.424 -105.707 3.154 8598.07
55.424 -104.123 3.143 6622.96
55.424 -102.538 3.200 4685.18
55.424 -100.953 3.228 5680.65
55.424 -99.368 3.173 8085.64
55.424 -97.783 3.165 2523.28
55.424 -96.199 3.140 2942.01
55.424 -94.614 3.115 1855.12
55.424 -93.029 3.091 2377.57
55.424 -91.444 3.084 2214.80
55.424 -89.860 3.043 2954.06
55.424 -88.275 2.992 2104.84
55.424 -86.690 2.999 2518.47
55.424 -85.105 3.005 1589.31
55.424 -83.520 3.029 1746.20
55.424 -81.936 3.059 1139.80
55.424 -80.351 3.075 2059.88
55.424 -78.766 3.064 1739.25
55.424 -77.181 3.066 1196.96
55.424 -75.597 3.069 837.16
55.424 -74.012 3.060 1291.59
55.424 -72.427 3.056 529.47
55.424 -70.842 3.064 296.65
55.424 -69.257 3.081 415.77
55.424 -67.673 3.091 778.66
55.424 -66.088 3.064 408.03
55.424 -64.503 3.024 306.95
55.424 -62.918 2.995 0.00
55.424 -61.334 2.983 0.00
55.424 -59.749 2.980 0.00
55.424 -58.164 2.979 0.00
55.424 -56.579 2.979 0.00
55.424 -54.995 2.991 0.00
56.324 -144.782 3.031 0.00
56.324 -143.160 3.045 134.46
56.324 -141.538 3.117 77.91
56.324 -139.916 3.298 143.83
56.324 -138.294 3.471 835.10
56.324 -136.672 3.436 520.50
56.324 -135.050 3.190 4.00
56.324 -133.428 3.054 1407.04
56.324 -131.806 3.030 2178.20
56.324 -130.184 2.923 2072.69
56.324 -128.563 2.922 2730.29
56.324 -126.941 3.024 2572.50
56.324 -125.319 3.029 3911.21
56.324 -123.697 2.878 2957.38
56.324 -122.075 2.842 3319.55
56.324 -120.453 2.878 4561.35
56.324 -118.831 2.936 4695.03
56.324 -117.209 2.996 3611.85
56.324 -115.587 3.021 4012.85
56.324 -113.965 3.058 7526.33
56.324 -112.343 3.118 10179.54
56.324 -110.722 3.145 14521.86
56.324 -109.100 3.117 10618.09
56.324 -107.478 3.141 9329.41
56.324 -105.856 3.165 5665.53
56.324 -104.234 3.143 7136.60
56.324 -102.612 3.155 5048.83
56.324 -100.990 3.211 6625.78
56.324 -99.368 3.191 5529.85
56.324 -97.746 3.168 4157.87
56.324 -96.124 3.169 1886.07
56.324 -94.502 3.165 2136.75
56.324 -92.881 3.134 3572.50
56.324 -91.259 3.103 1949.04
56.324 -89.637 3.054 1732.25
56.324 -88.015 3.003 2203.77
56.324 -86.393 3.019 2298.71
56.324 -84.771 3.021 1518.35
56.324 -83.149 3.045 1615.38
56.324 -81.527 3.080 1555.39
56.324 -79.905 3.086 1977.15
56.324 -78.283 3.070 1295.72
56.324 -76.661 3.065 485.47
56.324 -75.040 3.063 853.19
56.324 -73.418 3.055 1130.78
56.324 -71.796 3.059 228.78
56.324 -70.174 3.068 552.43
56.324 -68.552 3.069 529.50
56.324 -66.930 3.061 401.61
56.324 -65.308 3.030 244.87
56.324 -63.686 2.993 15.49
56.324 -62.064 2.972 76.74
56.324 -60.442 2.969 66.94
56.324 -58.820 2.975 0.00
56.324 -57.199 2.978 0.00
56.324 -55.577 2.982 0.00
56.324 -53.955 3.003 0.00
57.223 -145.883 3.063 26.76
57.223 -144.222 3.081 193.17
57.223 -142.561 3.173 22.97
57.223 -140.899 3.370 247.71
57.223 -139.238 3.494 977.98
57.223 -137.577 3.353 279.74
57.223 -135.916 3.112 560.46
57.223 -134.254 3.032 1093.31
57.223 -132.593 3.030 2247.52
57.223 -130.932 2.932 2375.04
57.223 -129.271 2.985 2766.30
57.223 -127.609 3.127 3324.34
57.223 -125.948 3.050 3290.06
57.223 -124.287 2.868 3336.49
57.223 -122.626 2.831 3025.05
57.223 -120.964 2.874 3364.09
57.223 -119.303 2.941 2927.79
57.223 -117.642 3.008 3239.44
57.223 -115.981 3.008 4977.26
57.223 -114.319 3.083 9277.56
57.223 -112.658 3.157 14173.25
57.223 -110.997 3.192 13571.06
57.223 -109.336 3.121 9602.05
57.223 -107.674 3.065 7097.89
57.223 -106.013 3.076 5872.20
57.223 -104.352 3.106 5638.21
57.223 -102.691 3.119 6375.29
57.223 -101.029 3.224 4465.34
57.223 -99.368 3.238 4040.60
57.223 -97.707 3.175 6104.58
57.223 -96.046 3.196 3395.57
57.223 -94.384 3.196 2982.02
57.223 -92.723 3.157 2678.31
57.223 -91.062 3.135 1588.39
57.223 -89.401 3.091 2198.72
57.223 -87.739 3.038 2136.78
57.223 -86.078 3.031 1742.27
57.223 -84.417 3.019 1982.92
57.223 -82.756 3.046 1529.48
57.223 -81.094 3.079 1678.30
57.223 -79.433 3.082 1490.50
57.223 -77.772 3.070 907.05
57.223 -76.111 3.066 657.34
57.223 -74.449 3.070 1139.86
57.223 -72.788 3.073 948.99
57.223 -71.127 3.069 519.49
57.223 -69.466 3.060 219.81
57.223 -67.805 3.053 574.43
57.223 -66.143 3.030 199.81
57.223 -64.482 3.001 49.95
57.223 -62.821 2.981 0.00
57.223 -61.160 2.974 6.69
57.223 -59.498 2.974 17.59
57.223 -57.837 2.972 78.64
57.223 -56.176 2.973 71.72
57.223 -54.515 2.982 101.60
57.223 -52.853 3.014 5.77
58.122 -147.051 3.100 194.53
58.122 -145.348 3.114 34.96
58.122 -143.645 3.251 151.82
58.122 -141.942 3.442 458.49
58.122 -140.239 3.487 918.09
58.122 -138.537 3.248 39.96
58.122 -136.834 3.048 148.86
58.122 -135.131 3.031 1564.81
58.122 -133.428 3.039 3184.03
58.122 -131.725 2.961 2718.21
58.122 -130.022 3.025 4022.65
58.122 -128.319 3.183 2894.72
58.122 -126.616 3.059 3128.82
58.122 -124.913 2.920 3288.03
58.122 -123.210 2.860 3166.21
58.122 -121.507 2.854 3796.49
58.122 -119.804 2.881 2486.58
58.122 -118.101 2.942 4307.64
58.122 -116.398 2.986 8297.12
58.122 -114.695 3.059 14378.43
58.122 -112.992 3.123 14575.57
58.122 -111.289 3.153 11829.91
58.122 -109.586 3.076 6603.29
58.122 -107.883 3.003 6289.83
58.122 -106.180 2.999 5192.88
58.122 -104.477 3.088 4647.21
58.122 -102.774 3.148 5884.95
58.122 -101.071 3.175 3587.25
58.122 -99.368 3.208 4564.17
58.122 -97.665 3.171 6521.89
58.122 -95.962 3.167 4271.03
58.122 -94.259 3.166 3101.05
58.122 -92.556 3.144 1655.44
58.122 -90.853 3.140 1944.96
58.122 -89.150 3.093 1454.48
58.122 -87.447 3.037 2177.73
58.122 -85.744 3.031 1837.19
58.122 -84.041 3.028 2315.66
58.122 -82.339 3.051 1798.18
58.122 -80.636 3.083 1144.82
58.122 -78.933 3.094 1235.72
58.122 -77.230 3.074 812.17
58.122 -75.527 3.071 1173.86
58.122 -73.824 3.069 1343.55
58.122 -72.121 3.070 389.65
58.122 -70.418 3.061 426.58
58.122 -68.715 3.045 270.73
58.122 -67.012 3.027 345.65
58.122 -65.309 3.005 132.87
58.122 -63.606 2.986 0.00
58.122 -61.903 2.980 0.00
58.122 -60.200 2.981 0.00
58.122 -58.497 2.981 0.00
58.122 -56.794 2.978 5.89
58.122 -55.091 2.972 16.69
58.122 -53.388 2.976 81.03
58.122 -51.685 3.022 170.77
59.022 -148.292 3.131 275.63
59.022 -146.545 3.150 18.61
59.022 -144.798 3.317 202.76
59.022 -143.050 3.489 955.99
59.022 -141.303 3.425 426.60
59.022 -139.556 3.152 0.00
59.022 -137.808 3.004 181.48
59.022 -136.061 3.026 3860.74
59.022 -134.314 3.039 5424.62
59.022 -132.567 2.975 2918.65
59.022 -130.819 3.028 4594.24
59.022 -129.072 3.174 3393.14
59.022 -127.325 3.050 3797.30
59.022 -125.577 2.976 4227.76
59.022 -123.830 2.928 3720.84
59.022 -122.083 2.869 3462.22
59.022 -120.336 2.853 2854.81
59.022 -118.588 2.894 6066.78
59.022 -116.841 2.982 13408.23
59.022 -115.094 2.987 18233.18
59.022 -113.346 3.035 12558.55
59.022 -111.599 3.094 7563.81
59.022 -109.852 3.086 4821.67
59.022 -108.105 3.029 5188.56
59.022 -106.357 3.018 3786.98
59.022 -104.610 3.110 4784.04
59.022 -102.863 3.166 5453.53
59.022 -101.115 3.111 4508.32
59.022 -99.368 3.138 5511.24
59.022 -97.621 3.145 4107.76
59.022 -95.874 3.080 5733.17
59.022 -94.126 3.099 3009.52
59.022 -92.379 3.113 1300.69
59.022 -90.632 3.097 1104.84
59.022 -88.884 3.047 1358.61
59.022 -87.137 3.021 2874.09
59.022 -85.390 3.049 2075.89
59.022 -83.643 3.067 2395.56
59.022 -81.895 3.095 1588.37
59.022 -80.148 3.121 857.14
59.022 -78.401 3.112 1435.52
59.022 -76.654 3.072 1104.88
59.022 -74.906 3.051 778.24
59.022 -73.159 3.049 1170.79
59.022 -71.412 3.059 546.44
59.022 -69.664 3.043 116.88
59.022 -67.917 3.024 284.71
59.022 -66.170 3.007 214.65
59.022 -64.423 2.991 16.98
59.022 -62.675 2.981 0.00
59.022 -60.928 2.981 0.00
59.022 -59.181 2.983 0.00
59.022 -57.433 2.983 0.00
59.022 -55.686 2.980 0.00
59.022 -53.939 2.978 0.00
59.022 -52.192 2.991 4.60
59.022 -50.444 3.040 11.79
59.921 -149.612 3.133 695.43
59.921 -147.818 3.163 92.81
59.921 -146.023 3.341 318.20
59.921 -144.229 3.464 948.04
59.921 -142.434 3.314 244.77
59.921 -140.640 3.055 54.85
59.921 -138.845 2.967 1233.54
59.921 -137.051 3.020 3017.74
59.921 -135.257 3.039 4248.32
59.921 -133.462 3.005 3691.85
59.921 -131.668 3.049 3992.11
59.921 -129.873 3.154 3566.61
59.921 -128.079 3.032 3562.65
59.921 -126.284 2.976 4745.96
59.921 -124.490 2.934 5055.46
59.921 -122.696 2.885 3012.14
59.921 -120.901 2.864 2999.36
59.921 -119.107 2.934 10966.80
59.921 -117.312 2.976 20603.65
59.921 -115.518 2.974 13729.83
59.921 -113.724 2.993 7564.36
59.921 -111.929 3.061 6129.74
59.921 -110.135 3.089 5056.46
59.921 -108.340 3.106 3730.22
59.921 -106.546 3.082 3663.90
59.921 -104.751 3.101 5588.92
59.921 -102.957 3.126 5411.19
59.921 -101.163 3.084 5828.10
59.921 -99.368 3.085 3644.21
59.921 -97.574 3.125 4731.05
59.921 -95.779 3.094 5550.21
59.921 -93.985 3.069 2572.93
59.921 -92.191 3.086 1165.59
59.921 -90.396 3.064 1296.67
59.921 -88.602 3.014 1190.81
59.921 -86.807 3.003 2502.42
59.921 -85.013 3.064 2470.55
59.921 -83.218 3.116 2828.10
59.921 -81.424 3.160 1494.42
59.921 -79.630 3.158 1178.76
59.921 -77.835 3.093 1203.81
59.921 -76.041 3.042 737.27
59.921 -74.246 3.028 1278.72
59.921 -72.452 3.035 683.30
59.921 -70.657 3.047 303.66
59.921 -68.863 3.030 166.83
59.921 -67.069 3.010 249.75
59.921 -65.274 2.995 84.92
59.921 -63.480 2.985 0.00
59.921 -61.685 2.981 0.00
59.921 -59.891 2.982 0.00
59.921 -58.097 2.983 0.00
59.921 -56.302 2.983 0.00
59.921 -54.508 2.982 0.00
59.921 -52.713 2.985 0.00
59.921 -50.919 3.005 0.00
59.921 -49.124 3.059 160.88
60.820 -151.018 3.108 51.84
60.820 -149.173 3.150 911.80
60.820 -147.329 3.323 963.41
60.820 -145.484 3.383 1686.19
60.820 -143.639 3.187 548.59
60.820 -141.795 2.984 219.02
60.820 -139.950 2.944 1106.98
60.820 -138.106 3.000 1713.67
60.820 -136.261 3.025 3016.89
60.820 -134.416 3.024 4549.09
60.820 -132.572 3.051 4382.99
60.820 -130.727 3.114 3052.14
60.820 -128.882 3.021 2899.45
60.820 -127.038 2.972 5018.23
60.820 -125.193 2.970 4804.59
60.820 -123.348 2.908 2609.34
60.820 -121.504 2.880 7078.98
60.820 -119.659 2.965 22915.25
60.820 -117.815 2.982 16421.98
60.820 -115.970 2.971 7291.52
60.820 -114.125 2.987 7138.86
60.820 -112.281 3.023 4884.48
60.820 -110.436 3.101 4336.53
60.820 -108.591 3.152 4594.39
60.820 -106.747 3.109 5326.49
60.820 -104.902 3.053 4439.47
60.820 -103.057 3.039 3300.56
60.820 -101.213 3.053 5414.24
60.820 -99.368 3.076 4063.59
60.820 -97.524 3.160 4331.16
60.820 -95.679 3.163 3749.78
60.820 -93.834 3.085 5490.72
60.820 -91.990 3.089 1192.23
60.820 -90.145 3.064 1195.83
60.820 -88.300 3.010 1173.82
60.820 -86.456 2.994 2764.18
60.820 -84.611 3.062 3321.68
60.820 -82.766 3.125 2432.47
60.820 -80.922 3.165 637.37
60.820 -79.077 3.148 1364.97
60.820 -77.233 3.065 1198.83
60.820 -75.388 3.018 1007.02
60.820 -73.543 3.010 1101.83
60.820 -71.699 3.026 299.68
60.820 -69.854 3.038 207.76
60.820 -68.009 3.022 326.67
60.820 -66.165 3.002 175.83
60.820 -64.320 2.989 0.00
60.820 -62.475 2.982 0.00
60.820 -60.631 2.982 0.00
60.820 -58.786 2.983 0.00
60.820 -56.942 2.983 0.00
60.820 -55.097 2.983 0.00
60.820 -53.252 2.981 0.00
60.820 -51.408 2.982 0.00
60.820 -49.563 2.993 0.00
60.820 -47.718 3.026 0.00
61.720 -152.518 3.072 0.00
61.720 -150.620 3.117 422.50
61.720 -148.722 3.279 2341.98
61.720 -146.824 3.293 1892.90
61.720 -144.926 3.102 2111.16
61.720 -143.027 2.964 1428.04
61.720 -141.129 2.940 1228.10
61.720 -139.231 2.955 1728.95
61.720 -137.333 2.973 3097.93
61.720 -135.434 2.989 5376.41
61.720 -133.536 3.006 4536.27
61.720 -131.638 3.048 4290.63
61.720 -129.740 3.019 2877.51
61.720 -127.842 2.983 5351.86
61.720 -125.943 3.003 4112.98
61.720 -124.045 2.929 3983.37
61.720 -122.147 2.946 25982.36
61.720 -120.249 2.961 20825.91
61.720 -118.350 2.972 6951.90
61.720 -116.452 2.996 5103.17
61.720 -114.554 3.004 5528.75
61.720 -112.656 3.047 5565.25
61.720 -110.758 3.120 5755.18
61.720 -108.859 3.170 4815.06
61.720 -106.961 3.141 3842.14
61.720 -105.063 3.031 2945.34
61.720 -103.165 2.974 3280.59
61.720 -101.266 3.028 3358.61
61.720 -99.368 3.084 5331.58
61.720 -97.470 3.177 4345.65
61.720 -95.572 3.197 3774.17
61.720 -93.674 3.120 5159.77
61.720 -91.775 3.096 3030.29
61.720 -89.877 3.080 1269.74
61.720 -87.979 3.026 1740.25
61.720 -86.081 2.996 3309.65
61.720 -84.182 3.039 3048.93
61.720 -82.284 3.102 1386.57
61.720 -80.386 3.137 881.11
61.720 -78.488 3.108 1681.35
61.720 -76.590 3.037 960.02
61.720 -74.691 3.003 853.14
61.720 -72.793 3.008 817.12
61.720 -70.895 3.033 295.79
61.720 -68.997 3.032 289.69
61.720 -67.098 3.011 241.76
61.720 -65.200 2.994 42.96
61.720 -63.302 2.984 0.00
61.720 -61.404 2.981 0.00
61.720 -59.505 2.982 0.00
61.720 -57.607 2.983 0.00
61.720 -55.709 2.983 0.00
61.720 -53.811 2.983 0.00
61.720 -51.913 2.982 0.00
61.720 -50.014 2.980 0.00
61.720 -48.116 2.981 0.00
61.720 -46.218 2.993 0.00
62.619 -154.123 3.013 58.67
62.619 -152.167 3.035 355.54
62.619 -150.212 3.135 444.07
62.619 -148.256 3.152 1517.77
62.619 -146.301 3.066 1874.37
62.619 -144.345 2.988 3059.88
62.619 -142.390 2.954 2216.89
62.619 -140.434 2.926 2666.64
62.619 -138.479 2.923 5059.72
62.619 -136.523 2.940 5640.79
62.619 -134.567 3.000 4390.01
62.619 -132.612 3.025 3884.90
62.619 -130.656 2.999 4758.03
62.619 -128.701 2.901 5099.17
62.619 -126.745 2.905 4409.37
62.619 -124.790 2.921 28076.55
62.619 -122.834 2.967 27882.18
62.619 -120.879 2.989 7227.21
62.619 -118.923 3.013 4861.44
62.619 -116.968 3.032 5497.45
62.619 -115.012 3.051 6464.83
62.619 -113.057 3.073 4938.95
62.619 -111.101 3.124 5180.70
62.619 -109.146 3.178 5116.07
62.619 -107.190 3.171 3617.76
62.619 -105.235 3.068 2879.15
62.619 -103.279 2.987 2562.42
62.619 -101.324 2.992 2534.39
62.619 -99.368 3.051 3966.01
62.619 -97.413 3.110 3294.74
62.619 -95.457 3.174 4747.20
62.619 -93.502 3.127 3674.31
62.619 -91.546 3.072 6963.96
62.619 -89.591 3.076 1427.23
62.619 -87.635 3.046 2564.40
62.619 -85.680 3.036 3705.31
62.619 -83.724 3.056 2055.93
62.619 -81.769 3.089 1403.60
62.619 -79.813 3.099 847.17
62.619 -77.858 3.063 1321.65
62.619 -75.902 3.015 938.02
62.619 -73.946 3.009 1273.69
62.619 -71.991 3.035 356.62
62.619 -70.035 3.055 260.70
62.619 -68.080 3.033 335.66
62.619 -66.124 3.003 141.86
62.619 -64.169 2.986 0.00
62.619 -62.213 2.981 0.00
62.619 -60.258 2.982 0.00
62.619 -58.302 2.983 0.00
62.619 -56.347 2.983 0.00
62.619 -54.391 2.983 0.00
62.619 -52.436 2.983 0.00
62.619 -50.480 2.984 0.00
62.619 -48.525 2.982 0.00
62.619 -46.569 2.980 0.00
62.619 -44.614 2.979 0.00
63.518 -155.841 2.974 38.96
63.518 -153.824 2.972 95.91
63.518 -151.807 2.987 1321.16
63.518 -149.790 2.971 2945.83
63.518 -147.773 2.965 3600.49
63.518 -145.757 2.979 3524.48
63.518 -143.740 2.964 3739.12
63.518 -141.723 2.946 3292.92
63.518 -139.706 2.955 4827.72
63.518 -137.689 2.983 6282.74
63.518 -135.672 3.043 4943.11
63.518 -133.655 3.041 6315.05
63.518 -131.638 3.000 7075.71
63.518 -129.622 2.796 7206.07
63.518 -127.605 2.772 7444.84
63.518 -125.588 2.857 33393.21
63.518 -123.571 2.943 8553.33
63.518 -121.554 3.002 5734.40
63.518 -119.537 3.038 5252.52
63.518 -117.520 3.054 4954.97
63.518 -115.503 3.064 3886.03
63.518 -113.486 3.086 3072.95
63.518 -111.470 3.148 4217.31
63.518 -109.453 3.177 4984.20
63.518 -107.436 3.155 2888.17
63.518 -105.419 3.081 2232.85
63.518 -103.402 2.999 2263.68
63.518 -101.385 2.959 2253.63
63.518 -99.368 2.991 2432.56
63.518 -97.351 3.023 3702.28
63.518 -95.334 3.106 3978.04
63.518 -93.318 3.094 3586.47
63.518 -91.301 3.027 6408.00
63.518 -89.284 3.034 5323.07
63.518 -87.267 3.067 4583.40
63.518 -85.250 3.100 3176.81
63.518 -83.233 3.098 1721.38
63.518 -81.216 3.084 1359.59
63.518 -79.199 3.060 764.23
63.518 -77.182 3.030 1367.58
63.518 -75.166 3.010 937.06
63.518 -73.149 3.034 1104.84
63.518 -71.132 3.077 574.45
63.518 -69.115 3.077 662.88
63.518 -67.098 3.031 244.76
63.518 -65.081 2.995 3.00
63.518 -63.064 2.982 0.00
63.518 -61.047 2.981 0.00
63.518 -59.030 2.982 0.00
63.518 -57.014 2.983 0.00
63.518 -54.997 2.983 0.00
63.518 -52.980 2.983 0.00
63.518 -50.963 2.983 0.00
63.518 -48.946 2.983 0.00
63.518 -46.929 2.981 0.00
63.518 -44.912 2.976 0.00
63.518 -42.895 2.974 0.00
64.418 -157.686 2.970 0.00
64.418 -155.603 2.967 0.00
64.418 -153.520 2.948 84.95
64.418 -151.437 2.914 1374.12
64.418 -149.355 2.905 3186.56
64.418 -147.272 2.931 4184.77
64.418 -145.189 2.951 4767.28
64.418 -143.106 2.957 4227.29
64.418 -141.023 2.986 4833.97
64.418 -138.941 3.046 8761.88
64.418 -136.858 3.054 5879.66
64.418 -134.775 3.078 7441.71
64.418 -132.692 3.084 6634.50
64.418 -130.610 2.870 6944.02
64.418 -128.527 2.807 9471.92
64.418 -126.444 2.834 7886.07
64.418 -124.361 2.911 5931.58
64.418 -122.279 2.972 5550.65
64.418 -120.196 2.985 4458.63
64.418 -118.113 3.002 2945.60
64.418 -116.030 3.045 3234.93
64.418 -113.948 3.108 2693.39
64.418 -111.865 3.174 3234.10
64.418 -109.782 3.174 3861.80
64.418 -107.699 3.132 2396.50
64.418 -105.616 3.093 2183.80
64.418 -103.534 3.018 2478.70
64.418 -101.451 2.944 2766.32
64.418 -99.368 2.925 2537.53
64.418 -97.285 2.967 4111.96
64.418 -95.203 3.043 2955.85
64.418 -93.120 3.109 3783.34
64.418 -91.037 3.035 3249.95
64.418 -88.954 2.995 10941.67
64.418 -86.872 3.097 8836.19
64.418 -84.789 3.124 1882.23
64.418 -82.706 3.087 1324.76
64.418 -80.623 3.048 1285.76
64.418 -78.541 3.028 889.15
64.418 -76.458 3.009 1174.89
64.418 -74.375 3.015 1290.78
64.418 -72.292 3.058 941.12
64.418 -70.210 3.089 504.54
64.418 -68.127 3.061 571.43
64.418 -66.044 3.015 110.25
64.418 -63.961 2.986 0.00
64.418 -61.878 2.979 0.00
64.418 -59.796 2.981 0.00
64.418 -57.713 2.983 0.00
64.418 -55.630 2.983 0.00
64.418 -53.547 2.983 0.00
64.418 -51.465 2.983 0.00
64.418 -49.382 2.983 0.00
64.418 -47.299 2.982 0.00
64.418 -45.216 2.976 5.13
64.418 -43.134 2.964 209.38
64.418 -41.051 2.962 8.67
65.317 -159.670 2.961 0.00
65.317 -157.516 2.963 0.00
65.317 -155.363 2.955 0.00
65.317 -153.209 2.932 14.00
65.317 -151.055 2.920 613.87
65.317 -148.902 2.921 1508.46
65.317 -146.748 2.922 3502.22
65.317 -144.595 2.935 6135.57
65.317 -142.441 2.952 5073.65
65.317 -140.287 2.963 8617.99
65.317 -138.134 2.913 4304.19
65.317 -135.980 2.933 3179.77
65.317 -133.826 2.997 6871.69
65.317 -131.673 2.881 5033.61
65.317 -129.519 2.825 5848.42
65.317 -127.365 2.839 3396.29
65.317 -125.212 2.889 3008.69
65.317 -123.058 2.937 3454.38
65.317 -120.905 2.955 3438.01
65.317 -118.751 2.981 3275.93
65.317 -116.597 3.051 2097.11
65.317 -114.444 3.119 2511.92
65.317 -112.290 3.176 3316.98
65.317 -110.136 3.175 2175.94
65.317 -107.983 3.157 2061.86
65.317 -105.829 3.153 2276.68
65.317 -103.675 3.126 1827.19
65.317 -101.522 3.045 2042.02
65.317 -99.368 2.963 2632.26
65.317 -97.215 2.966 2735.20
65.317 -95.061 3.015 3582.28
65.317 -92.907 3.139 4317.56
65.317 -90.754 3.133 3198.12
65.317 -88.600 3.096 2778.12
65.317 -86.446 3.132 1430.58
65.317 -84.293 3.127 1065.93
65.317 -82.139 3.064 1209.76
65.317 -79.985 3.031 1166.79
65.317 -77.832 3.035 1190.77
65.317 -75.678 3.020 1303.67
65.317 -73.525 3.029 1463.50
65.317 -71.371 3.063 505.47
65.317 -69.217 3.066 462.53
65.317 -67.064 3.030 191.81
65.317 -64.910 2.997 21.32
65.317 -62.756 2.982 0.00
65.317 -60.603 2.981 0.00
65.317 -58.449 2.983 0.00
65.317 -56.295 2.983 0.00
65.317 -54.142 2.983 0.00
65.317 -51.988 2.983 0.00
65.317 -49.835 2.983 0.00
65.317 -47.681 2.983 0.00
65.317 -45.527 2.983 0.00
65.317 -43.374 2.977 0.00
65.317 -41.220 2.966 27.94
65.317 -39.066 2.953 232.40
66.216 -161.810 2.939 442.99
66.216 -159.580 2.942 197.18
66.216 -157.350 2.953 201.66
66.216 -155.120 2.951 207.38
66.216 -152.890 2.940 164.12
66.216 -150.660 2.922 536.77
66.216 -148.430 2.903 1180.52
66.216 -146.200 2.891 772.72
66.216 -143.970 2.884 4402.62
66.216 -141.740 2.845 12978.63
66.216 -139.510 2.788 6860.08
66.216 -137.279 2.847 6540.23
66.216 -135.049 2.960 8949.06
66.216 -132.819 2.913 5521.10
66.216 -130.589 2.879 5224.11
66.216 -128.359 2.894 4307.16
66.216 -126.129 2.941 4215.57
66.216 -123.899 2.967 3084.96
66.216 -121.669 2.981 2893.52
66.216 -119.439 3.018 3147.42
66.216 -117.209 3.061 3218.27
66.216 -114.979 3.112 2230.40
66.216 -112.749 3.168 1907.23
66.216 -110.519 3.183 1402.70
66.216 -108.288 3.181 1849.17
66.216 -106.058 3.193 2269.69
66.216 -103.828 3.181 2287.61
66.216 -101.598 3.123 2239.74
66.216 -99.368 3.038 2553.38
66.216 -97.138 2.984 3271.54
66.216 -94.908 3.005 4830.84
66.216 -92.678 3.095 4097.87
66.216 -90.448 3.140 2596.83
66.216 -88.218 3.116 1286.37
66.216 -85.988 3.122 1042.49
