33.839 -123.189 3.046 0.00
33.839 -122.107 3.060 0.00
33.839 -121.024 3.045 0.00
33.839 -119.941 3.001 488.70
33.839 -118.858 3.001 2386.23
33.839 -117.775 3.019 29084.87
33.839 -116.693 3.083 41122.04
33.839 -115.610 3.151 71672.18
33.839 -114.527 3.258 90350.56
33.839 -113.444 3.249 88954.15
33.839 -112.362 3.181 83903.26
33.839 -111.279 3.005 81348.05
33.839 -110.196 3.061 72824.25
33.839 -109.113 2.931 65184.95
33.839 -108.030 2.878 60141.51
33.839 -106.948 2.894 54352.80
33.839 -105.865 3.003 47696.85
33.839 -104.782 3.008 41476.76
33.839 -103.699 2.958 54158.03
33.839 -102.617 2.949 67532.00
33.839 -101.534 3.006 71220.50
33.839 -100.451 3.034 77387.04
33.839 -99.368 2.996 81364.00
33.839 -98.285 2.952 85115.67
33.839 -97.203 2.989 92022.27
33.839 -96.120 2.890 81857.00
33.839 -95.037 2.892 81471.21
33.839 -93.954 2.891 73387.40
33.839 -92.872 2.960 59284.43
33.839 -91.789 2.976 63734.16
33.839 -90.706 3.012 51037.56
33.839 -89.623 3.054 50007.22
33.839 -88.540 3.081 44655.36
33.839 -87.458 3.090 47603.32
33.839 -86.375 3.091 48189.89
33.839 -85.292 3.200 58247.77
33.839 -84.209 3.185 49426.21
33.839 -83.126 3.135 47038.73
33.839 -82.044 3.140 45985.10
33.839 -80.961 3.137 27427.75
33.839 -79.878 3.113 41175.75
33.839 -78.795 3.092 16295.72
33.839 -77.713 3.065 1559.74
33.839 -76.630 3.083 111.93
33.839 -75.547 3.180 119.86
33.839 -74.464 3.203 180.79
33.839 -73.381 3.099 27.45
33.839 -72.299 3.042 0.00
33.839 -71.216 3.037 0.00
33.839 -70.133 3.041 1.48
33.839 -69.050 3.042 2.84
34.739 -130.012 3.041 1.51
34.739 -128.918 3.041 0.00
34.739 -127.823 3.041 0.00
34.739 -126.729 3.041 0.00
34.739 -125.635 3.041 0.00
34.739 -124.540 3.044 0.00
34.739 -123.446 3.055 0.00
34.739 -122.351 3.040 0.00
34.739 -121.257 2.963 0.00
34.739 -120.162 2.898 689.32
34.739 -119.068 2.902 6672.38
34.739 -117.974 2.920 30123.79
34.739 -116.879 2.995 45588.13
34.739 -115.785 3.060 63328.48
34.739 -114.690 3.169 73736.52
34.739 -113.596 3.208 63120.61
34.739 -112.501 3.039 62904.58
34.739 -111.407 3.000 73139.87
34.739 -110.313 3.035 72586.70
34.739 -109.218 2.967 63345.87
34.739 -108.124 2.892 61372.68
34.739 -107.029 2.861 58029.93
34.739 -105.935 2.990 49946.52
34.739 -104.840 3.021 48617.95
34.739 -103.746 2.970 64592.36
34.739 -102.651 2.939 82024.65
34.739 -101.557 2.929 81500.33
34.739 -100.463 2.999 87697.03
34.739 -99.368 2.978 102253.66
34.739 -98.274 2.926 107074.85
34.739 -97.179 2.984 101699.05
34.739 -96.085 2.955 108191.38
34.739 -94.990 2.900 116330.28
34.739 -93.896 2.917 91297.57
34.739 -92.802 2.995 76981.93
34.739 -91.707 3.050 68033.97
34.739 -90.613 3.090 73084.80
34.739 -89.518 3.180 66254.92
34.739 -88.424 3.197 72394.50
34.739 -87.329 3.213 45562.38
34.739 -86.235 3.160 51622.45
34.739 -85.141 3.153 53239.77
34.739 -84.046 3.131 50258.27
34.739 -82.952 3.088 53261.62
34.739 -81.857 3.088 46261.88
34.739 -80.763 3.082 42640.86
34.739 -79.668 3.139 34081.98
34.739 -78.574 3.083 22850.44
34.739 -77.480 3.046 8171.43
34.739 -76.385 3.073 405.77
34.739 -75.291 3.189 223.74
34.739 -74.196 3.165 70.92
34.739 -73.102 3.075 27.45
34.739 -72.007 3.038 0.00
34.739 -70.913 3.038 0.00
34.739 -69.818 3.041 0.00
34.739 -68.724 3.042 0.00
35.638 -130.353 3.042 4.11
35.638 -129.247 3.042 1.88
35.638 -128.140 3.041 0.00
35.638 -127.034 3.041 0.00
35.638 -125.927 3.042 0.00
35.638 -124.820 3.046 0.00
35.638 -123.714 3.042 0.00
35.638 -122.607 2.981 0.00
35.638 -121.500 2.882 1336.46
35.638 -120.394 2.839 10400.27
35.638 -119.287 2.946 16979.07
35.638 -118.181 2.999 24211.40
35.638 -117.074 3.032 36542.82
35.638 -115.967 3.140 61219.87
35.638 -114.861 3.066 62827.00
35.638 -113.754 3.107 72069.73
35.638 -112.648 3.090 68579.51
35.638 -111.541 3.035 73345.47
35.638 -110.434 3.091 64908.09
35.638 -109.328 3.146 57246.77
35.638 -108.221 3.051 57087.21
35.638 -107.115 2.905 59436.14
35.638 -106.008 2.895 52223.91
35.638 -104.901 2.954 52240.36
35.638 -103.795 3.017 66913.54
35.638 -102.688 3.010 86196.66
35.638 -101.581 2.967 91229.32
35.638 -100.475 2.925 107457.68
35.638 -99.368 2.874 120424.58
35.638 -98.262 2.881 129368.08
35.638 -97.155 2.880 196206.39
35.638 -96.048 3.004 154929.92
35.638 -94.942 3.086 113317.82
35.638 -93.835 3.079 96889.48
35.638 -92.729 3.080 121055.98
35.638 -91.622 3.115 92411.20
35.638 -90.515 3.108 97087.90
35.638 -89.409 3.152 92227.88
35.638 -88.302 3.165 74438.52
35.638 -87.195 3.207 51306.53
35.638 -86.089 3.191 54382.56
35.638 -84.982 3.151 55789.50
35.638 -83.876 3.096 56760.02
35.638 -82.769 3.035 60512.95
35.638 -81.662 3.046 50645.32
35.638 -80.556 3.106 57730.34
35.638 -79.449 3.170 37189.01
35.638 -78.343 3.069 38703.48
35.638 -77.236 3.021 14640.28
35.638 -76.129 3.051 9739.77
35.638 -75.023 3.186 199.76
35.638 -73.916 3.133 7.61
35.638 -72.809 3.053 19.57
35.638 -71.703 3.033 0.00
35.638 -70.596 3.039 0.00
35.638 -69.490 3.042 0.00
35.638 -68.383 3.041 0.00
36.538 -130.710 3.041 0.00
36.538 -129.591 3.041 0.96
36.538 -128.471 3.042 2.84
36.538 -127.352 3.042 2.49
36.538 -126.233 3.042 0.00
36.538 -125.113 3.040 0.00
36.538 -123.994 3.031 0.00
36.538 -122.875 2.984 1.75
36.538 -121.755 2.937 2489.19
36.538 -120.636 2.981 39653.82
36.538 -119.516 3.150 47068.00
36.538 -118.397 3.095 51143.44
36.538 -117.278 2.977 61028.80
36.538 -116.158 3.040 73384.37
36.538 -115.039 2.997 74371.29
36.538 -113.920 3.027 87763.90
36.538 -112.800 3.124 74674.62
36.538 -111.681 3.067 63035.02
36.538 -110.562 3.049 58109.59
36.538 -109.442 3.175 52271.24
36.538 -108.323 3.150 55451.34
36.538 -107.204 3.024 58654.21
36.538 -106.084 2.924 56490.29
36.538 -104.965 2.947 60093.57
36.538 -103.846 3.002 77305.25
36.538 -102.726 2.956 97602.48
36.538 -101.607 2.926 107548.13
36.538 -100.488 2.958 113668.18
36.538 -99.368 2.934 128522.03
36.538 -98.249 2.981 127444.92
36.538 -97.130 2.964 129920.06
36.538 -96.010 2.994 148562.80
36.538 -94.891 3.078 138134.78
36.538 -93.771 3.028 133768.69
36.538 -92.652 3.047 123096.41
36.538 -91.533 3.138 103967.88
36.538 -90.413 3.171 112141.70
36.538 -89.294 3.193 104567.68
36.538 -88.175 3.192 76200.96
36.538 -87.055 3.156 56800.86
36.538 -85.936 3.145 49632.89
36.538 -84.817 3.100 59262.36
36.538 -83.697 3.094 64392.78
36.538 -82.578 3.092 61144.54
36.538 -81.459 3.102 57952.43
36.538 -80.339 3.127 47846.22
36.538 -79.220 3.194 47016.14
36.538 -78.101 3.091 35851.30
36.538 -76.981 3.006 23344.87
36.538 -75.862 3.061 1749.32
36.538 -74.743 3.187 204.17
36.538 -73.623 3.123 27.45
36.538 -72.504 3.047 0.00
36.538 -71.384 3.034 0.00
36.538 -70.265 3.040 0.00
36.538 -69.146 3.042 0.00
36.538 -68.026 3.041 0.00
37.437 -131.083 3.041 0.00
37.437 -129.950 3.041 0.00
37.437 -128.817 3.042 0.00
37.437 -127.685 3.040 0.32
37.437 -126.552 3.036 2.84
37.437 -125.419 3.041 2.84
37.437 -124.287 3.054 1.01
37.437 -123.154 3.048 5.09
37.437 -122.021 3.086 16325.53
37.437 -120.889 3.353 29351.65
37.437 -119.756 3.261 25208.02
37.437 -118.623 2.980 51329.57
37.437 -117.491 2.823 55642.23
37.437 -116.358 2.888 71702.05
37.437 -115.225 2.952 78767.44
37.437 -114.093 2.879 83861.25
37.437 -112.960 2.910 82014.77
37.437 -111.827 2.916 62617.31
37.437 -110.695 3.089 62382.34
37.437 -109.562 3.108 54983.26
37.437 -108.429 2.983 56815.05
37.437 -107.297 2.941 61582.26
37.437 -106.164 2.930 71932.95
37.437 -105.032 3.043 99384.48
37.437 -103.899 3.035 88618.85
37.437 -102.766 2.975 107852.87
37.437 -101.634 2.927 104594.68
37.437 -100.501 2.946 108566.27
37.437 -99.368 2.990 115672.56
37.437 -98.236 2.983 119575.09
37.437 -97.103 2.994 111974.18
37.437 -95.970 3.001 121620.27
37.437 -94.838 3.020 139380.92
37.437 -93.705 3.054 134996.92
37.437 -92.572 3.073 124115.12
37.437 -91.440 3.131 113164.98
37.437 -90.307 3.140 114290.59
37.437 -89.174 3.175 95406.89
37.437 -88.042 3.142 73827.26
37.437 -86.909 3.064 58993.59
37.437 -85.776 3.070 56218.24
37.437 -84.644 3.065 58793.41
37.437 -83.511 3.114 64867.52
37.437 -82.378 3.056 70256.30
37.437 -81.246 3.149 75437.61
37.437 -80.113 3.175 61251.14
37.437 -78.980 3.212 54325.13
37.437 -77.848 3.093 39582.41
37.437 -76.715 3.001 24991.46
37.437 -75.582 3.051 2369.41
37.437 -74.450 3.162 216.19
37.437 -73.317 3.107 27.45
37.437 -72.184 3.047 0.00
37.437 -71.052 3.037 0.00
37.437 -69.919 3.041 0.00
37.437 -68.786 3.041 0.00
37.437 -67.654 3.041 0.00
38.336 -131.472 3.041 0.00
38.336 -130.326 3.041 0.00
38.336 -129.179 3.040 0.00
38.336 -128.033 3.037 0.00
38.336 -126.886 3.045 0.00
38.336 -125.740 3.077 0.00
38.336 -124.593 3.087 7.94
38.336 -123.446 3.059 222.05
38.336 -122.300 3.113 9269.83
38.336 -121.153 3.498 26526.35
38.336 -120.007 3.274 26691.93
38.336 -118.860 2.936 53739.65
38.336 -117.713 2.771 64164.12
38.336 -116.567 2.789 70034.99
38.336 -115.420 2.950 69685.93
38.336 -114.274 2.880 80802.39
38.336 -113.127 2.887 85045.82
38.336 -111.981 2.810 79793.15
38.336 -110.834 2.995 66028.22
38.336 -109.687 3.072 55190.48
38.336 -108.541 2.933 55940.92
38.336 -107.394 2.870 62666.48
38.336 -106.248 2.908 64400.93
38.336 -105.101 2.948 45904.61
38.336 -103.955 2.989 45642.19
38.336 -102.808 3.010 66099.06
38.336 -101.661 2.964 68655.02
38.336 -100.515 2.955 80687.37
38.336 -99.368 3.001 92064.76
38.336 -98.222 3.015 104721.50
38.336 -97.075 3.018 96393.34
38.336 -95.928 3.017 99333.48
38.336 -94.782 3.035 104717.39
38.336 -93.635 3.069 118376.72
38.336 -92.489 3.079 114751.66
38.336 -91.342 3.109 129558.62
38.336 -90.196 3.134 110846.07
38.336 -89.049 3.147 100082.05
38.336 -87.902 3.130 79483.68
38.336 -86.756 3.015 65592.09
38.336 -85.609 3.022 63966.65
38.336 -84.463 3.077 65965.58
38.336 -83.316 3.117 69310.66
38.336 -82.170 3.042 80538.62
38.336 -81.023 3.065 81377.29
38.336 -79.876 3.209 82281.26
38.336 -78.730 3.295 75823.92
38.336 -77.583 3.123 44066.75
38.336 -76.437 3.014 20116.34
38.336 -75.290 3.052 5911.30
38.336 -74.143 3.118 276.31
38.336 -72.997 3.073 27.45
38.336 -71.850 3.038 0.00
38.336 -70.704 3.038 0.00
38.336 -69.557 3.041 0.00
38.336 -68.411 3.042 0.00
38.336 -67.264 3.041 0.00
39.236 -131.880 3.041 0.00
39.236 -130.719 3.041 0.00
39.236 -129.558 3.040 0.00
39.236 -128.397 3.046 0.00
39.236 -127.235 3.071 0.00
39.236 -126.074 3.058 4.94
39.236 -124.913 2.956 0.80
39.236 -123.752 2.851 525.07
39.236 -122.591 2.918 10028.89
39.236 -121.430 3.153 19507.08
39.236 -120.269 3.012 46599.91
39.236 -119.107 2.839 81925.63
39.236 -117.946 2.843 54042.81
39.236 -116.785 2.822 57526.14
39.236 -115.624 2.958 66455.26
39.236 -114.463 2.986 66634.88
39.236 -113.302 3.070 72883.73
39.236 -112.141 2.978 76719.88
39.236 -110.980 2.961 68899.79
39.236 -109.818 3.014 57911.59
39.236 -108.657 2.991 62797.97
39.236 -107.496 2.918 68147.54
39.236 -106.335 2.870 62876.26
39.236 -105.174 2.897 47429.59
39.236 -104.013 2.976 39858.64
39.236 -102.852 3.025 46377.00
39.236 -101.690 3.072 48571.53
39.236 -100.529 3.032 54360.94
39.236 -99.368 2.977 69679.27
39.236 -98.207 2.968 70222.96
39.236 -97.046 3.034 82462.09
39.236 -95.885 3.063 75857.90
39.236 -94.724 3.079 82725.48
39.236 -93.563 3.070 104137.83
39.236 -92.401 3.103 97338.73
39.236 -91.240 3.171 100921.51
39.236 -90.079 3.126 84303.24
39.236 -88.918 3.057 88515.09
39.236 -87.757 3.072 80953.08
39.236 -86.596 2.996 61236.48
39.236 -85.435 2.987 62120.93
39.236 -84.273 3.080 73280.15
39.236 -83.112 3.177 70391.85
39.236 -81.951 3.118 78817.21
39.236 -80.790 3.031 68788.75
39.236 -79.629 3.128 59155.73
39.236 -78.468 3.208 45384.20
39.236 -77.307 3.117 30482.02
39.236 -76.145 3.074 22707.87
39.236 -74.984 3.091 9738.50
39.236 -73.823 3.090 274.34
39.236 -72.662 3.053 27.45
39.236 -71.501 3.029 0.00
39.236 -70.340 3.035 0.00
39.236 -69.179 3.040 0.00
39.236 -68.018 3.042 0.00
39.236 -66.856 3.042 0.00
40.135 -132.306 3.041 0.00
40.135 -131.130 3.041 0.00
40.135 -129.954 3.044 0.00
40.135 -128.777 3.052 0.00
40.135 -127.601 3.033 3.87
40.135 -126.424 2.950 1.94
40.135 -125.248 2.811 0.00
40.135 -124.072 2.589 7935.86
40.135 -122.895 2.575 27843.92
40.135 -121.719 2.813 27160.26
40.135 -120.543 2.999 53777.04
40.135 -119.366 3.018 68454.30
40.135 -118.190 3.088 50210.12
40.135 -117.014 3.056 55223.75
40.135 -115.837 3.055 63670.00
40.135 -114.661 3.135 76932.14
40.135 -113.484 3.301 74781.13
40.135 -112.308 3.061 78734.78
40.135 -111.132 2.899 69261.85
40.135 -109.955 2.916 61989.81
40.135 -108.779 2.992 68186.28
40.135 -107.603 2.965 63675.60
40.135 -106.426 2.971 51018.54
40.135 -105.250 2.884 44286.21
40.135 -104.074 2.850 37298.93
40.135 -102.897 2.913 36443.39
40.135 -101.721 3.014 39591.25
40.135 -100.545 3.045 42623.08
40.135 -99.368 3.009 53166.81
40.135 -98.192 3.005 60890.81
40.135 -97.015 3.019 72527.09
40.135 -95.839 3.048 80235.42
40.135 -94.663 3.029 80641.84
40.135 -93.486 3.029 84057.40
40.135 -92.310 3.060 84184.17
40.135 -91.134 3.085 70244.81
40.135 -89.957 3.079 57035.88
40.135 -88.781 3.046 49129.64
40.135 -87.605 3.072 58585.95
40.135 -86.428 3.027 50391.97
40.135 -85.252 3.015 73485.85
40.135 -84.076 3.058 81287.29
40.135 -82.899 3.139 63861.94
40.135 -81.723 3.118 76637.40
40.135 -80.546 3.027 63118.31
40.135 -79.370 3.053 55871.02
40.135 -78.194 3.129 44706.05
40.135 -77.017 3.098 47212.84
40.135 -75.841 3.109 25702.57
40.135 -74.665 3.133 19432.19
40.135 -73.488 3.086 3494.36
40.135 -72.312 3.069 27.45
40.135 -71.136 3.038 0.00
40.135 -69.959 3.032 0.00
40.135 -68.783 3.038 0.00
40.135 -67.607 3.041 0.00
40.135 -66.430 3.042 0.00
41.034 -132.752 3.042 0.00
41.034 -131.560 3.043 0.00
41.034 -130.368 3.043 0.00
41.034 -129.175 3.027 2.89
41.034 -127.983 3.003 3.04
41.034 -126.791 3.029 0.00
41.034 -125.598 3.020 77.67
41.034 -124.406 2.745 46871.93
41.034 -123.214 2.592 38834.36
41.034 -122.022 2.785 35699.04
41.034 -120.829 2.898 36087.80
41.034 -119.637 2.886 48334.72
41.034 -118.445 2.917 50915.67
41.034 -117.252 2.992 45293.12
41.034 -116.060 2.990 49015.46
41.034 -114.868 3.124 106040.11
41.034 -113.676 3.410 76749.05
41.034 -112.483 3.184 72671.07
41.034 -111.291 2.892 71140.41
41.034 -110.099 2.780 80646.20
41.034 -108.906 2.847 60290.41
41.034 -107.714 2.928 53291.61
41.034 -106.522 3.069 41338.45
41.034 -105.330 2.989 36811.71
41.034 -104.137 2.847 33587.89
41.034 -102.945 2.884 30011.90
41.034 -101.753 2.976 32679.96
41.034 -100.560 3.016 40914.72
41.034 -99.368 2.964 51284.21
41.034 -98.176 2.985 59706.05
41.034 -96.984 3.041 73045.30
41.034 -95.791 3.039 79388.31
41.034 -94.599 3.029 79838.34
41.034 -93.407 3.060 77727.99
41.034 -92.215 3.068 70847.19
41.034 -91.022 3.063 57431.63
41.034 -89.830 3.092 56588.49
41.034 -88.638 3.074 47627.88
41.034 -87.445 3.100 45558.51
41.034 -86.253 3.057 49170.66
41.034 -85.061 3.066 68664.03
41.034 -83.869 3.129 57667.21
41.034 -82.676 3.148 57377.17
41.034 -81.484 3.099 52444.07
41.034 -80.292 3.129 55423.50
41.034 -79.099 3.099 53448.43
41.034 -77.907 3.129 50991.61
41.034 -76.715 3.081 47682.96
41.034 -75.523 3.080 46172.71
41.034 -74.330 3.098 29207.00
41.034 -73.138 3.119 20280.11
41.034 -71.946 3.121 2120.25
41.034 -70.753 3.077 895.01
41.034 -69.561 3.039 0.00
41.034 -68.369 3.032 0.00
41.034 -67.177 3.038 0.00
41.034 -65.984 3.042 0.00
41.934 -133.219 3.042 0.00
41.934 -132.010 3.042 0.00
41.934 -130.801 3.034 2.05
41.934 -129.592 3.014 3.99
41.934 -128.383 3.067 0.00
41.934 -127.174 3.367 6.74
41.934 -125.965 3.829 572.62
41.934 -124.756 3.570 14472.99
41.934 -123.547 2.896 21441.37
41.934 -122.338 2.749 21703.62
41.934 -121.129 2.857 25905.46
41.934 -119.920 2.903 38542.49
41.934 -118.711 2.907 43056.81
41.934 -117.502 2.980 50372.89
41.934 -116.293 2.986 56761.98
41.934 -115.085 3.006 68862.77
41.934 -113.876 3.215 65731.51
41.934 -112.667 3.251 64205.57
41.934 -111.458 2.951 86483.04
41.934 -110.249 2.769 81123.32
41.934 -109.040 2.802 64066.91
41.934 -107.831 2.837 47240.60
41.934 -106.622 3.056 39982.61
41.934 -105.413 3.073 34676.15
41.934 -104.204 2.944 29548.85
41.934 -102.995 2.899 27620.14
41.934 -101.786 2.914 29159.68
41.934 -100.577 2.938 36525.26
41.934 -99.368 2.977 52296.96
41.934 -98.159 3.034 56811.93
41.934 -96.950 3.074 70325.77
41.934 -95.741 2.986 79564.29
41.934 -94.532 2.989 73680.81
41.934 -93.323 3.044 68232.01
41.934 -92.115 3.087 56608.30
41.934 -90.906 3.074 67563.39
41.934 -89.697 3.040 50241.38
41.934 -88.488 3.103 52050.35
41.934 -87.279 3.161 54316.06
41.934 -86.070 3.142 54338.87
41.934 -84.861 3.087 54104.80
41.934 -83.652 3.129 46113.84
41.934 -82.443 3.143 51500.43
41.934 -81.234 3.136 50425.23
41.934 -80.025 3.139 51434.19
41.934 -78.816 3.075 56010.84
41.934 -77.607 3.047 49663.67
41.934 -76.398 3.067 44340.19
41.934 -75.189 3.158 38588.75
41.934 -73.980 3.171 34320.17
41.934 -72.771 3.199 23208.64
41.934 -71.562 3.205 14678.20
41.934 -70.353 3.145 11382.57
41.934 -69.145 3.079 52.15
41.934 -67.936 3.033 0.00
41.934 -66.727 3.030 0.00
41.934 -65.518 3.040 0.00
42.833 -133.707 3.042 0.00
42.833 -132.481 3.041 1.37
42.833 -131.254 3.030 4.82
42.833 -130.028 3.021 0.00
42.833 -128.802 3.140 0.00
42.833 -127.575 3.624 49.79
42.833 -126.349 4.368 8280.35
42.833 -125.122 3.820 8596.49
42.833 -123.896 3.157 8193.21
42.833 -122.670 2.847 14863.77
42.833 -121.443 2.833 18284.14
42.833 -120.217 2.877 24556.11
42.833 -118.990 2.883 35937.87
42.833 -117.764 3.040 45330.72
42.833 -116.538 3.131 52902.45
42.833 -115.311 3.021 54068.77
42.833 -114.085 3.132 61058.90
42.833 -112.858 3.175 56249.84
42.833 -111.632 3.000 65373.20
42.833 -110.406 2.825 65765.08
42.833 -109.179 2.888 56312.22
42.833 -107.953 2.869 45256.30
42.833 -106.727 2.982 39537.03
42.833 -105.500 3.065 34601.99
42.833 -104.274 3.098 32408.73
42.833 -103.047 3.073 30563.97
42.833 -101.821 2.997 32941.11
42.833 -100.595 2.959 36176.83
42.833 -99.368 2.993 45248.38
42.833 -98.142 3.078 65021.41
42.833 -96.915 3.107 67886.84
42.833 -95.689 3.072 70732.18
42.833 -94.463 2.973 68687.70
42.833 -93.236 2.939 59535.88
42.833 -92.010 3.017 48757.93
42.833 -90.783 3.066 66241.26
42.833 -89.557 3.067 50573.08
42.833 -88.331 3.102 50629.61
42.833 -87.104 3.076 60805.00
42.833 -85.878 3.046 52659.38
42.833 -84.652 3.011 54031.75
42.833 -83.425 3.073 52653.85
42.833 -82.199 3.095 46453.41
42.833 -80.972 3.100 54033.49
42.833 -79.746 3.124 51441.54
42.833 -78.520 3.108 53226.14
42.833 -77.293 3.128 56142.98
42.833 -76.067 3.151 50218.69
42.833 -74.840 3.213 43489.40
42.833 -73.614 3.254 42527.62
42.833 -72.388 3.350 41473.98
42.833 -71.161 3.331 16645.05
42.833 -69.935 3.242 3388.27
42.833 -68.708 3.157 340.20
42.833 -67.482 3.069 0.00
42.833 -66.256 3.034 0.00
42.833 -65.029 3.036 0.00
43.732 -134.219 3.040 0.87
43.732 -132.974 3.039 5.47
43.732 -131.729 3.035 0.00
43.732 -130.485 3.037 0.00
43.732 -129.240 3.101 37.05
43.732 -127.995 3.289 128.56
43.732 -126.751 3.403 26175.30
43.732 -125.506 3.129 12000.79
43.732 -124.261 2.956 12690.38
43.732 -123.017 2.878 16535.89
43.732 -121.772 2.880 18988.81
43.732 -120.527 2.834 24129.44
43.732 -119.283 2.839 32845.30
43.732 -118.038 2.998 36051.25
43.732 -116.793 3.123 45604.11
43.732 -115.549 2.992 43563.92
43.732 -114.304 2.975 50217.79
43.732 -113.059 3.073 46236.59
43.732 -111.815 3.019 45021.90
43.732 -110.570 2.829 55865.35
43.732 -109.325 2.904 44009.83
43.732 -108.081 2.883 40621.95
43.732 -106.836 2.895 36884.98
43.732 -105.591 2.958 31875.51
43.732 -104.347 3.088 28953.84
43.732 -103.102 3.180 25902.78
43.732 -101.858 3.107 25365.73
43.732 -100.613 3.062 31079.28
43.732 -99.368 3.067 46103.32
43.732 -98.124 3.123 58341.44
43.732 -96.879 3.126 76010.02
43.732 -95.634 3.178 71381.84
43.732 -94.390 3.109 67923.41
43.732 -93.145 2.985 59243.42
43.732 -91.900 3.101 41875.90
43.732 -90.656 3.093 56742.58
43.732 -89.411 3.043 50227.49
43.732 -88.166 3.101 46406.71
43.732 -86.922 3.075 47477.30
43.732 -85.677 3.089 79545.58
43.732 -84.432 3.088 52637.29
43.732 -83.188 3.101 48174.92
43.732 -81.943 3.192 42558.80
43.732 -80.698 3.170 57454.99
43.732 -79.454 3.121 59037.59
43.732 -78.209 3.105 58070.60
43.732 -76.964 3.173 61856.70
43.732 -75.720 3.225 55985.66
43.732 -74.475 3.268 60379.20
43.732 -73.230 3.260 47989.07
43.732 -71.986 3.292 38895.83
43.732 -70.741 3.308 38070.38
43.732 -69.496 3.208 11581.76
43.732 -68.252 3.170 1585.34
43.732 -67.007 3.086 115.89
43.732 -65.763 3.044 0.00
43.732 -64.518 3.039 0.00
44.632 -134.754 3.039 6.53
44.632 -133.490 3.039 0.00
44.632 -132.227 3.054 0.00
44.632 -130.963 3.080 26.67
44.632 -129.699 3.105 85.63
44.632 -128.435 3.093 143.59
44.632 -127.172 2.986 1401.87
44.632 -125.908 2.846 8555.16
44.632 -124.644 2.810 11152.08
44.632 -123.380 2.823 17898.72
44.632 -122.116 2.888 17239.32
44.632 -120.853 2.875 18974.16
44.632 -119.589 2.859 23236.94
44.632 -118.325 2.922 32227.73
44.632 -117.061 3.033 37989.00
44.632 -115.797 2.984 36730.23
44.632 -114.534 2.944 41461.02
44.632 -113.270 3.009 49970.89
44.632 -112.006 3.012 43060.41
44.632 -110.742 2.864 45240.20
44.632 -109.479 3.018 35815.46
44.632 -108.215 3.029 27238.65
44.632 -106.951 2.923 26610.05
44.632 -105.687 2.866 22910.75
44.632 -104.423 2.921 20382.82
44.632 -103.160 3.027 22882.17
44.632 -101.896 3.072 27401.19
44.632 -100.632 3.073 29694.72
44.632 -99.368 3.088 35071.16
44.632 -98.104 3.220 52267.39
44.632 -96.841 3.205 67841.88
44.632 -95.577 3.215 63412.48
44.632 -94.313 3.135 61071.63
44.632 -93.049 3.002 52623.76
44.632 -91.785 3.118 43876.66
44.632 -90.522 3.138 45646.98
44.632 -89.258 3.087 49047.80
44.632 -87.994 3.121 43344.23
44.632 -86.730 3.074 43026.70
44.632 -85.467 3.056 52168.91
44.632 -84.203 3.055 54836.97
44.632 -82.939 3.114 31333.84
44.632 -81.675 3.204 29112.52
44.632 -80.411 3.212 33675.12
44.632 -79.148 3.082 44013.91
44.632 -77.884 2.975 59486.52
44.632 -76.620 3.119 58807.81
44.632 -75.356 3.235 55251.36
44.632 -74.092 3.193 54537.34
44.632 -72.829 3.204 39597.46
44.632 -71.565 3.133 28564.96
44.632 -70.301 3.087 27604.95
44.632 -69.037 3.097 16079.43
44.632 -67.773 3.116 15603.52
44.632 -66.510 3.074 185.91
44.632 -65.246 3.045 303.80
44.632 -63.982 3.039 291.88
45.531 -135.316 3.046 6.15
45.531 -134.032 3.052 0.00
45.531 -132.748 3.077 19.05
45.531 -131.464 3.093 70.11
45.531 -130.180 3.108 56.11
45.531 -128.897 3.196 117.90
45.531 -127.613 3.388 417.44
45.531 -126.329 3.563 1323.71
45.531 -125.045 3.424 3843.45
45.531 -123.761 3.075 10116.90
45.531 -122.477 2.931 15839.98
45.531 -121.193 2.980 18761.22
45.531 -119.910 2.982 22822.87
45.531 -118.626 2.968 33660.46
45.531 -117.342 2.938 34918.56
45.531 -116.058 2.883 31095.06
45.531 -114.774 2.904 31590.57
45.531 -113.490 2.962 36581.74
45.531 -112.207 3.005 50058.07
45.531 -110.923 2.954 28110.96
45.531 -109.639 3.061 20860.70
45.531 -108.355 3.086 20856.92
45.531 -107.071 2.995 23665.78
45.531 -105.787 2.915 21843.07
45.531 -104.504 2.950 15467.69
45.531 -103.220 2.988 15819.85
45.531 -101.936 3.046 23172.16
45.531 -100.652 3.042 25488.31
45.531 -99.368 3.030 36687.01
45.531 -98.084 3.112 50898.93
45.531 -96.801 3.124 57772.11
45.531 -95.517 3.115 61096.76
45.531 -94.233 3.122 49782.78
45.531 -92.949 3.063 42696.93
45.531 -91.665 3.107 47596.38
45.531 -90.381 3.170 33383.55
45.531 -89.097 3.182 40786.17
45.531 -87.814 3.154 38236.18
45.531 -86.530 3.134 37708.36
45.531 -85.246 3.113 33070.33
45.531 -83.962 3.125 35545.74
45.531 -82.678 3.172 44205.93
45.531 -81.394 3.188 28046.39
45.531 -80.111 3.207 29929.32
45.531 -78.827 3.172 32492.54
45.531 -77.543 2.992 40067.86
45.531 -76.259 3.014 54228.25
45.531 -74.975 3.280 34089.45
45.531 -73.691 3.227 35610.18
45.531 -72.408 3.189 29535.10
45.531 -71.124 3.172 22935.48
45.531 -69.840 3.130 21183.48
45.531 -68.556 3.070 11186.84
45.531 -67.272 3.068 2015.93
45.531 -65.988 3.066 995.26
45.531 -64.705 3.055 471.91
45.531 -63.421 3.052 231.91
46.431 -135.904 3.065 267.65
46.431 -134.600 3.075 26.61
46.431 -133.295 3.079 55.79
46.431 -131.990 3.047 76.12
46.431 -130.685 3.081 0.00
46.431 -129.380 3.391 223.79
46.431 -128.075 4.125 508.52
46.431 -126.770 4.803 1232.57
46.431 -125.466 4.524 2637.35
46.431 -124.161 3.463 4576.45
46.431 -122.856 3.017 11983.70
46.431 -121.551 2.977 19426.56
46.431 -120.246 3.042 26876.80
46.431 -118.941 3.131 32623.60
46.431 -117.636 3.105 26790.20
46.431 -116.331 2.974 23485.29
46.431 -115.027 2.967 28484.44
46.431 -113.722 2.951 32497.96
46.431 -112.417 2.927 25440.94
46.431 -111.112 2.887 18803.58
46.431 -109.807 2.960 16020.02
46.431 -108.502 3.045 17612.97
46.431 -107.197 3.072 18995.56
46.431 -105.893 3.012 23888.48
46.431 -104.588 3.007 14525.29
46.431 -103.283 2.976 16450.82
46.431 -101.978 2.983 22883.53
46.431 -100.673 3.054 25681.64
46.431 -99.368 3.075 28970.25
46.431 -98.063 3.149 36052.75
46.431 -96.758 3.153 47131.53
46.431 -95.454 3.156 49306.59
46.431 -94.149 3.161 37054.84
46.431 -92.844 3.079 31727.88
46.431 -91.539 3.019 26986.80
46.431 -90.234 3.041 18897.00
46.431 -88.929 3.129 15742.53
46.431 -87.624 3.166 17100.76
46.431 -86.320 3.118 25630.96
46.431 -85.015 3.108 26259.12
46.431 -83.710 3.116 23026.13
46.431 -82.405 3.149 24208.02
46.431 -81.100 3.186 20073.97
46.431 -79.795 3.200 30137.51
46.431 -78.490 3.147 30187.91
46.431 -77.185 3.096 31033.00
46.431 -75.881 3.090 27911.53
46.431 -74.576 3.173 23763.92
46.431 -73.271 3.166 29849.07
46.431 -71.966 3.106 27120.66
46.431 -70.661 3.107 20111.43
46.431 -69.356 3.103 12640.65
46.431 -68.051 3.076 13706.81
46.431 -66.747 3.091 428.03
46.431 -65.442 3.089 579.87
46.431 -64.137 3.069 192.56
46.431 -62.832 3.061 105.88
47.330 -136.522 3.072 141.28
47.330 -135.195 3.071 57.34
47.330 -133.868 3.056 72.14
47.330 -132.541 3.041 5.47
47.330 -131.214 3.201 0.00
47.330 -129.887 3.722 224.79
47.330 -128.561 4.787 910.03
47.330 -127.234 5.481 2013.38
47.330 -125.907 4.915 1951.99
47.330 -124.580 3.558 3787.75
47.330 -123.253 2.994 11869.63
47.330 -121.926 2.927 17492.63
47.330 -120.599 3.149 20876.04
47.330 -119.272 3.371 21051.01
47.330 -117.945 3.276 20351.81
47.330 -116.618 3.012 21432.82
47.330 -115.291 2.910 21987.99
47.330 -113.964 2.930 19411.48
47.330 -112.637 2.984 17611.15
47.330 -111.311 2.905 14295.55
47.330 -109.984 2.921 13696.33
47.330 -108.657 3.055 13149.18
47.330 -107.330 3.133 14991.11
47.330 -106.003 3.045 16114.19
47.330 -104.676 3.022 16375.51
47.330 -103.349 3.005 14790.04
47.330 -102.022 2.994 21051.94
47.330 -100.695 3.070 24504.84
47.330 -99.368 3.109 27479.93
47.330 -98.041 3.163 37284.82
47.330 -96.714 3.171 37810.72
47.330 -95.387 3.132 33372.60
47.330 -94.061 3.137 30863.00
47.330 -92.734 3.118 23864.66
47.330 -91.407 3.073 14151.67
47.330 -90.080 3.023 14471.46
47.330 -88.753 3.079 11958.33
47.330 -87.426 3.083 9117.22
47.330 -86.099 3.137 5838.84
47.330 -84.772 3.206 4351.19
47.330 -83.445 3.244 4904.03
47.330 -82.118 3.222 6672.72
47.330 -80.791 3.178 8885.27
47.330 -79.464 3.164 10032.36
47.330 -78.137 3.175 10246.86
47.330 -76.811 3.134 15792.10
47.330 -75.484 3.108 11792.12
47.330 -74.157 3.124 10215.50
47.330 -72.830 3.144 8963.95
47.330 -71.503 3.124 7785.56
47.330 -70.176 3.103 9673.64
47.330 -68.849 3.094 1372.27
47.330 -67.522 3.100 539.03
47.330 -66.195 3.118 449.82
47.330 -64.868 3.114 297.60
47.330 -63.541 3.084 192.13
47.330 -62.214 3.075 88.96
48.229 -137.170 3.085 99.15
48.229 -135.820 3.066 54.16
48.229 -134.470 3.092 33.69
48.229 -133.120 3.180 3.83
48.229 -131.770 3.493 12.75
48.229 -130.420 4.199 676.07
48.229 -129.070 5.155 1259.85
48.229 -127.720 5.113 2168.32
48.229 -126.370 4.375 1580.21
48.229 -125.020 3.359 6099.84
48.229 -123.670 2.980 15406.78
48.229 -122.320 2.988 14693.99
48.229 -120.969 3.249 16371.10
48.229 -119.619 3.363 13362.86
48.229 -118.269 3.223 14747.50
48.229 -116.919 3.033 18238.94
48.229 -115.569 2.911 15937.84
48.229 -114.219 2.988 14052.70
48.229 -112.869 3.074 14097.49
48.229 -111.519 3.050 9486.84
48.229 -110.169 3.015 9916.18
48.229 -108.819 3.086 9599.97
48.229 -107.469 3.110 13004.10
48.229 -106.119 3.018 11366.08
48.229 -104.769 2.974 17419.86
48.229 -103.418 3.020 13423.47
48.229 -102.068 3.054 16940.06
48.229 -100.718 3.076 20037.91
48.229 -99.368 3.094 22923.69
48.229 -98.018 3.119 20953.94
48.229 -96.668 3.133 23024.09
48.229 -95.318 3.132 26718.01
48.229 -93.968 3.163 18393.62
48.229 -92.618 3.173 7391.52
48.229 -91.268 3.147 6788.76
48.229 -89.918 3.119 4912.25
48.229 -88.568 3.128 6207.33
48.229 -87.217 3.123 4021.27
48.229 -85.867 3.158 3102.03
48.229 -84.517 3.205 2676.40
48.229 -83.167 3.212 2755.67
48.229 -81.817 3.190 3573.43
48.229 -80.467 3.170 3560.47
48.229 -79.117 3.186 4116.01
48.229 -77.767 3.215 3755.31
48.229 -76.417 3.183 3324.98
48.229 -75.067 3.106 2053.21
48.229 -73.717 3.094 1882.60
48.229 -72.367 3.122 1098.90
48.229 -71.017 3.121 752.00
48.229 -69.666 3.101 463.81
48.229 -68.316 3.087 256.93
48.229 -66.966 3.073 381.29
48.229 -65.616 3.079 342.78
48.229 -64.266 3.079 371.05
48.229 -62.916 3.076 260.02
48.229 -61.566 3.117 247.61
49.129 -137.851 3.215 86.79
49.129 -136.477 3.198 50.75
49.129 -135.103 3.226 0.00
49.129 -133.728 3.406 182.81
49.129 -132.354 3.832 672.32
49.129 -130.979 4.596 958.98
49.129 -129.605 5.023 706.65
49.129 -128.231 4.434 2104.25
49.129 -126.856 3.772 3554.60
49.129 -125.482 3.209 13880.16
49.129 -124.107 3.071 16518.34
49.129 -122.733 3.084 13017.73
49.129 -121.359 3.170 10819.02
49.129 -119.984 3.144 11639.40
49.129 -118.610 3.091 10993.91
49.129 -117.235 3.011 11176.69
49.129 -115.861 2.962 10272.65
49.129 -114.487 2.954 8678.45
49.129 -113.112 3.032 9529.00
49.129 -111.738 3.008 8063.92
49.129 -110.363 2.972 8152.01
49.129 -108.989 3.015 9199.71
49.129 -107.615 3.087 9089.71
49.129 -106.240 3.116 10819.50
49.129 -104.866 2.993 12044.00
49.129 -103.491 3.035 13365.57
49.129 -102.117 3.092 11702.15
49.129 -100.743 3.090 11759.04
49.129 -99.368 3.092 10254.09
49.129 -97.994 3.116 11439.89
49.129 -96.619 3.147 10317.21
49.129 -95.245 3.147 8718.40
49.129 -93.871 3.164 2678.80
49.129 -92.496 3.159 2853.20
49.129 -91.122 3.114 3584.02
49.129 -89.747 3.104 3771.07
49.129 -88.373 3.117 3628.64
49.129 -86.999 3.114 4442.31
49.129 -85.624 3.125 3542.91
49.129 -84.250 3.133 2995.09
49.129 -82.875 3.134 3631.51
49.129 -81.501 3.135 2759.21
49.129 -80.127 3.150 3917.66
49.129 -78.752 3.168 2678.76
49.129 -77.378 3.156 2020.90
49.129 -76.003 3.145 1762.75
49.129 -74.629 3.086 1444.64
49.129 -73.255 3.087 951.93
49.129 -71.880 3.103 831.17
49.129 -70.506 3.093 513.20
49.129 -69.131 3.074 333.18
49.129 -67.757 3.060 624.32
49.129 -66.383 3.045 241.65
49.129 -65.008 3.039 158.14
49.129 -63.634 3.037 99.63
49.129 -62.259 3.074 127.28
49.129 -60.885 3.208 168.29
50.028 -138.567 3.463 337.11
50.028 -137.167 3.450 467.87
50.028 -135.767 3.401 415.56
50.028 -134.367 3.572 526.44
50.028 -132.967 4.052 311.70
50.028 -131.567 4.663 703.24
50.028 -130.167 4.449 983.06
50.028 -128.767 3.761 2874.95
50.028 -127.368 3.431 14787.97
50.028 -125.968 3.199 18087.87
50.028 -124.568 3.116 14676.48
50.028 -123.168 3.044 11859.34
50.028 -121.768 3.039 12153.02
50.028 -120.368 3.051 10409.10
50.028 -118.968 3.037 8721.75
50.028 -117.568 2.987 9237.02
50.028 -116.168 2.951 7959.81
50.028 -114.768 2.868 8050.39
50.028 -113.368 2.910 7642.92
50.028 -111.968 2.958 7770.84
50.028 -110.568 2.967 6368.63
50.028 -109.168 2.945 7972.94
50.028 -107.768 3.050 8594.42
50.028 -106.368 3.166 9499.40
50.028 -104.968 3.046 9636.36
50.028 -103.568 3.058 13611.25
50.028 -102.168 3.107 9206.04
50.028 -100.768 3.099 8029.97
50.028 -99.368 3.091 6878.85
50.028 -97.968 3.085 6316.19
50.028 -96.568 3.097 7743.27
50.028 -95.168 3.110 3216.52
50.028 -93.768 3.123 2561.59
50.028 -92.368 3.092 2114.74
50.028 -90.968 3.044 4421.58
50.028 -89.568 3.057 3576.44
50.028 -88.168 3.096 3660.98
50.028 -86.769 3.107 2925.08
50.028 -85.369 3.134 2200.30
50.028 -83.969 3.121 2688.33
50.028 -82.569 3.129 2994.33
50.028 -81.169 3.151 3446.32
50.028 -79.769 3.164 2313.42
50.028 -78.369 3.125 1201.79
50.028 -76.969 3.087 1657.06
50.028 -75.569 3.071 1926.41
50.028 -74.169 3.080 1490.49
50.028 -72.769 3.089 497.18
50.028 -71.369 3.068 254.16
50.028 -69.969 3.040 322.92
50.028 -68.569 3.031 260.46
50.028 -67.169 3.039 374.36
50.028 -65.769 3.055 91.96
50.028 -64.369 3.070 133.90
50.028 -62.969 3.106 46.85
50.028 -61.569 3.191 109.90
50.028 -60.169 3.351 96.36
50.927 -139.320 3.617 857.65
50.927 -137.893 3.598 624.36
50.927 -136.466 3.472 285.70
50.927 -135.040 3.640 2.00
50.927 -133.613 4.105 677.30
50.927 -132.186 4.276 346.61
50.927 -130.759 3.799 1537.88
50.927 -129.332 3.352 19074.43
50.927 -127.905 3.383 24656.03
50.927 -126.478 3.207 15643.97
50.927 -125.052 3.011 15171.81
50.927 -123.625 3.000 12398.26
50.927 -122.198 2.932 10716.44
50.927 -120.771 2.964 8158.70
50.927 -119.344 2.919 9005.04
50.927 -117.917 2.904 10145.41
50.927 -116.490 2.885 7541.17
50.927 -115.064 2.857 7103.13
50.927 -113.637 2.818 6325.71
50.927 -112.210 2.922 6963.64
50.927 -110.783 2.988 5236.99
50.927 -109.356 2.942 6594.94
50.927 -107.929 3.060 7325.16
50.927 -106.502 3.235 8886.27
50.927 -105.076 3.152 10064.05
50.927 -103.649 3.079 12334.32
50.927 -102.222 3.100 10760.67
50.927 -100.795 3.089 6563.01
50.927 -99.368 3.078 5506.91
50.927 -97.941 3.076 4784.04
50.927 -96.514 3.095 3110.51
50.927 -95.088 3.081 3180.24
50.927 -93.661 3.069 2552.52
50.927 -92.234 3.041 3019.15
50.927 -90.807 3.045 4050.66
50.927 -89.380 3.083 2437.58
50.927 -87.953 3.102 2668.22
50.927 -86.526 3.100 3141.25
50.927 -85.100 3.131 2547.93
50.927 -83.673 3.131 1575.86
50.927 -82.246 3.153 2967.02
50.927 -80.819 3.182 2878.10
50.927 -79.392 3.164 1214.78
50.927 -77.965 3.104 1821.15
50.927 -76.538 3.065 1313.66
50.927 -75.112 3.060 1571.39
50.927 -73.685 3.104 1307.33
50.927 -72.258 3.119 299.82
50.927 -70.831 3.069 391.36
50.927 -69.404 3.035 357.99
50.927 -67.977 3.059 262.98
50.927 -66.550 3.120 52.86
50.927 -65.124 3.189 140.87
50.927 -63.697 3.255 75.95
50.927 -62.270 3.308 261.98
50.927 -60.843 3.373 400.75
50.927 -59.416 3.485 689.15
51.827 -140.113 3.578 791.41
51.827 -138.658 3.558 79.92
51.827 -137.203 3.462 21.97
51.827 -135.747 3.648 155.82
51.827 -134.292 4.042 700.29
51.827 -132.837 4.026 441.51
51.827 -131.382 3.554 27597.83
51.827 -129.927 3.387 38445.11
51.827 -128.472 3.409 18738.78
51.827 -127.016 3.245 14040.43
51.827 -125.561 2.996 11849.12
51.827 -124.106 2.948 10431.88
51.827 -122.651 2.909 8609.95
51.827 -121.196 2.937 6522.98
51.827 -119.741 2.890 6653.79
51.827 -118.285 2.907 5920.15
51.827 -116.830 2.892 5264.11
51.827 -115.375 2.860 4233.33
51.827 -113.920 2.836 4729.80
51.827 -112.465 2.913 6007.71
51.827 -111.010 3.025 5849.65
51.827 -109.554 3.030 6561.29
51.827 -108.099 3.079 7630.59
51.827 -106.644 3.207 10947.70
51.827 -105.189 3.225 11206.81
51.827 -103.734 3.067 10914.45
51.827 -102.279 3.080 11633.49
51.827 -100.823 3.097 7124.90
51.827 -99.368 3.087 4833.12
51.827 -97.913 3.103 4569.53
51.827 -96.458 3.101 2301.06
51.827 -95.003 3.088 3060.07
51.827 -93.548 3.083 2670.07
51.827 -92.092 3.080 2545.24
51.827 -90.637 3.103 3189.99
51.827 -89.182 3.121 2469.23
51.827 -87.727 3.114 3194.21
51.827 -86.272 3.112 2896.12
51.827 -84.817 3.116 2124.93
51.827 -83.361 3.124 2249.78
51.827 -81.906 3.176 2066.41
51.827 -80.451 3.206 1596.32
51.827 -78.996 3.177 1941.12
51.827 -77.541 3.158 1980.78
51.827 -76.085 3.148 1378.77
51.827 -74.630 3.185 869.63
51.827 -73.175 3.258 924.20
51.827 -71.720 3.303 604.24
51.827 -70.265 3.249 510.79
51.827 -68.810 3.214 275.68
51.827 -67.354 3.252 99.88
51.827 -65.899 3.331 213.80
51.827 -64.444 3.402 519.09
51.827 -62.989 3.454 581.17
51.827 -61.534 3.476 536.31
51.827 -60.079 3.482 637.35
51.827 -58.623 3.484 267.75
52.726 -140.948 3.471 83.92
52.726 -139.463 3.466 91.89
52.726 -137.978 3.474 135.84
52.726 -136.493 3.742 514.48
52.726 -135.008 4.095 410.61
52.726 -133.523 4.048 825.11
52.726 -132.038 3.686 2827.20
52.726 -130.553 3.518 5127.58
52.726 -129.068 3.547 4128.27
52.726 -127.583 3.375 3932.45
52.726 -126.098 3.061 5014.35
52.726 -124.613 2.992 6240.77
52.726 -123.128 3.036 4161.68
52.726 -121.643 3.026 4525.72
52.726 -120.158 2.903 5363.25
52.726 -118.673 2.920 5701.90
52.726 -117.188 2.972 4753.55
52.726 -115.703 2.942 4314.24
52.726 -114.218 2.888 4451.82
52.726 -112.733 2.919 7353.27
52.726 -111.248 3.007 7254.17
52.726 -109.763 3.089 7115.15
52.726 -108.278 3.072 9606.86
52.726 -106.793 3.161 12617.81
52.726 -105.308 3.210 11574.19
52.726 -103.823 3.079 11140.48
52.726 -102.338 3.101 10633.97
52.726 -100.853 3.130 8258.61
52.726 -99.368 3.148 4336.67
52.726 -97.883 3.148 3452.36
52.726 -96.398 3.127 1955.69
52.726 -94.913 3.092 3033.85
52.726 -93.428 3.104 2148.17
52.726 -91.943 3.126 2508.05
52.726 -90.458 3.126 3016.54
52.726 -88.973 3.147 2111.80
52.726 -87.488 3.138 2762.45
52.726 -86.003 3.115 3205.15
52.726 -84.518 3.109 2178.87
52.726 -83.033 3.125 1929.33
52.726 -81.548 3.161 1456.03
52.726 -80.063 3.195 1786.99
52.726 -78.578 3.222 2228.68
52.726 -77.093 3.262 1586.93
52.726 -75.608 3.301 1455.37
52.726 -74.123 3.381 1472.44
52.726 -72.638 3.500 700.33
52.726 -71.153 3.564 1163.78
52.726 -69.668 3.549 668.99
52.726 -68.183 3.497 567.52
52.726 -66.698 3.486 507.57
52.726 -65.213 3.492 622.37
52.726 -63.728 3.501 456.62
52.726 -62.243 3.494 509.31
52.726 -60.758 3.470 393.91
52.726 -59.273 3.416 0.00
52.726 -57.788 3.387 83.93
53.625 -141.829 3.388 414.58
53.625 -140.313 3.404 174.83
53.625 -138.796 3.528 114.90
53.625 -137.280 3.789 634.35
53.625 -135.763 3.964 195.80
53.625 -134.247 3.952 1127.10
53.625 -132.730 3.922 1293.01
53.625 -131.214 3.792 1577.63
53.625 -129.697 3.668 2546.62
53.625 -128.181 3.351 3388.00
53.625 -126.665 3.037 3875.81
53.625 -125.148 3.043 4666.20
53.625 -123.632 3.187 3171.60
53.625 -122.115 3.121 3339.25
53.625 -120.599 2.941 5340.05
53.625 -119.082 2.900 4544.97
53.625 -117.566 3.020 4780.40
53.625 -116.049 3.023 3742.97
53.625 -114.533 2.948 5324.07
53.625 -113.016 2.944 5856.40
53.625 -111.500 2.954 7581.39
53.625 -109.983 3.054 8985.47
53.625 -108.467 3.075 10709.50
53.625 -106.951 3.115 13239.06
53.625 -105.434 3.161 11349.72
53.625 -103.918 3.175 8411.67
53.625 -102.401 3.140 8633.65
53.625 -100.885 3.171 9101.78
53.625 -99.368 3.188 4191.10
53.625 -97.852 3.185 3002.85
53.625 -96.335 3.136 2222.82
53.625 -94.819 3.106 2265.66
53.625 -93.302 3.140 1995.92
53.625 -91.786 3.137 2515.46
53.625 -90.269 3.134 2292.64
53.625 -88.753 3.149 2559.55
53.625 -87.237 3.128 3521.50
53.625 -85.720 3.110 2663.23
53.625 -84.204 3.096 1399.60
53.625 -82.687 3.112 1206.78
53.625 -81.171 3.141 1277.65
53.625 -79.654 3.152 2080.87
53.625 -78.138 3.166 1665.46
53.625 -76.621 3.210 1350.51
53.625 -75.105 3.281 1234.88
53.625 -73.588 3.366 1673.96
53.625 -72.072 3.472 895.14
53.625 -70.555 3.529 1063.92
53.625 -69.039 3.571 898.28
53.625 -67.523 3.550 649.58
53.625 -66.006 3.515 493.29
53.625 -64.490 3.462 441.59
53.625 -62.973 3.429 380.88
53.625 -61.457 3.402 218.27
53.625 -59.940 3.345 106.90
53.625 -58.424 3.275 141.86
53.625 -56.907 3.238 168.81
54.525 -142.759 3.277 105.88
54.525 -141.209 3.300 0.00
54.525 -139.660 3.549 394.58
54.525 -138.110 3.764 317.70
54.525 -136.560 3.791 444.51
54.525 -135.011 3.806 1130.32
54.525 -133.461 3.994 860.91
54.525 -131.911 3.890 1221.34
54.525 -130.362 3.625 2362.35
54.525 -128.812 3.281 3386.63
54.525 -127.262 3.004 3915.13
54.525 -125.713 3.032 4078.30
54.525 -124.163 3.253 3624.04
54.525 -122.613 3.161 3185.90
54.525 -121.064 2.972 4752.11
54.525 -119.514 2.900 4308.26
54.525 -117.964 3.018 4275.14
54.525 -116.415 3.055 3929.67
54.525 -114.865 3.017 4583.53
54.525 -113.315 3.017 5745.71
54.525 -111.766 3.028 8226.56
54.525 -110.216 3.009 10433.88
54.525 -108.666 3.092 11892.25
54.525 -107.117 3.116 12978.42
54.525 -105.567 3.175 9778.20
54.525 -104.017 3.242 7326.47
54.525 -102.468 3.132 7481.72
54.525 -100.918 3.148 7146.30
54.525 -99.368 3.161 5650.11
54.525 -97.819 3.167 2846.96
54.525 -96.269 3.151 2287.55
54.525 -94.719 3.154 2442.48
54.525 -93.170 3.190 2543.38
54.525 -91.620 3.172 1914.02
54.525 -90.070 3.122 3090.85
54.525 -88.520 3.100 2764.25
54.525 -86.971 3.116 2838.13
54.525 -85.421 3.094 1743.64
54.525 -83.871 3.082 1306.67
54.525 -82.322 3.120 1146.81
54.525 -80.772 3.130 1491.45
54.525 -79.222 3.107 2078.89
54.525 -77.673 3.100 1328.61
54.525 -76.123 3.109 748.27
54.525 -74.573 3.132 1239.78
54.525 -73.024 3.173 957.10
54.525 -71.474 3.221 490.32
54.525 -69.924 3.250 510.05
54.525 -68.375 3.294 789.83
54.525 -66.825 3.317 828.99
54.525 -65.275 3.321 267.15
54.525 -63.726 3.296 263.05
54.525 -62.176 3.255 98.25
54.525 -60.626 3.230 99.88
54.525 -59.077 3.201 134.84
54.525 -57.527 3.149 105.88
54.525 -55.977 3.144 0.00
55.424 -143.742 3.255 0.00
55.424 -142.157 3.285 39.96
55.424 -140.572 3.540 564.41
55.424 -138.988 3.733 179.83
55.424 -137.403 3.757 609.32
55.424 -135.818 3.799 1192.39
55.424 -134.233 3.940 642.36
55.424 -132.648 3.738 1712.76
55.424 -131.064 3.525 2522.61
55.424 -129.479 3.310 3217.75
55.424 -127.894 3.000 3137.76
55.424 -126.309 2.990 3960.25
55.424 -124.725 3.213 4387.83
55.424 -123.140 3.113 3049.03
55.424 -121.555 2.963 4377.69
55.424 -119.970 2.924 5995.19
55.424 -118.385 2.990 5199.74
55.424 -116.801 3.027 3960.82
55.424 -115.216 3.081 5228.62
55.424 -113.631 3.099 6446.10
55.424 -112.046 3.110 10069.84
55.424 -110.462 3.048 13328.08
55.424 -108.877 3.016 12914.67
55.424 -107.292 3.103 10726.53
55.424 -105.707 3.135 8919.72
55.424 -104.123 3.206 6141.56
55.424 -102.538 3.158 5063.54
55.424 -100.953 3.134 6639.61
55.424 -99.368 3.139 8154.36
55.424 -97.783 3.157 2521.36
55.424 -96.199 3.176 2864.10
55.424 -94.614 3.183 1650.31
55.424 -93.029 3.206 2515.45
55.424 -91.444 3.139 2063.94
55.424 -89.860 3.074 3028.98
55.424 -88.275 3.078 2076.88
55.424 -86.690 3.102 2596.40
55.424 -85.105 3.074 1387.50
55.424 -83.520 3.090 1578.36
55.424 -81.936 3.116 1133.81
55.424 -80.351 3.102 2166.77
55.424 -78.766 3.093 1786.82
55.424 -77.181 3.097 1304.34
55.424 -75.597 3.089 837.16
55.424 -74.012 3.106 1291.59
55.424 -72.427 3.141 585.42
55.424 -70.842 3.139 528.04
55.424 -69.257 3.130 663.72
55.424 -67.673 3.150 899.49
55.424 -66.088 3.178 492.12
55.424 -64.503 3.200 430.74
55.424 -62.918 3.187 224.74
55.424 -61.334 3.156 127.85
55.424 -59.749 3.124 30.96
55.424 -58.164 3.094 0.00
55.424 -56.579 3.059 0.00
55.424 -54.995 3.121 0.00
56.324 -144.782 3.347 0.00
56.324 -143.160 3.394 453.52
56.324 -141.538 3.545 169.82
56.324 -139.916 3.716 423.57
56.324 -138.294 3.804 964.96
56.324 -136.672 3.857 861.83
56.324 -135.050 3.822 795.78
56.324 -133.428 3.494 1702.25
56.324 -131.806 3.410 2934.70
56.324 -130.184 3.315 3265.99
56.324 -128.563 3.044 2818.14
56.324 -126.941 3.014 3089.07
56.324 -125.319 3.139 5448.92
56.324 -123.697 3.026 4397.02
56.324 -122.075 2.911 4729.29
56.324 -120.453 2.927 4542.21
56.324 -118.831 2.992 5176.02
56.324 -117.209 2.990 4532.28
56.324 -115.587 3.071 5488.19
56.324 -113.965 3.139 8289.35
56.324 -112.343 3.138 12940.63
56.324 -110.722 3.093 14980.65
56.324 -109.100 2.988 10914.44
56.324 -107.478 3.042 9390.35
56.324 -105.856 3.062 5718.50
56.324 -104.234 3.116 6792.12
56.324 -102.612 3.204 5595.17
56.324 -100.990 3.143 7102.21
56.324 -99.368 3.159 6177.21
56.324 -97.746 3.133 4210.23
56.324 -96.124 3.155 1776.20
56.324 -94.502 3.171 1923.94
56.324 -92.881 3.172 3652.42
56.324 -91.259 3.107 1835.16
56.324 -89.637 3.060 1946.04
56.324 -88.015 3.063 2116.86
56.324 -86.393 3.072 2192.79
56.324 -84.771 3.034 1270.60
56.324 -83.149 3.048 1615.38
56.324 -81.527 3.062 1555.39
56.324 -79.905 3.070 2056.50
56.324 -78.283 3.114 1295.72
56.324 -76.661 3.142 664.45
56.324 -75.040 3.127 977.51
56.324 -73.418 3.150 1327.54
56.324 -71.796 3.187 415.56
56.324 -70.174 3.169 660.30
56.324 -68.552 3.146 645.49
56.324 -66.930 3.145 641.55
56.324 -65.308 3.121 374.89
56.324 -63.686 3.105 200.89
56.324 -62.064 3.088 87.93
56.324 -60.442 3.068 66.94
56.324 -58.820 3.051 0.00
56.324 -57.199 3.025 9.07
56.324 -55.577 3.014 0.00
56.324 -53.955 3.138 0.00
57.223 -145.883 3.492 144.85
57.223 -144.222 3.536 501.47
57.223 -142.561 3.599 22.97
57.223 -140.899 3.727 666.30
57.223 -139.238 3.873 979.13
57.223 -137.577 3.881 976.58
57.223 -135.916 3.642 951.62
57.223 -134.254 3.302 1305.29
57.223 -132.593 3.305 3175.71
57.223 -130.932 3.275 2906.23
57.223 -129.271 3.104 3255.01
57.223 -127.609 3.121 3311.03
57.223 -125.948 3.128 5297.21
57.223 -124.287 2.943 4881.07
57.223 -122.626 2.877 3914.02
57.223 -120.964 2.943 3533.63
57.223 -119.303 3.028 3621.12
57.223 -117.642 2.998 4425.82
57.223 -115.981 3.017 6491.24
57.223 -114.319 3.115 11606.35
57.223 -112.658 3.139 15360.86
57.223 -110.997 3.085 14129.09
57.223 -109.336 2.978 9548.08
57.223 -107.674 2.929 7204.75
57.223 -106.013 2.970 5941.61
57.223 -104.352 3.042 5886.68
57.223 -102.691 3.182 6445.22
57.223 -101.029 3.141 4807.95
57.223 -99.368 3.138 4772.78
57.223 -97.707 3.085 6399.66
57.223 -96.046 3.113 3289.33
57.223 -94.384 3.142 2657.33
57.223 -92.723 3.149 2901.10
57.223 -91.062 3.107 1592.40
57.223 -89.401 3.066 2200.70
57.223 -87.739 3.051 1959.95
57.223 -86.078 3.042 1742.27
57.223 -84.417 3.019 1851.06
57.223 -82.756 3.048 1627.36
57.223 -81.094 3.058 1774.19
57.223 -79.433 3.082 1587.38
57.223 -77.772 3.131 1001.94
57.223 -76.111 3.140 799.18
57.223 -74.449 3.107 1139.86
57.223 -72.788 3.115 948.99
57.223 -71.127 3.128 519.49
57.223 -69.466 3.118 182.36
57.223 -67.805 3.111 466.57
57.223 -66.143 3.109 243.77
57.223 -64.482 3.074 200.83
57.223 -62.821 3.042 180.42
57.223 -61.160 3.023 106.58
57.223 -59.498 3.016 107.87
57.223 -57.837 3.012 95.94
57.223 -56.176 2.996 72.83
57.223 -54.515 3.006 21.60
57.223 -52.853 3.169 0.45
58.122 -147.051 3.614 590.38
58.122 -145.348 3.644 84.91
58.122 -143.645 3.697 260.72
58.122 -141.942 3.810 777.17
58.122 -140.239 3.940 952.90
58.122 -138.537 3.839 1152.80
58.122 -136.834 3.461 162.85
58.122 -135.131 3.172 1867.04
58.122 -133.428 3.209 4250.70
58.122 -131.725 3.202 3133.23
58.122 -130.022 3.115 4454.36
58.122 -128.319 3.160 2968.47
58.122 -126.616 3.134 4783.08
58.122 -124.913 2.925 5247.75
58.122 -123.210 2.884 3414.61
58.122 -121.507 2.930 4242.11
58.122 -119.804 2.991 3553.06
58.122 -118.101 2.975 6005.50
58.122 -116.398 2.979 9695.15
58.122 -114.695 3.100 16763.44
58.122 -112.992 3.194 15226.46
58.122 -111.289 3.160 11807.93
58.122 -109.586 3.047 6587.30
58.122 -107.883 2.969 6133.54
58.122 -106.180 2.936 5435.60
58.122 -104.477 3.021 5017.77
58.122 -102.774 3.137 5782.00
58.122 -101.071 3.160 4327.45
58.122 -99.368 3.088 5100.59
58.122 -97.665 3.081 7000.20
58.122 -95.962 3.109 4607.65
58.122 -94.259 3.176 3198.66
58.122 -92.556 3.178 1774.27
58.122 -90.853 3.147 1769.12
58.122 -89.150 3.097 1730.17
58.122 -87.447 3.060 2175.72
58.122 -85.744 3.043 1935.08
58.122 -84.041 3.032 2139.86
58.122 -82.339 3.056 1798.18
58.122 -80.636 3.074 1144.82
58.122 -78.933 3.106 1235.72
58.122 -77.230 3.137 812.17
58.122 -75.527 3.117 1286.73
58.122 -73.824 3.069 1343.55
58.122 -72.121 3.067 389.65
58.122 -70.418 3.064 354.93
58.122 -68.715 3.064 152.66
58.122 -67.012 3.076 420.59
58.122 -65.309 3.075 132.87
58.122 -63.606 3.052 100.89
58.122 -61.903 3.030 27.98
58.122 -60.200 3.020 130.90
58.122 -58.497 3.020 104.92
58.122 -56.794 3.012 78.87
58.122 -55.091 2.993 108.16
58.122 -53.388 3.006 115.92
58.122 -51.685 3.167 96.91
59.022 -148.292 3.610 718.16
59.022 -146.545 3.660 18.86
59.022 -144.798 3.775 645.32
59.022 -143.050 3.905 955.99
59.022 -141.303 3.943 1141.82
59.022 -139.556 3.697 467.53
59.022 -137.808 3.311 269.04
59.022 -136.061 3.082 4020.81
59.022 -134.314 3.143 6213.86
59.022 -132.567 3.146 3337.56
59.022 -130.819 3.086 4382.48
59.022 -129.072 3.119 3265.23
59.022 -127.325 3.113 5583.60
59.022 -125.577 2.975 5808.18
59.022 -123.830 2.959 4331.35
59.022 -122.083 2.984 4074.34
59.022 -120.336 2.988 4207.16
59.022 -118.588 2.946 7996.71
59.022 -116.841 3.002 16415.75
59.022 -115.094 3.109 18718.30
59.022 -113.346 3.261 12607.12
59.022 -111.599 3.244 7647.26
59.022 -109.852 3.118 4994.57
59.022 -108.105 3.009 5410.51
59.022 -106.357 2.942 3595.71
59.022 -104.610 2.986 4909.97
59.022 -102.863 3.071 5274.67
59.022 -101.115 3.141 4796.03
59.022 -99.368 3.028 5900.08
59.022 -97.621 3.065 4396.98
59.022 -95.874 3.076 6125.00
59.022 -94.126 3.157 3159.19
59.022 -92.379 3.161 1268.72
59.022 -90.632 3.128 1031.94
59.022 -88.884 3.075 1462.49
59.022 -87.137 3.056 2774.20
